ncols 119
nrows 32
xllcorner 1080
yllcorner 560
cellsize 10.0
1.094238245207422855e-01 1.104346342726282570e-01 1.103911069905110232e-01 1.100409841161536506e-01 1.089832088189013892e-01 1.104792966673393412e-01 1.100126234659921515e-01 1.093315739765585159e-01 1.099231960473153330e-01 1.097573570263444265e-01 1.095260970102089892e-01 1.098539915167559278e-01 1.086192617161973600e-01 1.091951722599309865e-01 1.098724970265952394e-01 1.099610326302306595e-01 1.090892077024941953e-01 1.091675939320449484e-01 1.088350659912111357e-01 1.093906301276877935e-01 1.092204836962509529e-01 1.084873441086683377e-01 1.097450138210860904e-01 1.091944237061847067e-01 1.092991075420260416e-01 1.091696426341957626e-01 1.086222605577351202e-01 1.096137630756583436e-01 1.095051632347877196e-01 1.100408206337822881e-01 1.088399746055117578e-01 1.089362292192138509e-01 1.089363622867236397e-01 1.094983989453412188e-01 1.100543590880875694e-01 1.093762590109767646e-01 1.083323384050775967e-01 1.089695862836605605e-01 1.099547648695066021e-01 1.091824109076999227e-01 1.088550120297870488e-01 1.094396304160167865e-01 1.096965342212365135e-01 1.083968448357452846e-01 1.096345431273899884e-01 1.093354323239881520e-01 1.085721508354616227e-01 1.088659583383684848e-01 1.088989982264304129e-01 1.084658354175768030e-01 1.083602326661443904e-01 1.084716970117235446e-01 1.093862048559610944e-01 1.090958605908529666e-01 1.085944108622925591e-01 1.091373303282306140e-01 1.099201307225397273e-01 1.090091715874960399e-01 1.086660283746715971e-01 1.093267060710051003e-01 1.087129018207901310e-01 1.090205432754897813e-01 1.085612565848010080e-01 1.098007147862056360e-01 1.087998712559478803e-01 1.087634273486175474e-01 1.088719257407652075e-01 1.091152034752666256e-01 1.099344340401848252e-01 1.088133668587903113e-01 1.092130146573742078e-01 1.096481364064096076e-01 1.085139987175750415e-01 1.083721029674708930e-01 1.082449094096954029e-01 1.085362200192398208e-01 1.093073153834555333e-01 1.090252801434899166e-01 1.097929653706133241e-01 1.098003058200939797e-01 1.095884096613870123e-01 1.093393507736922787e-01 1.088294349458276689e-01 1.095402640385368526e-01 1.097690117171309238e-01 1.086734810959452679e-01 1.094502162151785724e-01 1.096434190865674951e-01 1.098638631960747319e-01 1.097969169131477740e-01 1.093033900763147326e-01 1.102633550033264714e-01 1.092850304046432686e-01 1.098408995307268710e-01 1.096501684956149303e-01 1.084912609907697639e-01 1.085862034893161215e-01 1.092338079635436082e-01 1.100245966193270919e-01 1.103523256829926913e-01 1.093492738696630745e-01 1.085726304168439099e-01 1.096568783036929173e-01 1.102999570002947127e-01 1.109705224815929897e-01 1.112507714137340176e-01 1.119778958233104138e-01 1.110229664203152417e-01 1.092366714417665752e-01 1.096142639611318165e-01 1.095007035467858297e-01 1.096376407884513959e-01 1.093142467454302491e-01 1.085561283032056984e-01 1.084322079100634995e-01 1.094566239152414550e-01 1.089330920889819698e-01 1.092849254094660910e-01 1.092014054182270794e-01
1.089796704652053472e-01 1.094635688791493755e-01 1.103528763742670088e-01 1.102323348539523684e-01 1.097937632202444225e-01 1.092849205313808636e-01 1.099858139774904792e-01 1.091825983291992846e-01 1.086997217710209962e-01 1.086359197791152420e-01 1.085871093674775356e-01 1.084870414303385489e-01 1.089149131960874400e-01 1.097481001936668199e-01 1.095755183483137635e-01 1.100132198175479969e-01 1.093846994842981452e-01 1.087856998838965528e-01 1.096648051772238369e-01 1.097839333219114560e-01 1.094956273942401526e-01 1.083966583500158842e-01 1.087823746700372490e-01 1.100220190986112567e-01 1.097623680713318700e-01 1.092013900879704180e-01 1.098887356222101319e-01 1.086434353746821152e-01 1.089296875818190485e-01 1.097120431005129959e-01 1.097126593776086012e-01 1.095716370258752737e-01 1.093119633279660691e-01 1.087302671186269748e-01 1.090771488443937065e-01 1.084717020212099536e-01 1.083467428362702156e-01 1.091458237764947603e-01 1.098926559731972646e-01 1.097730015207947774e-01 1.093326839603464135e-01 1.087280383536477768e-01 1.089499969661227308e-01 1.084897805990220898e-01 1.087545401961761277e-01 1.085971124910981439e-01 1.089602791794338082e-01 1.084414857868686993e-01 1.083487223504965846e-01 1.094696855385500350e-01 1.096626237870741011e-01 1.096576403783902642e-01 1.092198706580265882e-01 1.099134846429744156e-01 1.088134231314553113e-01 1.088851597295925067e-01 1.099639588556044212e-01 1.093094113128312977e-01 1.094081626195106405e-01 1.086223616084186772e-01 1.086141802514766497e-01 1.086697719651936733e-01 1.094437387324914551e-01 1.088769530083200654e-01 1.086236434143573598e-01 1.092505540448560908e-01 1.092954297575750300e-01 1.095171564743332437e-01 1.099219092353830307e-01 1.096576185856797531e-01 1.101585668979971760e-01 1.101456765554960637e-01 1.089316934947802962e-01 1.093867750524350896e-01 1.092336985544663519e-01 1.092465256380255045e-01 1.085297165942268882e-01 1.094332828354410564e-01 1.095170967511641252e-01 1.095995141555268504e-01 1.094450273860228529e-01 1.090663428255335132e-01 1.093387241422639211e-01 1.088232917877284128e-01 1.088254287799068631e-01 1.085330999605165908e-01 1.097553132887468252e-01 1.096114348130745458e-01 1.097926956822565664e-01 1.091133829331637078e-01 1.090716730873169810e-01 1.096645292054584664e-01 1.091099442673814091e-01 1.093417787109953326e-01 1.087139560377012037e-01 1.094011555019599458e-01 1.099291132051798958e-01 1.092438672127655774e-01 1.101394069801313047e-01 1.095799984074986855e-01 1.092350232697555240e-01 1.098974165991266905e-01 1.086557574371641577e-01 1.089781900039990675e-01 1.098851106964865709e-01 1.107052960360983412e-01 1.119468665789717793e-01 1.122436921419958100e-01 1.167031394174402881e-01 1.111622388449607368e-01 1.095304042950212137e-01 1.089156403657246530e-01 1.084380002528820830e-01 1.081121764317793388e-01 1.081959470315878441e-01 1.085106827486741754e-01 1.089659135797038242e-01 1.085760570676635589e-01 1.091049067822330854e-01
1.104906539241893998e-01 1.089843234684320650e-01 1.094168345296549216e-01 1.101084909984437615e-01 1.106294332046975637e-01 1.108278225326088662e-01 1.090277095291128928e-01 1.097813069200505032e-01 1.096901324232984476e-01 1.098535750744141365e-01 1.097142643673036516e-01 1.087087356301002228e-01 1.092917608862367107e-01 1.101533116394873418e-01 1.095089705372312844e-01 1.089069539902357830e-01 1.087868577644111046e-01 1.096711677971084903e-01 1.090834177798348376e-01 1.093357071169407668e-01 1.098929536392803802e-01 1.096165653036598187e-01 1.085630105992563543e-01 1.093025086135182705e-01 1.092384899828920397e-01 1.095300279394250675e-01 1.095055297570594749e-01 1.097414777845557299e-01 1.086608720851034021e-01 1.095851534590455423e-01 1.096197379281651785e-01 1.088979417287138374e-01 1.092444950997287639e-01 1.098024365202924790e-01 1.084758632508328602e-01 1.090928271043775794e-01 1.093418195777640656e-01 1.086060973896131321e-01 1.091585537469957068e-01 1.094495644159242664e-01 1.093936637015037738e-01 1.090854366940317288e-01 1.086103739906967292e-01 1.088960502322473128e-01 1.085621245501487142e-01 1.092328474791122161e-01 1.096337506279495555e-01 1.096574142780647326e-01 1.084179783486813736e-01 1.094961766575924256e-01 1.092887919590295187e-01 1.094327976762972388e-01 1.099736294962969929e-01 1.103251689062946239e-01 1.084151940397490438e-01 1.099642590803233261e-01 1.092569820252448781e-01 1.092086727876747515e-01 1.090798858645320862e-01 1.085933772643941780e-01 1.086046589431636927e-01 1.088845857741742029e-01 1.094504472122908995e-01 1.095167821075834491e-01 1.086065018295282736e-01 1.089523426538376027e-01 1.088364856556036514e-01 1.091464622624881003e-01 1.103272364626005919e-01 1.095708662364574676e-01 1.091022407783011627e-01 1.089317565796645848e-01 1.098934510150670757e-01 1.098682818261732808e-01 1.102386784873248537e-01 1.092463637672318466e-01 1.083901518394639329e-01 1.086092502784371527e-01 1.092820004501578457e-01 1.093640474763447057e-01 1.100563494818937449e-01 1.098554821765532208e-01 1.099880911531641026e-01 1.097576968286942817e-01 1.086756611868669176e-01 1.083167283956263938e-01 1.088104023667307019e-01 1.091062122730501738e-01 1.096081272382612437e-01 1.096736417978444039e-01 1.100255982042601527e-01 1.088418242455028023e-01 1.090905178227185301e-01 1.085606983321243391e-01 1.091481433214418761e-01 1.093899472176270982e-01 1.089910721716345066e-01 1.094576265498124201e-01 1.102765745751756177e-01 1.099592039668643439e-01 1.096087138783199272e-01 1.099548871696509611e-01 1.097058789910300147e-01 1.109517950118990015e-01 1.236379295921492538e-01 1.033243262839662890e-01 1.029413211193772604e-01 1.060655814623360504e-01 1.102127977168721462e-01 1.104293190257577689e-01 1.101446869043182092e-01 1.098008559752752938e-01 1.091320825727762484e-01 1.088627208373174060e-01 1.083575663309039872e-01 1.090599718840239291e-01 1.090908434512878888e-01 1.084581410625144460e-01 1.088123195518374137e-01
1.103102283872404721e-01 1.102722421440743006e-01 1.090105728399646812e-01 1.098690049352512299e-01 1.096299657312665154e-01 1.100791382525937306e-01 1.102405270557689082e-01 1.100221331256770879e-01 1.101139970467814450e-01 1.097369060627085280e-01 1.093002602919230792e-01 1.091986581048496191e-01 1.098800992699519308e-01 1.098701870048255924e-01 1.093792300854312949e-01 1.096174383632581018e-01 1.097674971605287902e-01 1.098160829978369057e-01 1.091414408551496795e-01 1.086837363193018241e-01 1.092185981698275826e-01 1.095459288778333901e-01 1.088909627667032087e-01 1.084751581198892395e-01 1.098278662835992930e-01 1.092963110482625955e-01 1.098331469580911268e-01 1.096804854432438803e-01 1.089764464837222335e-01 1.086098393451795929e-01 1.091270196477950871e-01 1.091260503261846371e-01 1.096991986912108086e-01 1.093264809202359883e-01 1.084843800800520397e-01 1.098791976747843374e-01 1.096468461322354787e-01 1.091673823053436743e-01 1.084746223281942284e-01 1.084253193589157782e-01 1.088339597726907942e-01 1.086087430050732827e-01 1.095873971941426356e-01 1.097077547185797003e-01 1.091843368764221500e-01 1.090342748935325540e-01 1.099428072388176220e-01 1.093789399185128297e-01 1.087776840487846841e-01 1.084747549565297925e-01 1.085234056907570521e-01 1.100020386093905345e-01 1.092262756403402646e-01 1.092020859777334679e-01 1.101611870277527105e-01 1.099311502844326355e-01 1.095433088061862209e-01 1.088515009191679123e-01 1.095997582514836033e-01 1.095615366758576625e-01 1.091492781804774409e-01 1.085683508595982477e-01 1.092818446393973852e-01 1.086129223541174027e-01 1.083917970508843087e-01 1.087687490026114506e-01 1.088428330219126244e-01 1.099868354553937694e-01 1.090983468909311749e-01 1.092142242656283235e-01 1.096548170831536800e-01 1.092862337919945914e-01 1.089248342723583840e-01 1.091626930135783102e-01 1.085424632570200915e-01 1.084965923079639627e-01 1.089530946105937287e-01 1.094586577519799236e-01 1.089657227262776085e-01 1.093391124821828653e-01 1.094971474203930983e-01 1.096611904324858444e-01 1.095369751324079544e-01 1.098000783941815162e-01 1.094854245237916190e-01 1.085238599451756880e-01 1.096420776907985756e-01 1.089992162763626649e-01 1.095087083779767573e-01 1.103567024434122801e-01 1.088090533311657504e-01 1.099956490886670191e-01 1.087852359707371513e-01 1.082810968264319301e-01 1.090325784108207713e-01 1.091991420521677414e-01 1.098201406199159208e-01 1.098789019086329477e-01 1.103074860147832958e-01 1.099146476219531321e-01 1.102086954320410650e-01 1.099023913369709810e-01 1.103777674833542888e-01 1.098949346276420908e-01 1.027667339795292345e-01 1.062157930479099011e-01 9.763668253691293319e-02 1.063105924372171329e-01 1.087900692314251877e-01 1.091818777686131281e-01 1.084661263455050650e-01 1.094101259880506660e-01 1.091086561834107016e-01 1.089947312567128290e-01 1.084126796592695396e-01 1.085495931295830385e-01 1.085141359466594013e-01 1.084380482780417376e-01 1.085120609158841676e-01
1.148382593930328127e-01 1.100807499052473548e-01 1.096006980947562826e-01 1.089449334667704633e-01 1.095128650723441455e-01 1.099106040536780848e-01 1.098796253789686705e-01 1.099947983173059224e-01 1.092256469794291446e-01 1.095422910742748779e-01 1.101807067389752454e-01 1.094343940748542937e-01 1.097299452504760381e-01 1.087047313437376206e-01 1.104532321113118193e-01 1.100727854108677628e-01 1.096862189056339310e-01 1.093371084554545791e-01 1.094769436966000486e-01 1.099527932417300458e-01 1.087098760308873174e-01 1.091923748929944510e-01 1.085009091562529893e-01 1.083486905578247561e-01 1.093401743732027170e-01 1.095996128251491425e-01 1.089727479941906135e-01 1.091571143518431514e-01 1.085939179794278009e-01 1.088579606305548064e-01 1.086078546879433171e-01 1.090682651721235630e-01 1.093594738049212811e-01 1.086159424022606346e-01 1.091888875897417677e-01 1.098819811688403203e-01 1.096761118733434182e-01 1.091208992181383342e-01 1.096784775980384485e-01 1.089498670828003002e-01 1.084708450016318992e-01 1.093181102601822885e-01 1.097213176380663069e-01 1.086532748579420171e-01 1.094923942012618473e-01 1.096047007589796146e-01 1.100565309401201619e-01 1.092738470775930504e-01 1.096579861819259039e-01 1.099736989098754336e-01 1.093924669936853777e-01 1.085944836084620224e-01 1.087728920953826839e-01 1.097776211689264064e-01 1.099845384845842822e-01 1.092308961100676989e-01 1.088951607487493312e-01 1.089621053765880698e-01 1.092578110738399444e-01 1.096577335578990953e-01 1.093527552490649452e-01 1.085131342982892239e-01 1.087606883126959467e-01 1.085091978134896107e-01 1.086008665412069585e-01 1.089149281579223083e-01 1.095453401510565472e-01 1.092077528638530359e-01 1.088290411802295687e-01 1.094795944791004394e-01 1.093073859561159850e-01 1.093532451259969368e-01 1.094555624125704701e-01 1.085632770831788385e-01 1.091789913890458125e-01 1.097594741322467232e-01 1.098104119358240260e-01 1.092951808544770087e-01 1.090280551811586562e-01 1.099097365104273333e-01 1.098942033703547705e-01 1.091519756530876517e-01 1.088527367260207906e-01 1.092514943110788617e-01 1.095419897684702520e-01 1.085082757550403232e-01 1.093840586077342858e-01 1.090289534947295746e-01 1.091016886213496684e-01 1.099162011711827952e-01 1.096159023149144984e-01 1.099931633304497142e-01 1.092217445154002875e-01 1.084423264400178610e-01 1.088719346036161606e-01 1.091766220215065752e-01 1.098493708455133000e-01 1.102050755674512383e-01 1.126430706793328795e-01 1.120635591102235318e-01 1.090951286957498323e-01 1.089141210029012652e-01 1.092403258658941195e-01 1.093582956972536380e-01 1.087071784571498334e-01 9.519006182054934317e-02 1.042496470929285546e-01 1.059853479600499498e-01 1.087215478058002616e-01 1.081124889260338118e-01 1.085284155980908161e-01 1.086304428041869330e-01 1.092301651526992323e-01 1.088970567000177025e-01 1.089718774117580113e-01 1.084532845380160454e-01 1.087065663064822330e-01 1.089316344894770971e-01 1.090756768231613549e-01
1.090960379809921971e-01 1.087958582137647928e-01 1.087780258918178422e-01 1.095350811678654362e-01 1.088118425154348118e-01 1.093127127080951722e-01 1.104531343351110445e-01 1.090764346009155256e-01 1.090936142509857237e-01 1.089671686443285659e-01 1.097796015768473937e-01 1.101986984790659929e-01 1.098321077231962095e-01 1.089993179373157511e-01 1.097163502738155716e-01 1.091724727305333764e-01 1.093474187224704047e-01 1.094896218345608185e-01 1.095469691886931107e-01 1.097198333283934818e-01 1.092214895536048336e-01 1.086357110611711474e-01 1.093862874220576098e-01 1.094333323717797263e-01 1.085899614409993608e-01 1.088740106377568684e-01 1.084114492227393617e-01 1.084310151164710745e-01 1.095133453725631312e-01 1.096098633257462512e-01 1.094212940830187747e-01 1.083669548130154481e-01 1.084831571186410798e-01 1.091942331221674167e-01 1.091574160689320616e-01 1.097276552171558700e-01 1.100787456343200743e-01 1.099345752244665908e-01 1.095329096547505154e-01 1.093643520928593155e-01 1.084308528484379669e-01 1.090960064135141905e-01 1.089600630880964982e-01 1.100487970714325581e-01 1.096118865211842125e-01 1.092959589986522151e-01 1.095022621908815358e-01 1.094920192258077157e-01 1.099173260786330125e-01 1.096174469962035297e-01 1.095290432678538428e-01 1.098121771920382433e-01 1.094894611197620438e-01 1.088998165548323849e-01 1.100423046328433130e-01 1.093142026694572666e-01 1.091188490973765551e-01 1.086262825302984347e-01 1.094812001747964419e-01 1.092672929768558898e-01 1.095633713503032791e-01 1.088748003087340877e-01 1.087037546187300807e-01 1.092708445980331844e-01 1.093483956974291016e-01 1.090618728106924201e-01 1.101146729992527745e-01 1.094545195715960900e-01 1.085388048233624225e-01 1.098038574355880564e-01 1.092699134706176523e-01 1.099456424531715104e-01 1.088376809252152716e-01 1.084462345792290422e-01 1.094826781512159564e-01 1.097475105523409433e-01 1.098966258219944009e-01 1.099878630777005040e-01 1.098868886160297154e-01 1.096754794560281382e-01 1.094649169402685251e-01 1.094825220428976564e-01 1.091969787803506869e-01 1.086932203069772562e-01 1.086352885481277897e-01 1.085100013912440597e-01 1.087940140420727703e-01 1.085109868129194299e-01 1.090632835821652158e-01 1.098906937307723708e-01 1.094338505274482370e-01 1.094387542337091901e-01 1.086435717552537705e-01 1.096313527056471254e-01 1.098984906670465167e-01 1.100958395064673412e-01 1.097562869137373859e-01 1.121365006095018518e-01 1.130074461404086961e-01 1.061387771210272057e-01 1.075478485253380384e-01 1.083529527072370630e-01 1.081179296655122440e-01 1.084369542355051036e-01 1.082576748535688110e-01 1.073169770795976974e-01 1.059785237627564741e-01 1.077782568581488881e-01 1.092877050871446515e-01 1.091075434080898410e-01 1.077632465577940679e-01 1.087036171934089857e-01 1.095782811539120633e-01 1.089452018775862591e-01 1.087889224881088135e-01 1.083254135401233303e-01 1.083083701576179197e-01 1.083619239483941260e-01 1.084126812304055804e-01
1.095852815005038394e-01 1.096344293263772918e-01 1.096400496803000557e-01 1.099663335093329364e-01 1.093655611660978022e-01 1.087810434280759991e-01 1.100322392757306089e-01 1.102235028965549840e-01 1.096330337369215702e-01 1.087298393474361441e-01 1.091580231922509303e-01 1.093700371557149442e-01 1.100920208488568169e-01 1.097373563259008977e-01 1.086100256542919251e-01 1.092160264019819693e-01 1.086726829251471460e-01 1.095507010742078624e-01 1.097500175617913548e-01 1.090238315423456839e-01 1.085623581714052766e-01 1.097313029169538628e-01 1.093927276689255629e-01 1.094586956945310663e-01 1.089381757921545901e-01 1.086019895667231228e-01 1.089626078659824970e-01 1.093456320300352502e-01 1.095582830954960479e-01 1.091328351387402806e-01 1.094020401661899289e-01 1.085747533808441995e-01 1.093243928017849503e-01 1.100132479520017220e-01 1.101881477012734423e-01 1.100624898164573040e-01 1.087097347287105387e-01 1.088546851344638633e-01 1.090916785973894410e-01 1.094517232897213310e-01 1.093874545408921040e-01 1.086034280709157196e-01 1.087841062002679743e-01 1.087277380547071737e-01 1.086786218376583346e-01 1.094750792168590198e-01 1.098577861479481665e-01 1.097389866255344404e-01 1.089799961346266111e-01 1.089374378785780695e-01 1.100422783918985348e-01 1.092245706778970649e-01 1.099704191034294731e-01 1.093898788975944669e-01 1.103767963148976766e-01 1.090616563027307084e-01 1.086978872592524320e-01 1.084914091210060216e-01 1.093021543798539663e-01 1.092825555189656239e-01 1.093463320211785633e-01 1.087065955411306711e-01 1.092481810288869620e-01 1.089930355404463563e-01 1.095221944443797862e-01 1.096366395041303843e-01 1.100213366490012112e-01 1.086050024603367331e-01 1.096461425661205552e-01 1.085357152986174967e-01 1.095873199417633503e-01 1.092805075392846298e-01 1.097820692633170864e-01 1.089693595902238715e-01 1.086523552341090854e-01 1.092856400172454168e-01 1.091083151852834110e-01 1.096562671888850482e-01 1.096744844138815567e-01 1.090219063097971897e-01 1.096824481221922998e-01 1.097341052178452819e-01 1.094792414916083700e-01 1.093383325233689141e-01 1.093640772706134662e-01 1.089341818636868908e-01 1.086087359515807149e-01 1.089467718805472024e-01 1.083605655086170155e-01 1.084454313880386239e-01 1.087656217042739376e-01 1.085866205750087854e-01 1.090120523694341481e-01 1.098155141270583529e-01 1.102664928128901656e-01 1.099168873569860844e-01 1.110187819622787675e-01 1.128495662326920029e-01 1.129667872804420575e-01 1.046086176635446230e-01 1.074196003983656222e-01 1.079077135738487903e-01 1.078709166547299203e-01 1.079740910363508333e-01 1.081822692298575056e-01 1.078583367336093252e-01 1.069846887779802302e-01 1.078454289765953950e-01 1.092496581895304603e-01 1.075474782344352231e-01 1.086226922307098192e-01 1.097456117226549149e-01 1.095866930874974943e-01 1.092992945629812501e-01 1.084295833100931694e-01 1.086446917171162013e-01 1.089846962325990987e-01 1.092835926638977412e-01 1.096887613721518467e-01
1.099184131085787774e-01 1.099268598962769156e-01 1.097488342120617466e-01 1.096312090226690544e-01 1.100513660929194198e-01 1.099262334720113171e-01 1.088382901983726420e-01 1.097050957550012029e-01 1.098182615880372998e-01 1.087546019361063793e-01 1.095262936345722526e-01 1.096665051740577657e-01 1.100901008026041739e-01 1.086358228187080388e-01 1.101455332268607840e-01 1.086541129142008927e-01 1.091441301604018643e-01 1.084956174697702114e-01 1.084434322037116094e-01 1.083566395971963942e-01 1.089306025084646329e-01 1.096598406839143086e-01 1.100266646414188587e-01 1.091016688028842163e-01 1.084664855939918571e-01 1.093432457890222836e-01 1.093999555735166163e-01 1.094150642817939140e-01 1.095266949017664609e-01 1.086721960137991272e-01 1.084985616815487275e-01 1.090568199169167224e-01 1.091179335830462505e-01 1.099453615230433084e-01 1.088533656790575677e-01 1.099438200260935417e-01 1.090190631912248548e-01 1.101797684893993656e-01 1.089176666332832416e-01 1.087612742642598551e-01 1.091394923929046162e-01 1.086850531279934390e-01 1.084749939931964752e-01 1.096431624372962849e-01 1.091713157872327700e-01 1.096748969646966776e-01 1.091665666786484634e-01 1.097242169814765522e-01 1.085800817606936974e-01 1.092553992651597722e-01 1.094109493213745177e-01 1.089886027847376537e-01 1.092853928492145549e-01 1.092265476263876156e-01 1.092444898671099396e-01 1.096037913000671438e-01 1.087519718174210503e-01 1.085869591260744671e-01 1.085390068561406518e-01 1.087337826325434353e-01 1.085794640330894484e-01 1.092737317825994148e-01 1.097057607225673248e-01 1.089071386910389072e-01 1.098080306221119601e-01 1.098886597356234784e-01 1.092077252086103289e-01 1.100847870211039831e-01 1.096055886637922194e-01 1.083922992726638751e-01 1.091868552054677671e-01 1.096888114399704323e-01 1.092662394081302391e-01 1.098703016989411030e-01 1.095174569764364031e-01 1.086844140293606459e-01 1.092871254028192074e-01 1.099059493447136771e-01 1.097212104745563660e-01 1.086825806705667419e-01 1.095155292930936053e-01 1.096507845441777595e-01 1.090332828562590867e-01 1.095725904407207213e-01 1.095618212294143246e-01 1.085205422190178848e-01 1.094031906434202173e-01 1.096013323671318623e-01 1.091336825244645647e-01 1.091717669456834516e-01 1.084896303374062454e-01 1.090218370417213034e-01 1.083789660392645848e-01 1.084925937317041678e-01 1.099539050881730012e-01 1.101363928985147345e-01 1.098771524371023323e-01 1.113503581225292333e-01 1.068231922764607544e-01 1.076350121611390903e-01 1.080074428149047638e-01 1.079682448939772582e-01 1.081518908005477120e-01 1.078066691464245191e-01 1.085423639880399860e-01 1.084839912697929815e-01 1.078326336015673903e-01 1.085347881858731295e-01 1.074146320629974227e-01 1.089970166869684842e-01 1.091370566315888607e-01 1.095895166965316359e-01 1.089297481671627488e-01 1.086462319484587519e-01 1.083408253512847391e-01 1.084885498852824343e-01 1.085937546618177124e-01 1.089544936334675418e-01 1.091735039144876851e-01
1.111269793493427083e-01 1.108187774395154035e-01 1.106406910995119397e-01 1.104866084112128138e-01 1.101541329635513516e-01 1.097396976694038212e-01 1.097559736239959033e-01 1.086806956762282339e-01 1.085406175710622034e-01 1.085361011977359902e-01 1.089724078825738129e-01 1.092948745239488012e-01 1.099237440381398562e-01 1.103736074540888901e-01 1.092537877715873268e-01 1.097212233335726622e-01 1.091082180351178876e-01 1.086710635148562948e-01 1.091865927564309308e-01 1.085724601182554427e-01 1.096812018984134884e-01 1.091368770836119578e-01 1.094965436579735246e-01 1.095650112174437613e-01 1.084101355214971973e-01 1.097101150742331166e-01 1.093668067149504985e-01 1.095378149465718876e-01 1.088975181448710861e-01 1.092172416058083961e-01 1.084578781925964741e-01 1.089928865505158939e-01 1.099098753690139207e-01 1.100590014793860205e-01 1.098527257547468744e-01 1.086383731133123698e-01 1.100073590763916836e-01 1.088769745386017757e-01 1.096920040880713931e-01 1.092294663377043895e-01 1.084843210811535646e-01 1.083578345638380597e-01 1.083544682543718801e-01 1.093370088681056562e-01 1.100393910477962534e-01 1.096763996347681902e-01 1.094007115727604895e-01 1.087999284456733773e-01 1.084049218510747536e-01 1.090226347884061808e-01 1.097378583103069127e-01 1.087295192712194186e-01 1.085956743450651046e-01 1.089866333135400406e-01 1.093367210862036948e-01 1.094754460948475505e-01 1.091626764990327181e-01 1.094307332851927050e-01 1.085310176833429452e-01 1.085070920970566122e-01 1.084616232310455647e-01 1.093778900691657618e-01 1.097253676788603194e-01 1.097854968478118309e-01 1.091440926490028496e-01 1.100473245351487189e-01 1.093926236655051315e-01 1.090828257279224806e-01 1.093622107278116040e-01 1.084812895016057238e-01 1.092104408177808211e-01 1.098741729175210652e-01 1.096083757135700998e-01 1.097081820967360372e-01 1.095941570789553537e-01 1.089290267876313334e-01 1.087020927970471229e-01 1.101001834814890473e-01 1.096981070858353002e-01 1.087270331376591903e-01 1.099076177190863035e-01 1.097229206602480800e-01 1.094819617145042917e-01 1.085762749735117438e-01 1.084266013377023080e-01 1.085503436440607844e-01 1.089858744591514772e-01 1.091504753800170840e-01 1.091913688358673307e-01 1.096274131066082846e-01 1.087233967150986608e-01 1.095797459568978172e-01 1.095956640888199191e-01 1.095191414849004813e-01 1.085529441178434973e-01 1.088280948627458333e-01 1.100849470199070090e-01 1.102884416120208100e-01 1.040260774217918044e-01 9.853267285801509123e-02 1.055553033393246132e-01 1.072193549826896408e-01 1.078295233899117245e-01 1.079910675113305296e-01 1.090685596993691137e-01 1.089308723620827923e-01 1.086089917726532211e-01 1.081776692158133990e-01 1.091603425827105539e-01 1.080703030092828032e-01 1.099915801851800295e-01 1.087137525049060027e-01 1.083262681155766627e-01 1.083652286882949012e-01 1.087078730249748937e-01 1.086947921742948409e-01 1.094513450971082158e-01 1.093050366465542766e-01 1.088675619887090606e-01
1.092891543497419016e-01 1.089650790683499015e-01 1.088984607157487405e-01 1.088387411999139492e-01 1.087515494987054271e-01 1.087969691554108026e-01 1.093318299316377029e-01 1.093192372914163490e-01 1.095862606077938201e-01 1.086809255008351072e-01 1.094672444728809757e-01 1.100993082966394976e-01 1.092262050763063014e-01 1.099654892556558017e-01 1.104289138540310855e-01 1.088814045460840818e-01 1.098240328349698453e-01 1.089372174819501354e-01 1.094603236007860164e-01 1.085977597982593079e-01 1.097754136409311299e-01 1.097329733768444282e-01 1.095310487821007234e-01 1.088647513413376067e-01 1.082970338796334780e-01 1.090175288705613754e-01 1.094170056896900667e-01 1.095787271413368735e-01 1.094696304998006159e-01 1.097466673489493616e-01 1.085339709257518159e-01 1.097022171043788435e-01 1.093891595709399756e-01 1.089227777501279859e-01 1.089353112462453643e-01 1.093951357008616787e-01 1.084828565003886774e-01 1.094800639024089972e-01 1.095776509635314755e-01 1.086068292052432271e-01 1.094098531048750406e-01 1.099974713624932710e-01 1.093754306501628915e-01 1.085748646187272154e-01 1.090102546026139180e-01 1.099372543439219030e-01 1.096328231786358604e-01 1.095411681215031630e-01 1.083312933190575394e-01 1.084959204383241088e-01 1.092130034730213750e-01 1.084948095510693683e-01 1.086620379889466498e-01 1.089140152569866155e-01 1.097464659901939976e-01 1.099128676883030925e-01 1.093772389586907257e-01 1.087585760636141652e-01 1.095596751870178825e-01 1.098429019745352786e-01 1.093412714685123160e-01 1.086967375082272397e-01 1.090812304295274010e-01 1.089420113489974473e-01 1.101155164792581714e-01 1.087508672630074086e-01 1.089594077247813264e-01 1.091017284835022472e-01 1.085359228532892240e-01 1.092187628645828745e-01 1.087601627784020170e-01 1.097748399917169437e-01 1.101091142134833084e-01 1.090423687187035695e-01 1.085991497635863806e-01 1.084765529646481430e-01 1.093288241341893452e-01 1.090336940553525286e-01 1.100456181114973647e-01 1.092049383729413875e-01 1.087012554265468361e-01 1.095224223118418660e-01 1.099343068295451920e-01 1.083769054411536231e-01 1.092049875974218376e-01 1.093567477140490185e-01 1.089333055003213480e-01 1.100485258192264171e-01 1.090940748484440087e-01 1.099751922817771010e-01 1.091080723982925660e-01 1.099189286415738070e-01 1.098345973959407723e-01 1.095260126948443685e-01 1.091334724940552364e-01 1.097270293072824671e-01 1.094812435685100643e-01 1.098909412365763061e-01 1.104420608301706075e-01 1.075304896367051954e-01 1.071666371782564325e-01 1.077935779648622888e-01 1.084581287779858849e-01 1.082965279706835510e-01 1.084293891826078049e-01 1.086454185492389257e-01 1.084446676845745583e-01 1.089870704905038235e-01 1.083198559683833939e-01 1.101598178514905241e-01 1.093668557030595956e-01 1.085288206465788996e-01 1.089153928326959814e-01 1.088072342480443377e-01 1.091798147937850239e-01 1.094369662570196938e-01 1.098494989129759625e-01 1.091549012700925303e-01 1.088897769393666337e-01
1.102991109499170119e-01 1.095720683208115942e-01 1.097072089040100895e-01 1.100320832055014658e-01 1.097242547838556820e-01 1.094666767529450385e-01 1.087834373707617097e-01 1.087526376599793204e-01 1.092392615882385870e-01 1.090280778359953573e-01 1.086464389552741494e-01 1.097684454106801488e-01 1.099558461902246931e-01 1.091983448615210517e-01 1.100899522759460764e-01 1.101265810022799968e-01 1.092394477587849827e-01 1.096742423387491450e-01 1.098047981892109892e-01 1.087610772834367023e-01 1.097134794843847710e-01 1.093033297630853912e-01 1.093148459298730613e-01 1.093628442160827358e-01 1.083358596697044929e-01 1.085887573548170587e-01 1.089833575120135456e-01 1.095014844066269782e-01 1.100632902430360716e-01 1.090199292939028342e-01 1.084237997562731010e-01 1.090882293331079667e-01 1.102892298380568070e-01 1.089482588237931371e-01 1.097747577194623791e-01 1.092249339540793396e-01 1.085431311137533827e-01 1.084143687828867386e-01 1.083771490666229909e-01 1.095679846406256708e-01 1.098733890313364631e-01 1.088758903422187840e-01 1.095260388920275690e-01 1.089339552978370734e-01 1.083847004282488397e-01 1.089924504690481522e-01 1.095879010146009747e-01 1.096249604996069743e-01 1.084023370434581968e-01 1.088606697631848974e-01 1.086324865794552202e-01 1.094179177075693676e-01 1.092350149663867537e-01 1.098119955707933804e-01 1.092479326112214405e-01 1.101754353705795691e-01 1.091054926409233544e-01 1.100950765162727329e-01 1.089469827799284529e-01 1.095071411999514466e-01 1.095018183060502831e-01 1.088598445425356664e-01 1.087125511229304203e-01 1.100022289488230554e-01 1.095959911789190361e-01 1.094174036831429692e-01 1.095053727313195086e-01 1.084189339496085813e-01 1.085263952766108431e-01 1.097616164901010355e-01 1.089890759538016535e-01 1.095976212687746199e-01 1.096261313967813039e-01 1.091423057320621004e-01 1.095240092758046346e-01 1.085637757561598582e-01 1.092164425661967253e-01 1.099649126226194817e-01 1.094812208353374561e-01 1.085481451087027260e-01 1.084385063257670839e-01 1.092908833433449411e-01 1.092230987163220757e-01 1.084041460235783960e-01 1.093512438314852703e-01 1.098598562900045261e-01 1.093943583536272079e-01 1.092926758268411985e-01 1.101241640294213231e-01 1.091847071351118442e-01 1.101835932039944982e-01 1.099008154836407097e-01 1.099764535027773216e-01 1.093218689969397417e-01 1.099602471067052667e-01 1.101031248207113289e-01 1.073780740523838512e-01 1.098175807203485149e-01 1.130053986832686985e-01 1.059175072283514984e-01 1.087215506691992656e-01 1.090379006580547705e-01 1.087808499800173023e-01 1.089778369587828810e-01 1.088368321899000346e-01 1.086628087588576153e-01 1.086436226985146719e-01 1.091580823067942740e-01 1.098033681492458086e-01 1.093687464550018862e-01 1.085853949144187508e-01 1.093361063400300620e-01 1.096525320304324175e-01 1.098680994171583047e-01 1.096808517249572290e-01 1.094211947161839033e-01 1.084510943519042814e-01 1.098653070565963896e-01 1.083632695022222481e-01
1.096712111391412031e-01 1.098924761845636172e-01 1.096837207461604652e-01 1.093088428126285927e-01 1.092441326401679680e-01 1.092680140863208360e-01 1.096488505246409062e-01 1.094665394615248755e-01 1.087427767536594259e-01 1.085429113715974392e-01 1.084383833895222332e-01 1.085507013117557734e-01 1.087843044513909230e-01 1.090579002375716977e-01 1.093980535208378124e-01 1.098468702338600278e-01 1.097222701316942911e-01 1.097580746110450867e-01 1.093507478581463438e-01 1.101227839962727884e-01 1.094023308927576377e-01 1.100114143421185714e-01 1.089165023086591938e-01 1.086627516303113467e-01 1.083081478691558242e-01 1.093578320062979226e-01 1.093888924900772164e-01 1.093284775141290938e-01 1.095800259643366914e-01 1.093353276158488541e-01 1.086119303456876128e-01 1.098936265949285035e-01 1.096326749250894211e-01 1.097352433264016658e-01 1.087888253721385479e-01 1.088471121972034716e-01 1.091418039304555276e-01 1.088775246353239495e-01 1.085173106410707994e-01 1.098855970680508859e-01 1.092195246141427073e-01 1.092431793781820648e-01 1.085724113458280127e-01 1.085210324061679776e-01 1.083498603489131268e-01 1.090933689360225750e-01 1.095947064628740864e-01 1.094594315016375330e-01 1.085166153879083550e-01 1.098156982531683784e-01 1.090648861691204258e-01 1.089629524919599191e-01 1.095078258959195222e-01 1.098238742259704942e-01 1.091299777666867032e-01 1.096482798643560463e-01 1.101250057634962920e-01 1.087518797601369630e-01 1.098845214935799952e-01 1.095215941944618215e-01 1.089096695197007691e-01 1.085074696267639277e-01 1.092800556210982432e-01 1.098564153013592143e-01 1.090419976854240663e-01 1.090342887186711851e-01 1.092381237927891741e-01 1.085169690144691529e-01 1.095526700105849821e-01 1.087262990024526199e-01 1.093620372086189091e-01 1.096348451009005465e-01 1.100530925906843538e-01 1.091496277093979145e-01 1.088798366611537505e-01 1.092136612918333943e-01 1.085661706737087173e-01 1.083721456763262064e-01 1.085544074994691660e-01 1.093441124414030324e-01 1.094608162058995915e-01 1.084835860784764822e-01 1.084743598096444273e-01 1.086455699430108751e-01 1.090398612949231016e-01 1.090096105696887752e-01 1.100095931196065913e-01 1.095173501555932322e-01 1.097293152860610022e-01 1.098749994766854005e-01 1.096667593805924074e-01 1.096139076388955164e-01 1.098574703538565817e-01 1.104671582336424623e-01 1.090150874836584988e-01 1.099332826582752470e-01 1.048202984570404256e-01 1.120221299672074927e-01 1.113892253219082584e-01 1.097794320654842254e-01 1.096829872260734889e-01 1.089255011603335044e-01 1.088190541494750002e-01 1.086598197247076736e-01 1.083191191726443070e-01 1.088421448799591906e-01 1.087040489881924005e-01 1.090830234224572232e-01 1.091743666039445143e-01 1.085949321290617942e-01 1.091991427415045374e-01 1.092174848628977152e-01 1.086503840110473462e-01 1.087512876481627200e-01 1.090416178233780259e-01 1.094690512153694562e-01 1.086906747677169327e-01 1.094599969752111657e-01 1.082888141912189683e-01
1.096094376777314028e-01 1.099135230777455591e-01 1.093361511917700368e-01 1.102008973760757460e-01 1.095527306029671355e-01 1.101149745101002025e-01 1.099280505379337108e-01 1.094589001672577749e-01 1.099867889497818524e-01 1.093388625822492854e-01 1.093678367828351955e-01 1.090700866047355916e-01 1.084688293111087942e-01 1.090710318600321554e-01 1.094742173734180313e-01 1.094451421185455992e-01 1.098476191525662449e-01 1.094836553893906717e-01 1.101326546913419108e-01 1.097678479925025957e-01 1.093995036321794567e-01 1.093588158632057550e-01 1.087708352092948277e-01 1.090105638564077273e-01 1.083574821775230151e-01 1.086495955944721814e-01 1.089065796297907368e-01 1.094091297532505253e-01 1.104042605402215660e-01 1.086857474307024313e-01 1.088655794054515513e-01 1.100859254712661661e-01 1.091149477250841909e-01 1.098188992824005450e-01 1.094492376985122806e-01 1.090666645304618626e-01 1.095234270507046415e-01 1.086209621721483665e-01 1.097840509307677764e-01 1.100448277333761493e-01 1.090046622863389408e-01 1.090660658706038427e-01 1.096942732365503437e-01 1.097957952161326134e-01 1.087596300259159321e-01 1.085745050506164155e-01 1.088713497655725421e-01 1.086429315525911932e-01 1.093026718839196915e-01 1.090064880953733745e-01 1.100811637701100132e-01 1.094859479344770375e-01 1.096633562536768053e-01 1.091984369456616560e-01 1.092118757883735053e-01 1.098476823312018180e-01 1.090265953686033601e-01 1.099636383893272396e-01 1.089791227097038073e-01 1.088535970698388394e-01 1.086401730194929138e-01 1.085256722072594493e-01 1.093848388339456190e-01 1.101549096245826864e-01 1.088983023679953172e-01 1.096420481114191575e-01 1.085211258835621778e-01 1.094160236031630345e-01 1.098461051984598175e-01 1.090998087279549805e-01 1.090987262986578971e-01 1.091091429940417579e-01 1.092592974033316233e-01 1.096490200583885716e-01 1.095976764263709158e-01 1.100520303511972053e-01 1.100810703346111474e-01 1.090329497015931071e-01 1.100321836068098441e-01 1.096532287707125131e-01 1.099088216804630092e-01 1.089698729711037900e-01 1.091810543134338896e-01 1.085998620906167278e-01 1.092049909330944368e-01 1.099385320329329119e-01 1.094297460674503314e-01 1.095360238842680023e-01 1.088203351719696788e-01 1.088086256758987597e-01 1.090353726549253555e-01 1.094790192857457711e-01 1.098024064622370038e-01 1.091188047834158042e-01 1.096058164543605440e-01 1.093934118349714490e-01 1.098354916832365719e-01 1.100762663931268703e-01 1.098504807235553271e-01 1.096380074532574272e-01 1.090734646042869072e-01 1.091717126654642850e-01 1.093698631026412960e-01 1.090277890588769449e-01 1.094815645121768183e-01 1.095382722085345151e-01 1.087192364149965340e-01 1.086358293078836801e-01 1.083480723899235693e-01 1.089088187702515614e-01 1.089678471879608895e-01 1.085081068339400212e-01 1.092317269308760441e-01 1.096564569776760090e-01 1.095518785579230603e-01 1.086099481247532056e-01 1.085603796660701142e-01 1.091419188977292287e-01 1.083889055421331238e-01
1.200699243197224791e-01 1.128250686135756076e-01 1.098050396388959016e-01 1.103014422191419541e-01 1.101227143497589822e-01 1.088606123162099426e-01 1.100833929226576330e-01 1.105084464015233386e-01 1.094750266866782173e-01 1.097394332722303467e-01 1.091707481056111012e-01 1.088669448801776185e-01 1.085460027701123931e-01 1.092257090109261253e-01 1.096168743027095271e-01 1.090571144710505147e-01 1.092911117454388042e-01 1.092187968182584679e-01 1.090469066251345542e-01 1.094154831797039817e-01 1.093977378100823156e-01 1.097089200345083421e-01 1.092246092762456100e-01 1.097275404847952163e-01 1.084900532596216743e-01 1.092015183549768093e-01 1.094686326751353189e-01 1.091424546385862532e-01 1.101331329040150381e-01 1.086253159956797332e-01 1.095821910046464592e-01 1.096260966868434494e-01 1.097766090127489796e-01 1.088249689129362069e-01 1.084689744154169189e-01 1.084014100091766769e-01 1.084226124332507146e-01 1.097947794630782375e-01 1.097826345402128229e-01 1.092801867507053465e-01 1.098189567936070921e-01 1.098320339413427632e-01 1.089863341800157981e-01 1.091077561529097822e-01 1.097038625430286629e-01 1.087995924556898197e-01 1.086218230423278419e-01 1.096351479315505612e-01 1.098040462936749756e-01 1.095349680060711262e-01 1.096482242039673177e-01 1.096892795681991412e-01 1.096188821149014503e-01 1.093598642026934464e-01 1.086012928115359516e-01 1.088385210868471620e-01 1.094706377978945100e-01 1.102789745679324390e-01 1.089784976289725899e-01 1.086395686042925662e-01 1.086114563416688689e-01 1.087866578924763794e-01 1.085742535235411366e-01 1.098688360864152752e-01 1.089928501102818137e-01 1.093030637503496910e-01 1.085140187869153422e-01 1.096755350428761377e-01 1.094674634328162005e-01 1.097836852137334118e-01 1.096508260139716362e-01 1.097332533959212431e-01 1.102539247837329983e-01 1.097982108412421109e-01 1.101794153315710373e-01 1.095311777898061723e-01 1.096368150040682166e-01 1.099415457833043952e-01 1.090402065813484422e-01 1.095539801396086949e-01 1.092032565107224074e-01 1.097297350680922351e-01 1.097613083489400315e-01 1.093277007968222192e-01 1.083519557289971957e-01 1.083929276408051590e-01 1.084450512425332858e-01 1.086167327530358773e-01 1.091410506667618990e-01 1.091576299613720019e-01 1.093490831489072890e-01 1.095022439962229505e-01 1.099126441218879063e-01 1.100731361765829447e-01 1.090497037368611810e-01 1.096742661640276451e-01 1.092599858987201022e-01 1.088679271998850145e-01 1.091177068735678102e-01 1.091326715607476017e-01 1.087999977268622881e-01 1.090336915883680091e-01 1.088098950923299529e-01 1.094074803009513208e-01 1.089427138223673097e-01 1.092574196677129211e-01 1.096665358262846612e-01 1.091143441715063667e-01 1.085383156781455916e-01 1.086039683477820345e-01 1.084008788429590003e-01 1.083961145303964646e-01 1.088218077556563773e-01 1.101088024935313464e-01 1.090212038919031595e-01 1.089894325055630886e-01 1.084089488447379096e-01 1.093361518185396036e-01 1.090015375434195966e-01
1.429816218182138055e-01 1.196701272021207380e-01 1.109200300850969878e-01 1.097737203946285711e-01 1.099712833889813224e-01 1.091326544164330087e-01 1.099475601978795736e-01 1.092599501463647205e-01 1.092227055107601874e-01 1.095354897436195130e-01 1.097682819399681819e-01 1.095757542209050972e-01 1.093185585187185782e-01 1.086654780927487213e-01 1.086622424193653819e-01 1.093098509309743671e-01 1.098126581378574829e-01 1.089774567524393056e-01 1.096518641704245234e-01 1.096041054626461647e-01 1.100405724697524623e-01 1.094453601322528113e-01 1.093712538863412242e-01 1.099786084368862132e-01 1.085908528338185158e-01 1.086147046756091028e-01 1.090755314722971631e-01 1.092243285351354870e-01 1.100148612864788045e-01 1.086351083859503491e-01 1.097561208925672549e-01 1.093858674118070029e-01 1.091943392476842356e-01 1.085808862378991324e-01 1.096650132678649303e-01 1.096818060019326690e-01 1.088695488794587246e-01 1.095599243258361249e-01 1.094521734788263950e-01 1.093162482521035650e-01 1.085321799536319576e-01 1.084914216082588923e-01 1.096336584047136742e-01 1.099465786046169291e-01 1.096175783051109714e-01 1.086555761260411535e-01 1.087937648815920783e-01 1.095786211899280743e-01 1.096815452694280407e-01 1.098437419740523613e-01 1.091796282823631475e-01 1.094082327471769533e-01 1.093949312888014280e-01 1.094807171982194599e-01 1.094767528846770921e-01 1.085932712140652012e-01 1.101698990908437925e-01 1.095285701407857637e-01 1.097400522321070881e-01 1.097586349695947316e-01 1.092404054821326104e-01 1.095750225872120648e-01 1.084437631113372574e-01 1.097024602620697009e-01 1.092894967864786876e-01 1.084958885755569757e-01 1.084406642132699078e-01 1.085890152109968421e-01 1.085612636084514054e-01 1.089534321074354939e-01 1.100632461128372291e-01 1.097236924141281045e-01 1.092274559976714327e-01 1.092966824481953758e-01 1.090542897028468627e-01 1.101650396301792345e-01 1.086650409282332030e-01 1.094664476453994645e-01 1.090037614261237381e-01 1.092120085972110161e-01 1.100308306017784982e-01 1.091788713645389097e-01 1.099686477034197973e-01 1.093817497280849538e-01 1.083993434887628865e-01 1.086102518293035613e-01 1.092915073233109297e-01 1.094478600062734064e-01 1.086266859786314404e-01 1.085505047799440598e-01 1.087488955682933273e-01 1.090518971735369852e-01 1.093133263862460514e-01 1.101501676452299461e-01 1.093843505919837311e-01 1.097891927649449761e-01 1.092889227831264354e-01 1.090148939448837284e-01 1.086017549289998441e-01 1.089851978722617826e-01 1.085610346822933059e-01 1.091400191931595764e-01 1.083828698700904508e-01 1.089239095953075387e-01 1.090569059771289706e-01 1.087922544137335107e-01 1.092620752498982412e-01 1.089726597087333770e-01 1.084186911289687916e-01 1.086876285066231268e-01 1.096530939893133605e-01 1.092521778097917395e-01 1.094978519561990854e-01 1.092581243220529102e-01 1.094881389816145661e-01 1.090788588039080242e-01 1.094282086611245708e-01 1.084389355779463576e-01 1.089503787096143955e-01
1.095959511974882450e-01 1.113718702990488807e-01 1.129362582674055260e-01 1.104480991556230918e-01 1.098673504850520982e-01 1.095160853488245795e-01 1.088369992266199349e-01 1.099854309083506954e-01 1.101911020579044165e-01 1.090888484639982448e-01 1.101091852674149635e-01 1.091592951821578894e-01 1.090008312008814012e-01 1.093472564948343717e-01 1.086624860259865211e-01 1.091908111138071569e-01 1.090295462609635335e-01 1.092118933899022953e-01 1.096531217809938452e-01 1.091107042175935293e-01 1.092640277394887199e-01 1.099269038714825453e-01 1.095003312634717924e-01 1.099375315709950202e-01 1.088871822914097010e-01 1.093751218557320048e-01 1.088525188456515025e-01 1.096873687022101029e-01 1.098236407329836184e-01 1.089218592400555546e-01 1.097462612362624101e-01 1.090940275129565484e-01 1.090483647561357738e-01 1.095953654513209669e-01 1.087304236810619495e-01 1.096351243840478634e-01 1.098568554911483475e-01 1.092718718923292170e-01 1.090020665098168778e-01 1.090035974422018522e-01 1.091457289924676888e-01 1.094996028980037145e-01 1.086024748812216556e-01 1.090493658494093854e-01 1.089014368203548994e-01 1.088356526008548847e-01 1.086552896775271893e-01 1.091408962099420787e-01 1.089978651988798425e-01 1.095194150136038491e-01 1.099150325344313561e-01 1.087616571970064228e-01 1.092532202249204415e-01 1.096847081251136197e-01 1.086207404210301625e-01 1.098916039668501043e-01 1.094870988118822330e-01 1.095247102735771999e-01 1.095259182503784956e-01 1.096858631910384574e-01 1.094511070569632039e-01 1.088605353967258271e-01 1.083713355302371451e-01 1.095300538637458410e-01 1.092588638155786163e-01 1.083975927660897898e-01 1.086238409382035003e-01 1.095687894060577983e-01 1.092635329925590315e-01 1.098026414610169949e-01 1.092520748376351741e-01 1.102559728505830422e-01 1.089559285052403848e-01 1.092960575956666291e-01 1.086881915868643800e-01 1.098449078988550653e-01 1.092587777844292313e-01 1.091008439889691178e-01 1.090838052699264760e-01 1.087030792629383735e-01 1.088104229098546399e-01 1.098693311888750829e-01 1.093533391726661946e-01 1.086036534527895087e-01 1.093634842889048414e-01 1.091359239326406549e-01 1.088285605338030204e-01 1.096137319859581405e-01 1.095402687381026308e-01 1.086200106415200484e-01 1.092230917855128436e-01 1.091355533258856481e-01 1.093988665924180703e-01 1.095426038342701552e-01 1.096725543385899115e-01 1.090079683451352921e-01 1.085317393069384906e-01 1.084654708950279489e-01 1.082981273637797781e-01 1.083297009430295721e-01 1.082239737494968684e-01 1.083465415159837603e-01 1.082313183786106636e-01 1.083708087683838417e-01 1.090697768925736333e-01 1.089536919651682978e-01 1.092992441298237111e-01 1.089877236088788726e-01 1.085273400844514041e-01 1.090777402691902875e-01 1.095079205548314533e-01 1.093340188563653587e-01 1.094779649377838615e-01 1.094992086114097846e-01 1.093974526336179975e-01 1.090282224212648227e-01 1.102438019295003402e-01 1.084477434699667314e-01 1.089257689019675901e-01
1.087193152341201091e-01 1.104187950653386929e-01 1.103955471253403320e-01 1.112509900694920728e-01 1.100407839277737221e-01 1.094930662015051875e-01 1.096889340088141873e-01 1.087325658827767993e-01 1.089799875211357599e-01 1.099243854728587239e-01 1.091914433785365762e-01 1.099230822207689223e-01 1.099000391404284377e-01 1.102626326856798178e-01 1.097986819883867010e-01 1.087591683070001231e-01 1.086645514343501234e-01 1.088435011979465711e-01 1.087771190661885878e-01 1.088235765382354475e-01 1.089931987663715907e-01 1.093028493476493335e-01 1.102931125049088773e-01 1.089672063692453396e-01 1.094062527239654109e-01 1.097503854385923072e-01 1.093428334765998433e-01 1.093120294517513913e-01 1.098280555132144648e-01 1.100503482546474343e-01 1.087946263109333123e-01 1.103030327037418934e-01 1.096617223531196200e-01 1.100283837616715527e-01 1.100420942047673906e-01 1.096702567130128092e-01 1.100560123157724446e-01 1.096892432775432441e-01 1.102508737509317743e-01 1.094674328596083462e-01 1.092129310140955295e-01 1.091311977700460401e-01 1.088081397374886655e-01 1.089306724916051100e-01 1.095200452694649051e-01 1.096171478521331122e-01 1.091410883245093749e-01 1.086597324186415747e-01 1.091347109834253370e-01 1.093272781044974801e-01 1.087637394105379213e-01 1.090330043096829349e-01 1.093253716784378382e-01 1.086354155233409391e-01 1.093429820776722350e-01 1.092791414447003007e-01 1.090680946817245006e-01 1.098327954329534201e-01 1.090906801050962188e-01 1.091096737318378723e-01 1.094771964915204621e-01 1.098326978751972133e-01 1.085714078260274634e-01 1.087056477247792252e-01 1.086231842501396844e-01 1.095507279183278310e-01 1.092818174557729782e-01 1.091128746369330882e-01 1.089965044005065525e-01 1.091838885117133451e-01 1.093910530128941599e-01 1.093801042707497895e-01 1.091352734409626879e-01 1.087456931068558480e-01 1.085229941104313423e-01 1.089932846341102879e-01 1.097887860556750611e-01 1.093225441668786990e-01 1.089605536345665399e-01 1.087110836781716855e-01 1.083968155087348118e-01 1.083336146489126961e-01 1.083525054897474249e-01 1.094492556749520062e-01 1.100552003110439742e-01 1.093175050926775971e-01 1.095843370250667165e-01 1.090656273966358891e-01 1.094968481831398305e-01 1.095454205707562939e-01 1.085370485002785934e-01 1.084779267256009289e-01 1.088388948971989872e-01 1.093451373775988639e-01 1.092592727986951701e-01 1.097935631124812572e-01 1.096720060312941780e-01 1.090151068913509519e-01 1.086993146872271832e-01 1.088161012344201622e-01 1.090933168892676275e-01 1.097340326823176837e-01 1.093561690169892187e-01 1.093615331588327355e-01 1.085236859042731788e-01 1.092800934819713882e-01 1.091359040630375948e-01 1.096072816551501711e-01 1.085792838630434964e-01 1.091379730226761657e-01 1.091881195154537632e-01 1.087500725991549094e-01 1.096563803504774226e-01 1.094343291708268079e-01 1.085179857204579268e-01 1.094239309218662526e-01 1.093767429084525067e-01 1.095607475679175602e-01 1.084785857604711884e-01
1.058389804072364937e-01 1.087849583163260914e-01 1.102510350820539164e-01 1.103125729503179886e-01 1.100028667658227710e-01 1.102880131035757078e-01 1.092510078353199354e-01 1.088844031803467560e-01 1.086552180242719712e-01 1.099605773683411947e-01 1.101382771432043994e-01 1.096723788611649458e-01 1.101294832330251411e-01 1.090423257097443144e-01 1.103673347907120905e-01 1.095294877587291160e-01 1.086296468828653466e-01 1.092117900957068066e-01 1.092187615275938550e-01 1.093524365802927972e-01 1.094131957037284275e-01 1.096157314046222186e-01 1.096168553540714241e-01 1.101805957170535061e-01 1.101198064415663397e-01 1.096119043244342256e-01 1.099314175367504531e-01 1.101727071484127213e-01 1.094010483192550814e-01 1.100279430521572954e-01 1.103345194961758841e-01 1.097762275626851525e-01 1.096440026273651364e-01 1.088617345127504549e-01 1.092430656748652612e-01 1.096484400618266131e-01 1.089719495400086613e-01 1.095505978971327288e-01 1.088871509057767889e-01 1.089662279212005452e-01 1.096595619694018114e-01 1.091974609659230322e-01 1.089598509315761882e-01 1.092705166370566555e-01 1.098222290196208539e-01 1.096913224903207085e-01 1.089327866463284944e-01 1.091361253189926939e-01 1.086584925345919495e-01 1.088890154006426914e-01 1.084467453250363561e-01 1.083955184078385925e-01 1.084668128195261372e-01 1.087060733173408900e-01 1.101704928194559979e-01 1.100313086746642077e-01 1.097704554143429240e-01 1.088867100923927300e-01 1.085702395686352628e-01 1.095841617538391433e-01 1.094370764871884782e-01 1.093234082388729322e-01 1.091020879543660727e-01 1.085607131367631456e-01 1.093842205723328798e-01 1.094751645967491083e-01 1.097677148492029464e-01 1.093129909189128751e-01 1.097427515984757962e-01 1.098765521551908764e-01 1.098536685975982502e-01 1.093294261131643186e-01 1.086407711049622721e-01 1.095405461800873365e-01 1.085438733336424183e-01 1.091037912806561289e-01 1.094554868051547669e-01 1.095532619944768887e-01 1.091371093329344122e-01 1.085870542992307120e-01 1.093642483645183572e-01 1.094691729090168791e-01 1.086014926800004110e-01 1.093551569935842238e-01 1.094354683353552238e-01 1.098741277088715051e-01 1.098580981927830269e-01 1.096664574493101257e-01 1.094186343064764561e-01 1.097008900563866129e-01 1.086625201914130923e-01 1.084887096935822914e-01 1.087259831935117466e-01 1.090888006285819500e-01 1.097492936544394726e-01 1.091498826415148171e-01 1.096477395898723534e-01 1.095921480837298428e-01 1.096836626624852623e-01 1.093341231496488541e-01 1.097501708313127766e-01 1.087792219086978485e-01 1.087741435649303701e-01 1.088678257464809340e-01 1.088506598936927472e-01 1.084769624988478481e-01 1.091847257436696639e-01 1.093862204386193276e-01 1.089124388651022540e-01 1.084972930469574326e-01 1.084368449021650971e-01 1.089480231958632750e-01 1.091981832619602494e-01 1.096374807355077752e-01 1.084231131971726408e-01 1.094210175037729632e-01 1.089856367638681323e-01 1.097406584588357242e-01 1.088205696800288724e-01
1.065301155879703754e-01 1.084053401010147688e-01 1.099074079398457693e-01 1.182735357952593297e-01 1.100332585321183165e-01 1.095434589942029940e-01 1.100565940039015811e-01 1.098274977150006104e-01 1.091535394208698745e-01 1.087609017057593608e-01 1.098875077362537617e-01 1.095108190051164859e-01 1.090242528798819194e-01 1.098203416329742305e-01 1.091718610816060642e-01 1.100315037272224239e-01 1.083939215655369409e-01 1.085423983459412184e-01 1.085863159655397481e-01 1.086490291122920726e-01 1.087099720693290028e-01 1.092132237776309300e-01 1.094520502157295960e-01 1.098999621008291128e-01 1.092366867548841269e-01 1.088357762792409728e-01 1.090432893762912081e-01 1.091300544467707079e-01 1.096549220284924187e-01 1.101668672710896246e-01 1.090836578435110671e-01 1.087884798861235708e-01 1.091582683489448480e-01 1.084913076306697477e-01 1.083555744666318266e-01 1.082395007466291359e-01 1.081863762287865321e-01 1.081823922498880153e-01 1.081007648030598151e-01 1.081722660873363218e-01 1.082086324662252380e-01 1.088156964281502548e-01 1.086712820066771112e-01 1.088773913673153210e-01 1.094217819789493062e-01 1.096900216056254096e-01 1.092755672553772928e-01 1.094179005991142567e-01 1.089886548167049024e-01 1.086586927112750955e-01 1.088824683877185201e-01 1.090807707797588899e-01 1.093639729198054716e-01 1.099301995573725155e-01 1.091339548496525896e-01 1.094912017946734761e-01 1.093943475814870281e-01 1.096643338256373945e-01 1.085386454086556540e-01 1.100231900893744313e-01 1.096620811702585518e-01 1.093715193908806338e-01 1.097833385817753166e-01 1.084348940170770104e-01 1.093090495430619757e-01 1.093658298122306693e-01 1.090846999752064228e-01 1.095507945411662576e-01 1.090936234887604633e-01 1.097661581427179373e-01 1.094330895919954777e-01 1.088873460220216166e-01 1.089002738448092561e-01 1.092035303922043871e-01 1.083414737323590282e-01 1.083211491316989350e-01 1.084143975492042333e-01 1.088274582333628171e-01 1.085748048345427652e-01 1.090932409338693926e-01 1.096793285598204604e-01 1.097147233876201722e-01 1.097873133000871609e-01 1.085640657106074491e-01 1.085374654724693966e-01 1.086043295113510443e-01 1.089031224568153128e-01 1.097019575120740803e-01 1.093188459758683284e-01 1.096053657178647917e-01 1.091427127218434628e-01 1.094370142481864427e-01 1.085104790177723183e-01 1.086600022468958288e-01 1.089357453309366675e-01 1.102259314772863069e-01 1.090761170337642416e-01 1.094340894711731682e-01 1.093405051789194116e-01 1.098828362150790910e-01 1.086509698044268862e-01 1.096978821679076427e-01 1.092013325866775242e-01 1.085064413368071884e-01 1.082186446463908602e-01 1.088016825951542144e-01 1.083517034872115981e-01 1.083410639599060588e-01 1.084458393641947183e-01 1.084604718040690224e-01 1.093255302766961423e-01 1.090538760882691083e-01 1.092846307017922014e-01 1.100813187147031968e-01 1.084675546148504144e-01 1.094683911058119546e-01 1.088777741804734522e-01 1.095450313788371433e-01 1.083649567927646162e-01
1.023927571069965653e-01 1.077060670837660245e-01 1.096056977325955001e-01 1.094149616529395685e-01 1.100034214231356416e-01 1.101079270358969187e-01 1.091881165783189500e-01 1.104169406958813160e-01 1.098496692207678732e-01 1.094021448259959589e-01 1.088319047617910401e-01 1.092109140011720270e-01 1.086779612352112567e-01 1.095770430040728799e-01 1.100948940570418144e-01 1.088805182879132305e-01 1.085745629449517136e-01 1.095152271253261173e-01 1.095140696357703586e-01 1.100506881988825986e-01 1.100073155095788319e-01 1.092296692623098836e-01 1.104228258169824423e-01 1.100439998355393495e-01 1.088752196210455020e-01 1.090994007856192494e-01 1.093057529197942607e-01 1.094764952628130977e-01 1.095159404351978560e-01 1.103376537795699996e-01 1.091445820697681812e-01 1.087785236121115856e-01 1.085218624980874430e-01 1.094519085973170019e-01 1.096684596303108272e-01 1.086114295772572097e-01 1.096586487132471394e-01 1.094985015167830034e-01 1.091787576892654377e-01 1.088096108807571905e-01 1.088780481019151064e-01 1.090837784795582466e-01 1.079775136339648917e-01 1.087130543889059386e-01 1.091900026647151523e-01 1.097660560743454750e-01 1.086383401694949735e-01 1.085573512511033983e-01 1.086887098950033298e-01 1.089908603355716210e-01 1.086604450991373594e-01 1.092532186444729742e-01 1.093039690494901350e-01 1.085399409021967077e-01 1.084756484295004708e-01 1.092962282740449487e-01 1.094418538220356257e-01 1.085176252818818021e-01 1.095319860669981271e-01 1.085742089938266236e-01 1.101374904748567696e-01 1.089855503313162527e-01 1.088696212545521569e-01 1.083515796759567662e-01 1.084582475616720221e-01 1.087957486863331963e-01 1.085195308654153534e-01 1.090299197584196078e-01 1.088509323385208893e-01 1.094338255259171000e-01 1.098994876016453071e-01 1.086875513207066907e-01 1.087610141215824833e-01 1.085834271802843809e-01 1.093522361597698001e-01 1.098935499931757431e-01 1.091337005460761289e-01 1.084578593923381656e-01 1.087413078936666777e-01 1.087496681359371720e-01 1.090735834292832496e-01 1.092754325184849273e-01 1.096956985742709167e-01 1.090510306514621830e-01 1.097367480017431146e-01 1.095338975249257052e-01 1.085535427637984718e-01 1.087359784220126163e-01 1.092321192596850815e-01 1.095499317075993295e-01 1.092438991872874132e-01 1.093330578434409950e-01 1.086569793172861287e-01 1.089334371110873834e-01 1.097886242975103371e-01 1.092863513128656677e-01 1.096986363084340166e-01 1.088049504400010747e-01 1.086206081796131928e-01 1.084999794105717119e-01 1.094260741372593826e-01 1.096958063410357620e-01 1.090818735662721778e-01 1.087901659662841303e-01 1.083256388435267087e-01 1.091039193432252336e-01 1.093006998522033507e-01 1.086026626414470092e-01 1.083571313028433569e-01 1.083884692716705206e-01 1.088051494061533370e-01 1.087250346540474810e-01 1.096096100601902795e-01 1.087928040306664901e-01 1.093129728108462040e-01 1.085126804633026049e-01 1.092855729882033916e-01 1.090461939366772354e-01 1.083049126941500878e-01
1.101065089081877946e-01 1.093683515441464249e-01 1.099383930769932682e-01 1.101169836849427847e-01 1.094195052536597879e-01 1.097532088067389444e-01 1.092383170310991525e-01 1.090591167624639646e-01 1.100706794971231528e-01 1.100449239641951849e-01 1.098938271056878330e-01 1.087412345777448719e-01 1.086141251841538785e-01 1.095648613540488453e-01 1.099046635920278431e-01 1.085716878599164437e-01 1.089510407533660213e-01 1.091649654710381556e-01 1.094298653340993188e-01 1.094843339306423857e-01 1.091823365340131025e-01 1.098392095489867243e-01 1.099435168052233652e-01 1.088418470946060784e-01 1.091006100589189398e-01 1.095500361862101202e-01 1.095930991784935665e-01 1.089833038862790260e-01 1.098280731918635927e-01 1.098578262026855684e-01 1.098667388012696949e-01 1.093728996177282531e-01 1.085482125269438686e-01 1.095707111875222628e-01 1.096699297970697429e-01 1.089298736544519336e-01 1.086976346267725657e-01 1.086916817498026211e-01 1.089454677985254860e-01 1.090399665186509437e-01 1.100091220869373887e-01 1.082331361903377948e-01 1.052283771344007524e-01 1.081391317781462275e-01 1.094553610664220494e-01 1.088171629703566928e-01 1.093635198825071708e-01 1.097226707540028406e-01 1.098661266541993559e-01 1.095401518938888680e-01 1.088999970693392411e-01 1.085327242008025384e-01 1.084736246922642366e-01 1.092668229572533178e-01 1.093201322504704226e-01 1.086724579926719447e-01 1.089395031647734796e-01 1.085432389149203064e-01 1.098168643575377079e-01 1.100066728152511164e-01 1.095431861193242595e-01 1.084313604555598581e-01 1.084116131519905490e-01 1.093093883862196053e-01 1.091744063976829299e-01 1.084795379042297059e-01 1.086954052618994276e-01 1.084468662629775315e-01 1.083732309293975737e-01 1.088052788453273828e-01 1.084435834640297136e-01 1.082337342806936331e-01 1.084499711105399861e-01 1.090437822754584118e-01 1.097951095791998982e-01 1.091804323522954506e-01 1.093196274320678285e-01 1.084713594810177012e-01 1.091714839628945832e-01 1.093888703904999649e-01 1.089774419808619693e-01 1.095260313250979306e-01 1.096423889150789366e-01 1.102423754057978433e-01 1.098318298838693308e-01 1.093516078636899008e-01 1.086856495540295953e-01 1.092105159796202818e-01 1.098807183849276198e-01 1.100116685957380769e-01 1.094632572679890697e-01 1.098363581869666733e-01 1.090929956005862733e-01 1.098285120854366748e-01 1.091238762073595547e-01 1.096591365848607613e-01 1.096099371896513963e-01 1.092409860804743338e-01 1.089351520853486799e-01 1.090177574601191995e-01 1.083098329094472345e-01 1.082740992159077903e-01 1.082463817287342006e-01 1.082653542306138139e-01 1.093954446922283802e-01 1.091878357412102152e-01 1.090480534622847025e-01 1.083339286175061533e-01 1.090173132356582059e-01 1.091487289798212523e-01 1.085724853675529983e-01 1.090110574088036383e-01 1.095857669289979769e-01 1.099929250264573694e-01 1.098483488082702686e-01 1.087010599348700590e-01 1.083532905278316583e-01 1.083715538380385923e-01 1.094871749540848038e-01
1.093981967001916022e-01 1.103211448377556664e-01 1.095561497098804793e-01 1.098121656513610933e-01 1.096761504533064202e-01 1.090965639234433848e-01 1.094078094994160449e-01 1.093527263257236398e-01 1.099874938435983912e-01 1.095653847932432784e-01 1.096106453217673693e-01 1.097630189355755237e-01 1.095684266145059288e-01 1.088207695195726465e-01 1.088959822320150900e-01 1.085607977223920079e-01 1.095530892492490027e-01 1.097258672577607064e-01 1.096930362353133043e-01 1.094929639318781289e-01 1.092106713769896986e-01 1.100432052179461384e-01 1.092611401864460180e-01 1.086471305883029426e-01 1.087264469600482397e-01 1.087074697343667212e-01 1.087557103586440227e-01 1.090031518044394937e-01 1.091868938900354413e-01 1.090250775924466037e-01 1.103232096067515156e-01 1.089815201302462566e-01 1.089897275933718046e-01 1.099554565860107469e-01 1.095961094922282553e-01 1.091335766935258578e-01 1.098021638661389465e-01 1.088474020598644287e-01 1.090688314536707310e-01 1.090014321955003473e-01 1.096571164081103222e-01 1.075169081016793121e-01 1.040800657710494737e-01 1.078473435103483313e-01 1.091951453858834853e-01 1.091321040109368146e-01 1.092287062773156514e-01 1.093600102340850228e-01 1.092244997391798034e-01 1.095342661289011865e-01 1.087969365216880924e-01 1.090541681472084606e-01 1.090358738467688826e-01 1.096615215293396672e-01 1.100368115779164074e-01 1.095065517560163404e-01 1.086658864958096882e-01 1.089391184840963200e-01 1.094333044803217359e-01 1.094913335106443980e-01 1.086316484911392238e-01 1.090169639260453738e-01 1.088679248401056149e-01 1.095474576072073269e-01 1.094797429326696686e-01 1.085679019924710442e-01 1.090523990056765646e-01 1.099499072850589343e-01 1.091953330269949674e-01 1.084723719667740061e-01 1.092257231202219681e-01 1.100155572333548215e-01 1.097537198786748824e-01 1.086159825230833542e-01 1.097476597677061738e-01 1.099539842795865391e-01 1.085259868893256457e-01 1.089227448351391125e-01 1.097598487750348628e-01 1.091631488177170484e-01 1.089621473578805955e-01 1.099834030411927649e-01 1.094192086106483414e-01 1.097046584653910001e-01 1.094783081922181406e-01 1.093562173496424733e-01 1.093001654105708181e-01 1.099059214527536021e-01 1.098895638918949147e-01 1.089825091386807387e-01 1.094833578300086763e-01 1.095038370488576746e-01 1.102898526039223226e-01 1.098372877726728342e-01 1.098507046886302574e-01 1.090462747254453135e-01 1.085086026280173005e-01 1.084019974415730697e-01 1.083395795175685627e-01 1.083007564757546004e-01 1.082985562552372660e-01 1.093396678358052737e-01 1.096081927034539966e-01 1.087124040665259916e-01 1.088060111921445722e-01 1.095254240313778410e-01 1.090457549494374540e-01 1.083832377207019776e-01 1.094852247617258967e-01 1.091446577185248845e-01 1.082288166232402010e-01 1.085759769542856690e-01 1.091281695874569690e-01 1.092115551242478777e-01 1.085514357573535427e-01 1.085136858504223006e-01 1.086276868999963563e-01 1.093470810151827843e-01 1.093153994252207273e-01
1.093236064597094964e-01 1.089833827849766429e-01 1.099866758838817377e-01 1.102620979553024239e-01 1.098652765028757666e-01 1.090190400298180484e-01 1.101645656351448316e-01 1.097896413545027816e-01 1.097079415688537590e-01 1.091283184903579367e-01 1.089053112930414430e-01 1.093212981274341855e-01 1.095731201374056385e-01 1.090242457406008225e-01 1.086060428621097584e-01 1.094287966056780442e-01 1.095088526475926499e-01 1.097137720462593030e-01 1.093806615658445003e-01 1.091246769471647948e-01 1.090003220943495665e-01 1.096503220156666986e-01 1.087253766165643259e-01 1.090098635694583262e-01 1.093346895537553876e-01 1.094268767095565309e-01 1.094954129964720163e-01 1.096865222673879398e-01 1.100379802706505511e-01 1.102627356197789787e-01 1.096757833708951191e-01 1.095902790149797107e-01 1.102491383349224335e-01 1.097760408659272380e-01 1.098687881611867811e-01 1.093126692249602183e-01 1.086614936619758609e-01 1.090683592598285651e-01 1.093863656617972274e-01 1.092827604192093127e-01 1.102103614998064529e-01 1.065842125060126738e-01 8.810960891265311179e-02 1.065098947617426489e-01 1.096479907885753308e-01 1.091324058115122481e-01 1.088641661425864271e-01 1.086218495254052396e-01 1.085265111677264499e-01 1.085729104108894560e-01 1.094390419558423366e-01 1.092405084909261470e-01 1.100079178336953040e-01 1.092582720404065566e-01 1.087631320614075858e-01 1.098662911285837734e-01 1.087848018672637612e-01 1.086465657849499666e-01 1.087825944255125798e-01 1.086248027908309349e-01 1.092010450428475554e-01 1.096425408038354254e-01 1.091824561359671375e-01 1.094620988039063242e-01 1.095151980717607859e-01 1.094619358645608359e-01 1.085996644158065128e-01 1.093230842162169064e-01 1.096038041866606721e-01 1.086497807146258182e-01 1.094996768407329041e-01 1.090838471422245215e-01 1.093447391455250328e-01 1.087604719679651222e-01 1.093954138598021847e-01 1.098569163195991516e-01 1.081205343704696731e-01 1.085705162791076595e-01 1.093511394390749153e-01 1.099047337730122420e-01 1.097911615908472999e-01 1.089995876123998342e-01 1.092901934594202457e-01 1.087916465150178119e-01 1.094417136488399223e-01 1.097895042703780355e-01 1.101254689893524930e-01 1.097181559033967857e-01 1.092070669685468315e-01 1.090487973425620372e-01 1.092498185802016075e-01 1.096446949454434883e-01 1.093552662286002425e-01 1.093438239554183761e-01 1.093992294780912478e-01 1.094907180324979079e-01 1.093639205303231776e-01 1.093607240055811114e-01 1.093575274801379671e-01 1.093540775434854173e-01 1.096776196935699277e-01 1.089323571073308045e-01 1.089136539095972300e-01 1.091578443456741043e-01 1.095332737288805397e-01 1.092846392541946959e-01 1.083349063891677205e-01 1.093178091889344117e-01 1.095562480131555133e-01 1.087058253172540206e-01 1.090689589517351010e-01 1.088597957529031240e-01 1.085371995200919842e-01 1.084458944478020187e-01 1.090964684194998535e-01 1.092042015911318109e-01 1.086539781441876462e-01 1.089968905361452106e-01 1.088937357803939077e-01
1.102352760645412960e-01 1.091450432650700464e-01 1.090919901541513443e-01 1.093330081509809315e-01 1.088766696988439087e-01 1.095165002475254057e-01 1.097290093701783764e-01 1.095957624151646936e-01 1.098412175714191252e-01 1.091728209754674606e-01 1.096900416380631321e-01 1.088269520101532301e-01 1.086099073179634944e-01 1.085889877131618331e-01 1.084929237657885209e-01 1.091918796145664450e-01 1.092680889696542174e-01 1.097429233337859772e-01 1.093714473864303705e-01 1.100389099359540268e-01 1.089405913274545945e-01 1.092162215833999417e-01 1.085944191569704897e-01 1.085584400464348481e-01 1.085754061135326687e-01 1.086239136405638961e-01 1.086898898492913851e-01 1.088045750605733525e-01 1.093779215286879714e-01 1.099412964608892929e-01 1.087856009637868243e-01 1.091468044855582048e-01 1.083158191459552139e-01 1.072620910638944630e-01 1.099254744820613167e-01 1.087164830517942521e-01 1.088318240376374563e-01 1.094978317462186324e-01 1.101772246755744478e-01 1.105784504293442772e-01 1.099643951311025519e-01 1.055526147105149692e-01 8.403483217793500382e-02 1.054754405894467867e-01 1.095500003847758724e-01 1.095215181489182232e-01 1.091848020278839704e-01 1.094799348607864431e-01 1.088948979757191626e-01 1.087329818302286144e-01 1.095911585082914030e-01 1.094426249354869818e-01 1.090202121349802544e-01 1.092100841728533833e-01 1.087834700440497016e-01 1.098774215918856129e-01 1.085184240391112304e-01 1.085466846998372620e-01 1.086265143943279804e-01 1.088182531084101595e-01 1.093186613369704629e-01 1.097770699100509700e-01 1.100850474991584282e-01 1.099578501386236362e-01 1.097350010434977874e-01 1.090509787079675386e-01 1.085388160952575759e-01 1.092838629796649697e-01 1.095476127354106932e-01 1.095487365995297530e-01 1.086770286548599806e-01 1.101410354532890851e-01 1.090370168598243927e-01 1.094506576413247362e-01 1.091465174157313228e-01 1.100252870107738812e-01 1.082584920936983108e-01 1.088109785204027236e-01 1.084774956568939769e-01 1.084647358825106683e-01 1.084208078561542665e-01 1.084262237736541706e-01 1.085011470884775231e-01 1.095074037537204364e-01 1.090326310722566083e-01 1.093734768094435927e-01 1.088035395127910365e-01 1.097996704375925336e-01 1.095276008659869932e-01 1.085767451100623782e-01 1.084591096969548807e-01 1.085229415759050575e-01 1.086830565648743002e-01 1.100041079066541444e-01 1.096111413516910604e-01 1.095785032946409443e-01 1.095376057825223209e-01 1.094995393426265312e-01 1.094794151848421659e-01 1.094783018168391103e-01 1.095209002818675198e-01 1.097750206158631114e-01 1.098246712186158602e-01 1.096884749172401946e-01 1.094868369023924287e-01 1.089071248913755785e-01 1.083774481349630836e-01 1.095945194179258481e-01 1.087120487645519273e-01 1.091074145460722566e-01 1.095733027853599828e-01 1.087373904410295355e-01 1.091329706824698820e-01 1.084120350481941469e-01 1.094073404348893386e-01 1.096187838875754550e-01 1.089930752216610871e-01 1.086596558085176634e-01 1.090913790503683228e-01
1.096655137744488306e-01 1.099605249145039487e-01 1.101333618644421142e-01 1.093787585156505843e-01 1.088613938680382809e-01 1.093950269887774829e-01 1.092080172349678968e-01 1.097672083802746501e-01 1.099483885077281453e-01 1.097264220568728299e-01 1.091335890283056664e-01 1.095378820238523954e-01 1.089919702398444018e-01 1.091237131207250521e-01 1.094379825296601799e-01 1.087322984400739267e-01 1.091602285743519252e-01 1.094618099214561130e-01 1.099965866520959540e-01 1.093426093444557212e-01 1.097786246564506074e-01 1.086976382283456471e-01 1.094574509158652287e-01 1.095882317899980474e-01 1.097219812778631731e-01 1.097714162559817463e-01 1.098420278432609143e-01 1.099399885480952382e-01 1.097483660435477487e-01 1.072735845337907251e-01 1.085029782662581266e-01 1.079727498253475332e-01 1.078985809665657103e-01 1.086896502589184410e-01 1.087014747486422933e-01 1.094211392681837813e-01 1.093604020096181906e-01 1.098498374186563098e-01 1.100005546570313186e-01 1.102116471068007864e-01 1.129496402809801597e-01 1.049770253514349383e-01 1.001645124856263697e-01 1.085084480791028982e-01 1.104657916088567920e-01 1.086513198623842158e-01 1.086337500147625534e-01 1.088443520365725004e-01 1.087866442131626976e-01 1.088737338770885410e-01 1.094869087891214010e-01 1.092739737028893265e-01 1.094971902709289679e-01 1.099348552398435735e-01 1.087887949408289923e-01 1.088508637266957790e-01 1.085128676843970380e-01 1.095746574585691191e-01 1.098182629966294038e-01 1.091428214453167289e-01 1.096634523600696770e-01 1.102056691917302489e-01 1.089811887568925136e-01 1.090804416454041886e-01 1.095398277895859168e-01 1.097967663042454523e-01 1.089212312975584435e-01 1.096325519404663523e-01 1.097115529819907842e-01 1.094742718840333584e-01 1.085708612565859515e-01 1.091206084125855291e-01 1.100266878283114730e-01 1.093714670898923852e-01 1.098327018445660053e-01 1.095048036639020977e-01 1.084075287965997891e-01 1.092278788324255318e-01 1.085127376861370063e-01 1.092691262463819091e-01 1.091312246695104460e-01 1.090280361394069114e-01 1.084792290024677586e-01 1.102172902262532617e-01 1.088975401428547846e-01 1.101346037345131701e-01 1.097789176824821022e-01 1.089297156552943013e-01 1.094773760559964587e-01 1.084805530731957762e-01 1.098456558233804198e-01 1.095011685241150529e-01 1.098054429243645047e-01 1.093282779939072080e-01 1.102933657240367515e-01 1.090091445111875945e-01 1.085111129243349348e-01 1.084053492267581520e-01 1.083804614174252862e-01 1.082599868180874197e-01 1.083414690677365066e-01 1.083342632889217338e-01 1.082535482975523489e-01 1.083075745953571006e-01 1.082860716635093978e-01 1.082613718883672499e-01 1.088267203648456416e-01 1.089052390253391067e-01 1.095661879025321278e-01 1.098281456476771778e-01 1.087441944352825623e-01 1.088401785903673202e-01 1.089765994017273948e-01 1.089099139869603577e-01 1.093576876932535608e-01 1.097667292360761104e-01 1.088099272578084281e-01 1.089869388163473146e-01 1.086623812947477008e-01
1.085974654050942817e-01 1.087115820418911999e-01 1.104006218057647787e-01 1.101973746007103294e-01 1.096132170586449628e-01 1.090656072354337924e-01 1.095394882226108924e-01 1.101861636798295019e-01 1.093175412861643880e-01 1.099884749693352676e-01 1.095735589949656252e-01 1.095081985781265060e-01 1.100020223847037459e-01 1.094191737856886615e-01 1.100818036854853549e-01 1.096506327150975624e-01 1.087223755916254531e-01 1.090966708443223826e-01 1.090729649450437738e-01 1.095930460297580150e-01 1.098792964228053476e-01 1.085645735058164835e-01 1.095127301522142577e-01 1.099782066968352512e-01 1.101752192158737265e-01 1.103709791167698379e-01 1.106909511317064054e-01 1.110080273639267034e-01 1.135051341911300221e-01 1.085042736301594091e-01 1.080887016939811318e-01 1.077321701298284418e-01 1.078219885413959078e-01 1.084049859030389584e-01 1.091160729926824724e-01 1.088520960557254891e-01 1.093176600589576553e-01 1.103756049909380837e-01 1.106379627424113193e-01 1.102909479606164339e-01 1.200579383603674333e-01 1.105406518892344814e-01 1.098178171726482549e-01 1.312139665140417688e-01 1.119826175654589362e-01 1.119867261386535973e-01 1.085500627117565869e-01 1.093461239162044907e-01 1.092347955112688979e-01 1.086623549291934610e-01 1.094257732981624986e-01 1.096863086539011933e-01 1.088502443229329986e-01 1.092091613889437096e-01 1.092410921171656640e-01 1.086512368217384533e-01 1.085417105468835380e-01 1.090545958985168762e-01 1.088632120834019945e-01 1.100156189645284943e-01 1.101125490208070962e-01 1.085639828486016090e-01 1.088617030317419743e-01 1.098881322033667812e-01 1.088663287083369291e-01 1.093367600574954301e-01 1.098877583916741396e-01 1.095439335658664748e-01 1.093359777567319419e-01 1.092489257116016355e-01 1.087082572746255887e-01 1.097030803663209125e-01 1.098484792036049928e-01 1.090995067420198333e-01 1.101677999661793694e-01 1.084311303268677418e-01 1.094451488587147581e-01 1.094179238052372383e-01 1.086180539502762943e-01 1.092510180001251413e-01 1.092838169858910552e-01 1.098748369300822092e-01 1.085686079692589623e-01 1.090186642395211125e-01 1.087794442312439713e-01 1.089656783692699027e-01 1.095729845199926306e-01 1.092504717054099822e-01 1.084044040449442109e-01 1.094718291484670508e-01 1.092460962924034079e-01 1.097595015320953077e-01 1.092355508685635829e-01 1.091184757150372442e-01 1.100508652230136469e-01 1.096284478345087854e-01 1.092594773070835190e-01 1.089361365106471385e-01 1.088371637298428118e-01 1.084782244446746424e-01 1.093607649807988857e-01 1.096009242320230143e-01 1.086087215236817144e-01 1.093096251158328230e-01 1.086737621780955454e-01 1.082468331000075168e-01 1.089788867381997622e-01 1.096974576610047214e-01 1.096507163986651101e-01 1.097259417103274015e-01 1.090307060847792581e-01 1.088170660269134615e-01 1.095404621969708336e-01 1.101971733805051229e-01 1.096035050694869756e-01 1.099448896173526313e-01 1.089526688983809416e-01 1.092203854777894778e-01 1.088761443430965453e-01
1.071679206489332403e-01 1.082431668775862277e-01 1.088784572426779590e-01 1.095683701662771015e-01 1.097228913876449330e-01 1.094672436687979533e-01 1.089891900035327155e-01 1.091813325062095247e-01 1.101734617216384438e-01 1.095676054278663519e-01 1.096287741333092924e-01 1.096498290971352346e-01 1.096307961059371366e-01 1.098228837976280847e-01 1.097046203808842296e-01 1.094871693231255494e-01 1.089730871592293759e-01 1.085858633962163006e-01 1.097262405249935791e-01 1.096197203173377155e-01 1.096265762332620658e-01 1.084969877524351034e-01 1.084069665941088945e-01 1.085253974554967471e-01 1.086691928035519727e-01 1.088919432716463354e-01 1.093182565335175244e-01 1.133320171024199685e-01 1.148364046860327892e-01 1.086249271329042393e-01 1.078928445474684472e-01 1.077804246593243032e-01 1.082570990156322827e-01 1.087340863890745440e-01 1.082817310677588463e-01 1.088620802628459949e-01 1.080931454906249312e-01 1.111085314729160500e-01 1.102297762358152716e-01 1.106340447618451156e-01 1.105949001701497514e-01 1.103116430914844043e-01 1.104697099179916403e-01 1.101121886412632228e-01 1.124599304916311243e-01 1.119265939017882600e-01 1.102879032700421480e-01 1.092771915086274276e-01 1.096316517829159648e-01 1.091211700033212911e-01 1.089969935611402180e-01 1.086752567755508159e-01 1.085780382698339902e-01 1.084905523182915221e-01 1.086286959077893688e-01 1.086878946354502551e-01 1.085209537771354982e-01 1.098784701576079464e-01 1.096132916499658744e-01 1.097324660090177040e-01 1.093668034764387342e-01 1.099540429525395074e-01 1.083892204872310971e-01 1.087932507648283614e-01 1.097389346738689986e-01 1.104879423372052138e-01 1.097536312853547580e-01 1.097627595341411633e-01 1.093120287164265347e-01 1.096938477071645740e-01 1.091454620452408097e-01 1.099478913330741991e-01 1.094709671513174609e-01 1.092052862391776069e-01 1.087041363042116626e-01 1.082023337665295043e-01 1.091629967297171738e-01 1.096231448584359391e-01 1.100144020646676019e-01 1.087105635327771380e-01 1.096502419989000832e-01 1.097778073255723935e-01 1.090565945852456919e-01 1.085480079853969049e-01 1.084173031083588701e-01 1.090736369386428595e-01 1.097037718404549750e-01 1.092523398680160379e-01 1.083888206647050656e-01 1.092290835997197507e-01 1.088610168720687971e-01 1.088718257594354366e-01 1.094228892619359961e-01 1.088348866125097847e-01 1.087880625140225793e-01 1.095904777290008791e-01 1.089888633434682313e-01 1.085401522293569371e-01 1.084600070882950074e-01 1.096912003147740428e-01 1.095840472034704666e-01 1.092016974146615277e-01 1.091055455450411077e-01 1.091692785149362965e-01 1.083458249969627141e-01 1.084205814562007042e-01 1.097062625503726907e-01 1.095101376159621775e-01 1.089758522948426900e-01 1.093231063872732584e-01 1.092340235991091091e-01 1.084884938042652430e-01 1.103691287810609767e-01 1.100869758344684979e-01 1.095114895204431504e-01 1.092091322442804158e-01 1.097179717017679607e-01 1.090008701283424336e-01 1.086129570465822480e-01
1.087615690856304496e-01 1.080698787474689421e-01 1.092886213727668754e-01 1.093557513023269839e-01 1.093865843295020596e-01 1.095228116043496930e-01 1.092423249795764911e-01 1.087850693599677759e-01 1.093389724622506470e-01 1.101957048015256291e-01 1.096405958293728555e-01 1.096473110053713534e-01 1.090897721696138245e-01 1.087624675489495263e-01 1.086686603380740412e-01 1.086104198603187049e-01 1.086178647335474950e-01 1.084285022450882929e-01 1.092911282223918007e-01 1.095280472646886633e-01 1.087076813920799384e-01 1.096807719144871351e-01 1.098141087015240408e-01 1.099956031858684985e-01 1.101495392122055633e-01 1.103881349144988366e-01 1.107610849133800202e-01 1.109167972559366722e-01 1.011118458004397064e-01 9.969416176770790061e-02 1.068490349941778467e-01 1.081054484791547365e-01 1.081757386294706774e-01 1.081685444982187216e-01 1.081746373399302547e-01 1.081906091178944096e-01 1.087764975373265303e-01 1.100601518441045590e-01 1.109516898552863895e-01 1.102916914657123687e-01 1.103612787298763609e-01 1.101499688653862497e-01 1.099393879923175749e-01 1.100304752176271272e-01 1.105634223394914017e-01 1.108339715009277193e-01 1.111405709998704999e-01 1.092330341485237277e-01 1.098040013262481102e-01 1.100766313550053666e-01 1.098315107608913155e-01 1.098591821151803649e-01 1.098094561418108128e-01 1.092150319448828288e-01 1.095419176442483100e-01 1.095848079681558951e-01 1.085221881290628770e-01 1.089199809466759872e-01 1.090340559168454515e-01 1.098426682930349063e-01 1.095833774934615035e-01 1.085928642839036479e-01 1.094004742305171307e-01 1.095065054011691991e-01 1.098316470668969924e-01 1.086422081105745535e-01 1.086130008636245203e-01 1.089470839234976673e-01 1.102442033201268129e-01 1.094452737501958040e-01 1.104921979091912920e-01 1.101306102663585362e-01 1.093231203310972566e-01 1.098429622686570295e-01 1.096557657298239952e-01 1.083716085756960129e-01 1.099582821605170208e-01 1.092663379849664884e-01 1.095026825424393335e-01 1.090040227470623346e-01 1.094282161204975651e-01 1.094811989615020464e-01 1.088147350830763332e-01 1.096238901335152421e-01 1.092551614078831057e-01 1.083330701180380551e-01 1.083056706095497229e-01 1.083122624623808899e-01 1.089726423189852494e-01 1.084829436496978633e-01 1.089022841532201469e-01 1.085734663978952103e-01 1.086141972331838845e-01 1.091549196272948025e-01 1.092146587261000334e-01 1.095678668391977806e-01 1.087346731833703645e-01 1.091255230697961986e-01 1.088315480611760644e-01 1.092437762428857539e-01 1.086264438425192519e-01 1.089172146966413401e-01 1.085596840435166799e-01 1.083050603539367079e-01 1.092042749480466174e-01 1.086778575120081469e-01 1.098568161134147875e-01 1.091611446214681980e-01 1.087993169181760700e-01 1.085139287708579980e-01 1.096751822054243819e-01 1.090200631308838597e-01 1.102345160083064574e-01 1.087065400677361959e-01 1.096742273343493390e-01 1.090114627575241441e-01 1.094603198302467884e-01 1.091498164742006616e-01 1.093945779765063825e-01
1.086004854703745554e-01 1.082338638279243259e-01 1.088903780890653067e-01 1.092952470607193027e-01 1.093427751973455320e-01 1.097227539109932731e-01 1.093853316841337242e-01 1.087037346731518916e-01 1.099657111181124858e-01 1.096373854474553405e-01 1.095075958851042391e-01 1.100549131258029417e-01 1.099167046013206223e-01 1.093607899279590429e-01 1.090163810456759030e-01 1.092674740546614731e-01 1.098040955559007048e-01 1.090865187229581451e-01 1.085389207540854439e-01 1.084199512689159595e-01 1.095020267393362334e-01 1.096142973419155092e-01 1.098019876484249563e-01 1.097483902054415678e-01 1.097837305027563048e-01 1.097623847909967032e-01 1.097245274535910142e-01 1.095311351336890615e-01 1.092641409679427911e-01 1.086714967417198169e-01 1.085930527252685629e-01 1.081925949540596399e-01 1.080909951716587103e-01 1.080992465962178906e-01 1.080799419586028765e-01 1.082058647703135201e-01 1.082961292940256559e-01 1.077817245215563213e-01 1.109345101828173724e-01 1.103840844186372572e-01 1.102670923112461510e-01 1.103661024370063831e-01 1.102144988437154804e-01 1.096448794146145378e-01 1.098622094076765754e-01 1.102331066120395830e-01 1.100817939140649043e-01 1.093484585596137537e-01 1.103813043802023830e-01 1.094245110239121382e-01 1.100224775294251223e-01 1.097607854781317144e-01 1.092062708536944843e-01 1.094546750034499916e-01 1.098943416267169626e-01 1.089996002712567968e-01 1.090955940514918981e-01 1.086527998389904409e-01 1.091364361849836151e-01 1.100128673954821751e-01 1.092416374983052330e-01 1.093285839104744944e-01 1.084650116150072813e-01 1.090888830431701040e-01 1.086985274614322566e-01 1.088974835084305370e-01 1.096830190741654026e-01 1.095951291968411401e-01 1.094130544339732003e-01 1.096622266195215883e-01 1.092144306627582245e-01 1.093041760112149485e-01 1.099386152732617083e-01 1.096110004967928986e-01 1.095140579253539581e-01 1.083462161234769738e-01 1.096786741268011983e-01 1.101107248728191712e-01 1.094550724895451688e-01 1.104527588632364110e-01 1.093619247228954788e-01 1.088478963022801588e-01 1.083471951198340250e-01 1.086494282558559538e-01 1.091421181887861636e-01 1.084775731049314323e-01 1.090856031032317319e-01 1.084006761343525582e-01 1.096427015129396304e-01 1.094809059685974556e-01 1.084889117740495679e-01 1.093717477287958345e-01 1.089284771076029640e-01 1.092707638418442678e-01 1.094813377555506895e-01 1.088459004569640592e-01 1.089726983555943801e-01 1.090195268335117512e-01 1.094985304655237690e-01 1.093831730865281460e-01 1.100654898461241732e-01 1.089551449080514711e-01 1.093939787601884428e-01 1.084086508169320590e-01 1.087509916375955926e-01 1.088668589213662163e-01 1.099477219752411222e-01 1.090599907150870962e-01 1.098256773333010639e-01 1.092744074563424539e-01 1.084964613750813572e-01 1.095417210127229285e-01 1.098509258125267146e-01 1.083629466662060087e-01 1.088812755464757531e-01 1.097672527973206913e-01 1.093576144108727999e-01 1.103228421300284784e-01 1.090844112843259855e-01
1.081811407256187824e-01 1.082615487342125232e-01 1.089480089596480683e-01 1.086644214881137965e-01 1.095083760729909372e-01 1.097411804138322539e-01 1.093969247790670396e-01 1.086791778585122215e-01 1.096397703736967516e-01 1.090485012419517563e-01 1.099316609436499920e-01 1.094430449966521252e-01 1.099457681704907597e-01 1.100425788001431066e-01 1.098756728911033653e-01 1.097821553341374740e-01 1.097780553536176484e-01 1.101341356301557134e-01 1.094593279613650244e-01 1.084415276851782572e-01 1.099094523374533061e-01 1.093083121973663918e-01 1.086474267675176658e-01 1.084882413030876097e-01 1.085946295829609831e-01 1.086069817668395276e-01 1.087476781919563679e-01 1.099343705154062073e-01 1.094998018534336925e-01 1.086644964581382072e-01 1.082587745410715646e-01 1.081920125913206077e-01 1.081702546171422058e-01 1.086505677491102634e-01 1.086620639875746780e-01 1.080125592168826032e-01 1.080496768318443962e-01 1.074413663629024129e-01 1.062430130915718307e-01 1.106938799578912613e-01 1.109126696578759952e-01 1.100191989058948022e-01 1.101228440454353336e-01 1.099474926201128161e-01 1.092010655955986675e-01 1.096676541464114418e-01 1.102872579006819731e-01 1.101489127487749048e-01 1.091384505583946202e-01 1.095307099611239621e-01 1.104276081186605085e-01 1.092971005655292843e-01 1.093164488539521834e-01 1.096079311950857726e-01 1.097231117225000996e-01 1.092868098855767633e-01 1.093609165408027106e-01 1.087649577483338209e-01 1.086125092496698641e-01 1.093448677983904355e-01 1.092749030531311449e-01 1.095241804873762076e-01 1.082575065268187031e-01 1.086182063288151922e-01 1.096072386812705912e-01 1.096772906059468450e-01 1.097349293267975007e-01 1.092615334140073086e-01 1.097803184613450056e-01 1.088805025681957722e-01 1.093708882217573342e-01 1.095190581204941171e-01 1.091313783230306034e-01 1.093098517565880279e-01 1.100476914999859307e-01 1.086080531330591292e-01 1.096019047673620350e-01 1.099721825800520220e-01 1.105488674233373603e-01 1.099401284441039739e-01 1.091826386711434727e-01 1.088234317406682194e-01 1.076528912726802123e-01 1.091298096912877713e-01 1.085131012762735880e-01 1.098837685197239927e-01 1.094392319767606703e-01 1.084894953781759680e-01 1.095602255619674836e-01 1.092571616306751425e-01 1.090563021467179372e-01 1.084591853154777685e-01 1.084165145115128515e-01 1.085952043474615325e-01 1.099238356740775413e-01 1.096699024640290371e-01 1.096661897120502910e-01 1.100850370029073100e-01 1.092043095452517876e-01 1.097746619740504193e-01 1.091188381204007823e-01 1.096790642282867295e-01 1.090200348488708226e-01 1.099235954543467675e-01 1.090809371773444891e-01 1.093542996763855746e-01 1.091312694714178105e-01 1.096586592785460806e-01 1.096659210830510101e-01 1.090962472435247910e-01 1.093831658134115509e-01 1.084984088258879042e-01 1.090976519208809309e-01 1.083099026674453208e-01 1.083003125417732609e-01 1.094422620658301870e-01 1.091405037298154579e-01 1.093027322920071404e-01 1.096961114388779884e-01
1.094596251149697191e-01 1.088871470662109014e-01 1.084793512543725247e-01 1.085023727486379985e-01 1.096803759456715793e-01 1.093968199338964109e-01 1.101965360233520541e-01 1.088205069248519286e-01 1.091798601758542930e-01 1.089444440044348844e-01 1.090140384827124054e-01 1.094127658377867657e-01 1.092959578268353493e-01 1.091034877582211932e-01 1.092100186888724789e-01 1.098354042722917562e-01 1.089793373517453506e-01 1.098865195195575933e-01 1.098877476972133227e-01 1.084264684533363249e-01 1.089653351914935675e-01 1.087072537942782857e-01 1.096375196671093288e-01 1.089577436839921643e-01 1.097993981778987715e-01 1.095258695715139591e-01 1.096875121668255126e-01 1.090956442503092233e-01 1.087792612252232588e-01 1.086624646086204182e-01 1.084196398401815753e-01 1.081624113413240107e-01 1.082640806284763252e-01 1.081765445448942958e-01 1.081153108520357953e-01 1.080181740342518321e-01 1.079251072126844319e-01 1.079316873462784765e-01 1.068024448686710343e-01 1.108987421962066428e-01 1.109936152421733963e-01 1.108099107905892444e-01 1.100532038133384821e-01 1.101387983107832008e-01 1.092244054612296900e-01 1.090624801482179135e-01 1.096336204283047677e-01 1.093143717348089156e-01 1.093846047748668338e-01 1.103032376481021121e-01 1.093705660335280161e-01 1.098711888782078483e-01 1.090862985693892145e-01 1.099801488269061683e-01 1.087847728564290128e-01 1.092665902780953352e-01 1.090255206296179002e-01 1.085871917529315916e-01 1.087303096774879796e-01 1.089710194685077627e-01 1.093090852891167586e-01 1.091616910320803574e-01 1.085462119997869790e-01 1.094001987958449773e-01 1.092232513368944641e-01 1.094817625188561072e-01 1.093116495116966125e-01 1.090989790169146767e-01 1.087265925937430239e-01 1.092369291737878556e-01 1.097511230148065925e-01 1.100270495069244209e-01 1.087683054263299809e-01 1.100849880706163547e-01 1.097991858913268670e-01 1.100642143023933817e-01 1.088711727338738666e-01 1.096771368013374909e-01 1.093258179467556934e-01 1.103681225913442643e-01 1.098298861760592104e-01 1.090934622442728819e-01 1.061009291912634184e-01 1.091633690111384891e-01 1.084980678447671071e-01 1.095008472315702197e-01 1.095233652707702510e-01 1.088796170005902342e-01 1.089878405499291186e-01 1.094098464023666867e-01 1.092480912131343768e-01 1.097928112752595831e-01 1.095656571766483456e-01 1.094447054872330072e-01 1.089093216836627964e-01 1.103637830371163864e-01 1.089122323160223865e-01 1.086701291691537508e-01 1.087727481401858098e-01 1.092502198569285793e-01 1.086257278411438265e-01 1.093853987143246081e-01 1.099366650909602144e-01 1.092051515999832995e-01 1.100016918667687804e-01 1.103233253953974508e-01 1.101547366412614637e-01 1.093472537210874312e-01 1.088603950491460887e-01 1.085776351262168204e-01 1.085740525312319238e-01 1.092699501433733733e-01 1.084850543203599998e-01 1.089007071116409736e-01 1.089826910643007657e-01 1.084480484755546287e-01 1.089191138398224734e-01 1.086072858463248969e-01 1.095035965649198140e-01
1.096898324556598858e-01 1.100068923806977461e-01 1.096435673856371862e-01 1.094508532870863693e-01 1.088014982630812338e-01 1.097133048654450882e-01 1.092706262027501735e-01 1.095685987432041542e-01 1.088001466238055354e-01 1.096524529073316101e-01 1.094749273123550304e-01 1.100350707394525673e-01 1.092526456973463705e-01 1.094965567661774219e-01 1.092868272133585422e-01 1.086204889088136921e-01 1.090080544067321133e-01 1.106159290634802367e-01 1.089223086753626224e-01 1.082356067855676784e-01 1.085748007083336963e-01 1.095982716481082031e-01 1.099255614676420828e-01 1.097167431482174715e-01 1.097877655411593073e-01 1.099701124087661963e-01 1.080636234229613302e-01 1.090299402830871289e-01 1.088917321997429077e-01 1.086050737748037315e-01 1.086224825598012533e-01 1.083715555982869561e-01 1.088733867194828231e-01 1.085524541123047276e-01 1.086546054392090455e-01 1.082797781015838318e-01 1.077841226153767595e-01 1.072446499045568297e-01 1.068318399620749592e-01 1.125376444779710161e-01 1.093415245382714229e-01 1.091001371343670173e-01 1.090863036018439730e-01 1.091946479407884807e-01 1.097812939199591942e-01 1.096435701273253960e-01 1.091336562809074179e-01 1.092900961042619495e-01 1.101554030114703792e-01 1.097205062385701591e-01 1.093647352166050024e-01 1.095719827667318153e-01 1.086899111916765776e-01 1.097690247870347635e-01 1.098657189718131727e-01 1.092659876985854206e-01 1.098920905758056510e-01 1.092889590751048162e-01 1.086545782342691890e-01 1.087550705382233363e-01 1.084973171641038237e-01 1.083896617777606042e-01 1.092217130202472880e-01 1.095508187932151406e-01 1.095294590258359957e-01 1.098603341494868435e-01 1.095365635057915787e-01 1.084969978509150446e-01 1.090644519656339267e-01 1.096432165612526433e-01 1.099189759656459264e-01 1.087961916396965600e-01 1.096911003747675362e-01 1.093524477688705004e-01 1.094929252607098891e-01 1.099137527438673323e-01 1.101287674753688717e-01 1.089829986900657383e-01 1.099895072617676495e-01 1.110294760226018251e-01 1.116745766640915294e-01 1.081208206252239068e-01 1.017163837606211846e-01 1.093361307742486410e-01 1.090656050927532317e-01 1.097299927844379575e-01 1.091293438178081443e-01 1.097803389748087111e-01 1.094200333768687444e-01 1.094654858612758297e-01 1.098387473981060625e-01 1.098843487090863935e-01 1.096031507214244027e-01 1.095313809959336943e-01 1.096263062758613266e-01 1.093894200040937820e-01 1.095236681298327047e-01 1.088923449516344538e-01 1.084864623500801928e-01 1.083366695819589220e-01 1.083396518296187577e-01 1.093010470368161874e-01 1.088717857522720767e-01 1.094463530161254861e-01 1.097078435410621805e-01 1.091312436424841936e-01 1.094992374144134334e-01 1.095269349377482326e-01 1.094727004364855621e-01 1.090135127960687733e-01 1.096181707331998212e-01 1.096132173982910518e-01 1.091588960445655787e-01 1.097128878599856611e-01 1.083535903481311069e-01 1.090454267509776698e-01 1.091937625207676232e-01 1.093322575201350066e-01 1.099859043880344195e-01
