ncols 119
nrows 32
xllcorner 530
yllcorner 330
cellsize 10.0
3.838800000000000000e+04 3.868900000000000000e+04 3.869000000000000000e+04 3.869100000000000000e+04 3.869200000000000000e+04 3.869300000000000000e+04 9.798900000000000000e+04 3.839500000000000000e+04 9.739400000000000000e+04 3.839700000000000000e+04 3.839800000000000000e+04 3.869900000000000000e+04 3.870000000000000000e+04 9.740700000000000000e+04 9.740900000000000000e+04 3.810400000000000000e+04 9.801000000000000000e+04 9.801200000000000000e+04 3.840700000000000000e+04 9.741900000000000000e+04 3.810900000000000000e+04 9.742000000000000000e+04 3.841000000000000000e+04 3.841100000000000000e+04 3.811300000000000000e+04 9.742800000000000000e+04 9.743000000000000000e+04 9.743200000000000000e+04 3.811700000000000000e+04 3.811800000000000000e+04 3.811900000000000000e+04 9.744000000000000000e+04 9.744500000000000000e+04 3.812200000000000000e+04 9.744600000000000000e+04 3.842300000000000000e+04 3.842400000000000000e+04 3.842500000000000000e+04 3.842600000000000000e+04 3.842700000000000000e+04 9.746100000000000000e+04 9.746300000000000000e+04 3.813100000000000000e+04 9.746700000000000000e+04 3.813300000000000000e+04 9.746800000000000000e+04 3.843400000000000000e+04 3.843500000000000000e+04 3.873600000000000000e+04 3.873700000000000000e+04 9.807700000000000000e+04 9.807900000000000000e+04 3.874000000000000000e+04 9.808300000000000000e+04 9.808600000000000000e+04 3.844400000000000000e+04 3.844500000000000000e+04 9.749500000000000000e+04 3.844700000000000000e+04 3.814800000000000000e+04 3.844800000000000000e+04 3.815000000000000000e+04 9.750200000000000000e+04 9.810400000000000000e+04 9.810600000000000000e+04 3.845400000000000000e+04 3.845500000000000000e+04 3.845600000000000000e+04 3.845700000000000000e+04 9.751900000000000000e+04 3.815900000000000000e+04 9.752000000000000000e+04 3.846000000000000000e+04 9.752400000000000000e+04 3.846300000000000000e+04 9.753100000000000000e+04 3.816500000000000000e+04 9.753200000000000000e+04 3.846600000000000000e+04 3.846700000000000000e+04 3.846800000000000000e+04 3.846900000000000000e+04 3.847000000000000000e+04 3.847100000000000000e+04 3.847200000000000000e+04 9.755100000000000000e+04 3.817500000000000000e+04 9.755200000000000000e+04 9.755400000000000000e+04 3.847800000000000000e+04 9.815800000000000000e+04 3.877900000000000000e+04 3.878000000000000000e+04 9.816400000000000000e+04 3.878200000000000000e+04 9.816700000000000000e+04 9.817000000000000000e+04 3.878500000000000000e+04 9.817300000000000000e+04 9.817600000000000000e+04 9.817800000000000000e+04 9.818000000000000000e+04 3.879000000000000000e+04 3.879100000000000000e+04 3.879200000000000000e+04 3.849300000000000000e+04 3.879400000000000000e+04 3.849600000000000000e+04 9.759700000000000000e+04 3.819800000000000000e+04 3.849900000000000000e+04 3.820000000000000000e+04 3.850000000000000000e+04 9.820300000000000000e+04 3.850200000000000000e+04 9.820700000000000000e+04 3.850400000000000000e+04 3.880500000000000000e+04 9.821300000000000000e+04
9.737900000000000000e+04 3.779000000000000000e+04 9.678400000000000000e+04 3.809200000000000000e+04 9.738700000000000000e+04 9.739000000000000000e+04 3.809500000000000000e+04 9.739300000000000000e+04 3.779700000000000000e+04 3.749900000000000000e+04 9.680000000000000000e+04 9.680200000000000000e+04 9.680700000000000000e+04 9.680900000000000000e+04 9.681100000000000000e+04 3.750500000000000000e+04 9.681500000000000000e+04 9.681700000000000000e+04 3.750800000000000000e+04 3.780900000000000000e+04 9.682300000000000000e+04 3.751100000000000000e+04 3.751200000000000000e+04 9.682600000000000000e+04 3.781300000000000000e+04 3.781400000000000000e+04 3.781500000000000000e+04 3.781600000000000000e+04 3.751800000000000000e+04 3.751900000000000000e+04 9.684000000000000000e+04 3.782000000000000000e+04 3.782200000000000000e+04 3.752300000000000000e+04 3.782300000000000000e+04 3.752500000000000000e+04 9.685200000000000000e+04 9.685400000000000000e+04 9.745500000000000000e+04 3.752900000000000000e+04 3.783000000000000000e+04 3.783100000000000000e+04 9.686700000000000000e+04 3.753300000000000000e+04 9.686800000000000000e+04 3.783400000000000000e+04 3.813500000000000000e+04 9.747300000000000000e+04 3.753800000000000000e+04 9.687800000000000000e+04 9.688000000000000000e+04 3.784000000000000000e+04 9.688700000000000000e+04 9.688900000000000000e+04 3.754400000000000000e+04 9.749000000000000000e+04 9.749200000000000000e+04 3.784700000000000000e+04 3.784800000000000000e+04 9.690100000000000000e+04 3.755000000000000000e+04 9.690200000000000000e+04 3.785100000000000000e+04 3.785300000000000000e+04 3.785400000000000000e+04 9.751000000000000000e+04 3.815500000000000000e+04 3.815600000000000000e+04 3.815700000000000000e+04 3.785900000000000000e+04 9.692300000000000000e+04 3.756100000000000000e+04 9.692400000000000000e+04 3.756300000000000000e+04 9.692800000000000000e+04 3.786500000000000000e+04 3.756600000000000000e+04 3.786600000000000000e+04 3.816700000000000000e+04 3.816800000000000000e+04 3.816900000000000000e+04 3.817000000000000000e+04 3.817100000000000000e+04 9.754500000000000000e+04 9.695100000000000000e+04 9.695300000000000000e+04 3.757600000000000000e+04 3.757700000000000000e+04 9.695600000000000000e+04 9.755800000000000000e+04 3.817900000000000000e+04 3.818000000000000000e+04 9.756300000000000000e+04 9.696900000000000000e+04 3.758400000000000000e+04 3.758500000000000000e+04 9.757200000000000000e+04 3.818600000000000000e+04 9.757500000000000000e+04 3.758900000000000000e+04 9.758000000000000000e+04 3.789100000000000000e+04 3.789200000000000000e+04 9.758600000000000000e+04 3.819300000000000000e+04 9.758900000000000000e+04 9.699500000000000000e+04 3.759700000000000000e+04 3.789800000000000000e+04 9.700100000000000000e+04 3.760000000000000000e+04 9.700200000000000000e+04 3.790100000000000000e+04 3.820200000000000000e+04 9.760700000000000000e+04 3.790400000000000000e+04 9.761100000000000000e+04 3.760700000000000000e+04 9.701600000000000000e+04
3.749000000000000000e+04 9.678300000000000000e+04 3.719200000000000000e+04 9.618800000000000000e+04 3.749400000000000000e+04 9.679100000000000000e+04 3.719700000000000000e+04 3.749700000000000000e+04 9.679700000000000000e+04 3.719900000000000000e+04 3.720000000000000000e+04 3.720100000000000000e+04 3.720300000000000000e+04 3.720400000000000000e+04 3.720500000000000000e+04 9.621500000000000000e+04 3.690700000000000000e+04 3.720800000000000000e+04 3.720900000000000000e+04 9.682000000000000000e+04 3.721100000000000000e+04 3.691200000000000000e+04 3.721200000000000000e+04 3.721300000000000000e+04 3.751400000000000000e+04 3.751500000000000000e+04 9.683300000000000000e+04 9.623900000000000000e+04 3.691900000000000000e+04 9.624000000000000000e+04 3.722000000000000000e+04 9.624700000000000000e+04 3.692300000000000000e+04 9.624800000000000000e+04 3.722400000000000000e+04 3.722500000000000000e+04 3.722600000000000000e+04 3.722700000000000000e+04 3.722800000000000000e+04 9.626300000000000000e+04 3.693100000000000000e+04 3.693200000000000000e+04 3.693300000000000000e+04 9.626800000000000000e+04 3.723400000000000000e+04 9.687100000000000000e+04 9.627700000000000000e+04 3.693800000000000000e+04 9.627800000000000000e+04 3.723900000000000000e+04 3.724000000000000000e+04 3.724100000000000000e+04 3.724300000000000000e+04 3.724400000000000000e+04 9.629300000000000000e+04 3.694600000000000000e+04 3.694700000000000000e+04 9.689600000000000000e+04 3.754800000000000000e+04 3.725000000000000000e+04 9.630500000000000000e+04 3.695200000000000000e+04 9.630600000000000000e+04 9.630800000000000000e+04 9.691000000000000000e+04 3.755500000000000000e+04 9.691400000000000000e+04 3.755700000000000000e+04 3.755800000000000000e+04 9.692000000000000000e+04 3.726100000000000000e+04 9.632700000000000000e+04 3.696300000000000000e+04 9.632800000000000000e+04 3.726400000000000000e+04 3.726600000000000000e+04 3.696700000000000000e+04 3.726700000000000000e+04 3.696900000000000000e+04 3.697000000000000000e+04 3.697100000000000000e+04 3.697200000000000000e+04 9.634600000000000000e+04 9.634800000000000000e+04 9.635300000000000000e+04 9.635500000000000000e+04 3.697700000000000000e+04 9.635600000000000000e+04 3.727800000000000000e+04 3.698000000000000000e+04 9.636200000000000000e+04 3.758100000000000000e+04 9.636900000000000000e+04 3.728400000000000000e+04 9.637300000000000000e+04 3.698600000000000000e+04 9.637400000000000000e+04 3.698800000000000000e+04 9.638100000000000000e+04 3.699000000000000000e+04 9.638200000000000000e+04 9.698400000000000000e+04 9.698600000000000000e+04 3.759300000000000000e+04 3.759400000000000000e+04 9.639500000000000000e+04 3.699700000000000000e+04 9.639900000000000000e+04 3.699900000000000000e+04 3.730000000000000000e+04 9.640500000000000000e+04 3.700200000000000000e+04 9.640600000000000000e+04 3.730300000000000000e+04 3.760400000000000000e+04 9.701100000000000000e+04 9.641700000000000000e+04 3.700800000000000000e+04 9.641800000000000000e+04
9.618400000000000000e+04 3.689200000000000000e+04 9.618700000000000000e+04 3.659400000000000000e+04 9.559200000000000000e+04 9.559700000000000000e+04 3.659800000000000000e+04 3.689800000000000000e+04 3.659900000000000000e+04 3.690000000000000000e+04 9.620300000000000000e+04 9.560900000000000000e+04 9.561100000000000000e+04 3.630500000000000000e+04 3.630600000000000000e+04 3.660700000000000000e+04 3.660800000000000000e+04 9.621800000000000000e+04 3.690900000000000000e+04 3.691000000000000000e+04 3.661200000000000000e+04 9.562900000000000000e+04 3.631400000000000000e+04 9.563000000000000000e+04 3.661500000000000000e+04 3.661600000000000000e+04 3.661700000000000000e+04 3.661900000000000000e+04 3.632000000000000000e+04 3.662000000000000000e+04 9.564700000000000000e+04 3.662300000000000000e+04 3.632400000000000000e+04 3.662400000000000000e+04 3.692500000000000000e+04 3.692600000000000000e+04 3.632800000000000000e+04 3.632900000000000000e+04 9.566000000000000000e+04 3.663100000000000000e+04 3.663200000000000000e+04 3.663300000000000000e+04 9.567100000000000000e+04 3.633500000000000000e+04 9.567200000000000000e+04 9.567700000000000000e+04 3.633800000000000000e+04 9.567800000000000000e+04 3.663900000000000000e+04 9.628100000000000000e+04 9.628300000000000000e+04 3.664200000000000000e+04 9.569100000000000000e+04 3.634500000000000000e+04 3.664600000000000000e+04 9.569700000000000000e+04 3.634800000000000000e+04 9.569800000000000000e+04 3.665000000000000000e+04 9.630200000000000000e+04 3.665200000000000000e+04 9.570900000000000000e+04 3.635400000000000000e+04 9.571000000000000000e+04 9.571200000000000000e+04 3.695600000000000000e+04 9.571900000000000000e+04 9.572100000000000000e+04 3.636000000000000000e+04 3.636100000000000000e+04 3.636200000000000000e+04 3.666300000000000000e+04 3.636400000000000000e+04 3.666400000000000000e+04 9.573500000000000000e+04 3.636700000000000000e+04 9.573600000000000000e+04 3.666800000000000000e+04 3.666900000000000000e+04 3.667000000000000000e+04 3.667100000000000000e+04 3.667200000000000000e+04 3.667300000000000000e+04 3.667400000000000000e+04 3.667600000000000000e+04 9.575700000000000000e+04 3.637800000000000000e+04 3.667800000000000000e+04 3.638000000000000000e+04 9.576200000000000000e+04 3.668100000000000000e+04 9.576600000000000000e+04 3.668400000000000000e+04 3.668500000000000000e+04 3.668600000000000000e+04 9.577700000000000000e+04 3.638800000000000000e+04 3.638900000000000000e+04 9.578000000000000000e+04 3.639100000000000000e+04 3.669100000000000000e+04 9.578600000000000000e+04 9.638800000000000000e+04 3.669500000000000000e+04 3.669600000000000000e+04 3.669700000000000000e+04 3.669800000000000000e+04 3.669900000000000000e+04 3.670000000000000000e+04 9.640200000000000000e+04 3.670200000000000000e+04 3.640300000000000000e+04 3.670300000000000000e+04 3.640500000000000000e+04 9.581200000000000000e+04 9.581700000000000000e+04 3.640800000000000000e+04 9.581800000000000000e+04 3.670900000000000000e+04
9.558500000000000000e+04 9.558800000000000000e+04 3.629400000000000000e+04 9.559100000000000000e+04 3.599600000000000000e+04 3.599800000000000000e+04 9.559800000000000000e+04 3.629900000000000000e+04 9.560100000000000000e+04 3.600100000000000000e+04 3.600300000000000000e+04 3.600400000000000000e+04 3.600500000000000000e+04 3.600600000000000000e+04 3.600700000000000000e+04 9.561600000000000000e+04 3.630800000000000000e+04 3.630900000000000000e+04 9.562100000000000000e+04 9.502700000000000000e+04 9.562600000000000000e+04 3.601400000000000000e+04 3.571500000000000000e+04 3.601500000000000000e+04 3.601600000000000000e+04 3.571800000000000000e+04 9.503800000000000000e+04 3.602000000000000000e+04 3.572100000000000000e+04 3.602100000000000000e+04 9.504900000000000000e+04 3.572400000000000000e+04 9.505000000000000000e+04 3.602500000000000000e+04 3.602600000000000000e+04 9.505900000000000000e+04 3.572900000000000000e+04 9.506000000000000000e+04 3.603000000000000000e+04 9.506400000000000000e+04 3.633200000000000000e+04 3.633300000000000000e+04 3.603500000000000000e+04 3.573600000000000000e+04 3.603600000000000000e+04 3.573800000000000000e+04 9.507800000000000000e+04 3.603900000000000000e+04 9.568100000000000000e+04 3.604100000000000000e+04 9.568500000000000000e+04 3.574400000000000000e+04 3.604500000000000000e+04 9.509500000000000000e+04 3.574700000000000000e+04 3.604800000000000000e+04 3.574900000000000000e+04 3.604900000000000000e+04 3.575100000000000000e+04 3.605200000000000000e+04 9.570600000000000000e+04 3.605400000000000000e+04 3.575500000000000000e+04 3.605500000000000000e+04 3.605600000000000000e+04 3.605800000000000000e+04 3.605900000000000000e+04 3.606000000000000000e+04 3.606100000000000000e+04 3.606200000000000000e+04 3.606300000000000000e+04 3.606400000000000000e+04 9.513300000000000000e+04 3.576600000000000000e+04 3.576700000000000000e+04 9.513600000000000000e+04 3.606800000000000000e+04 3.636900000000000000e+04 3.637000000000000000e+04 3.637100000000000000e+04 3.637200000000000000e+04 3.637300000000000000e+04 9.574900000000000000e+04 3.607600000000000000e+04 3.607700000000000000e+04 3.607800000000000000e+04 3.577900000000000000e+04 3.578000000000000000e+04 9.516200000000000000e+04 3.608100000000000000e+04 3.608200000000000000e+04 3.608300000000000000e+04 9.577000000000000000e+04 9.577200000000000000e+04 3.638600000000000000e+04 3.608800000000000000e+04 3.608900000000000000e+04 9.518300000000000000e+04 3.579100000000000000e+04 9.518400000000000000e+04 3.609200000000000000e+04 3.609300000000000000e+04 3.579500000000000000e+04 9.579200000000000000e+04 9.579400000000000000e+04 9.579600000000000000e+04 3.639800000000000000e+04 3.639900000000000000e+04 3.640000000000000000e+04 3.640100000000000000e+04 3.610300000000000000e+04 9.521100000000000000e+04 3.580500000000000000e+04 9.521200000000000000e+04 3.610600000000000000e+04 3.610800000000000000e+04 9.522100000000000000e+04 3.581000000000000000e+04 9.522200000000000000e+04
3.509400000000000000e+04 9.439000000000000000e+04 9.499200000000000000e+04 3.569600000000000000e+04 9.499500000000000000e+04 3.539800000000000000e+04 3.569900000000000000e+04 9.500200000000000000e+04 3.570100000000000000e+04 9.500500000000000000e+04 3.540300000000000000e+04 3.540500000000000000e+04 3.540600000000000000e+04 9.501400000000000000e+04 3.570700000000000000e+04 3.570800000000000000e+04 3.540900000000000000e+04 3.571000000000000000e+04 3.541200000000000000e+04 3.541300000000000000e+04 9.443100000000000000e+04 3.541500000000000000e+04 3.511600000000000000e+04 3.541600000000000000e+04 3.511800000000000000e+04 9.443800000000000000e+04 3.541900000000000000e+04 3.542100000000000000e+04 3.512200000000000000e+04 3.542200000000000000e+04 3.542400000000000000e+04 3.512500000000000000e+04 3.542500000000000000e+04 9.505300000000000000e+04 9.505500000000000000e+04 3.542900000000000000e+04 3.513000000000000000e+04 3.543000000000000000e+04 9.446400000000000000e+04 9.446600000000000000e+04 9.446800000000000000e+04 3.543500000000000000e+04 3.543600000000000000e+04 9.447700000000000000e+04 3.513800000000000000e+04 9.447800000000000000e+04 3.543900000000000000e+04 9.508100000000000000e+04 3.544100000000000000e+04 9.508500000000000000e+04 9.449100000000000000e+04 3.514500000000000000e+04 3.544600000000000000e+04 3.544700000000000000e+04 9.449900000000000000e+04 3.544900000000000000e+04 3.515000000000000000e+04 3.545000000000000000e+04 3.515200000000000000e+04 9.450600000000000000e+04 3.545400000000000000e+04 3.545500000000000000e+04 3.515600000000000000e+04 3.545600000000000000e+04 3.515800000000000000e+04 9.451800000000000000e+04 9.512000000000000000e+04 9.512200000000000000e+04 9.512400000000000000e+04 9.512600000000000000e+04 3.576300000000000000e+04 3.576400000000000000e+04 3.546600000000000000e+04 9.453700000000000000e+04 3.516800000000000000e+04 3.546800000000000000e+04 9.513900000000000000e+04 3.517100000000000000e+04 3.517200000000000000e+04 3.517300000000000000e+04 3.517400000000000000e+04 3.517500000000000000e+04 9.455200000000000000e+04 9.455700000000000000e+04 9.455900000000000000e+04 3.547900000000000000e+04 3.518000000000000000e+04 9.456200000000000000e+04 3.548100000000000000e+04 3.548200000000000000e+04 3.518400000000000000e+04 9.457000000000000000e+04 9.457200000000000000e+04 3.548700000000000000e+04 3.548800000000000000e+04 9.517800000000000000e+04 3.578900000000000000e+04 3.549100000000000000e+04 9.458700000000000000e+04 3.519300000000000000e+04 9.458800000000000000e+04 9.459000000000000000e+04 9.459500000000000000e+04 3.519700000000000000e+04 9.459600000000000000e+04 9.460100000000000000e+04 3.520000000000000000e+04 3.520100000000000000e+04 3.580100000000000000e+04 3.550300000000000000e+04 9.520800000000000000e+04 3.550500000000000000e+04 9.461500000000000000e+04 3.520700000000000000e+04 9.461600000000000000e+04 9.461800000000000000e+04 3.551000000000000000e+04 3.521100000000000000e+04 3.521200000000000000e+04
3.479400000000000000e+04 3.479500000000000000e+04 3.479600000000000000e+04 9.439600000000000000e+04 3.509800000000000000e+04 9.439900000000000000e+04 3.510000000000000000e+04 9.440300000000000000e+04 3.510200000000000000e+04 3.510300000000000000e+04 9.440900000000000000e+04 3.480600000000000000e+04 9.441400000000000000e+04 3.510700000000000000e+04 9.441800000000000000e+04 3.510900000000000000e+04 9.442100000000000000e+04 9.382700000000000000e+04 3.451300000000000000e+04 3.451400000000000000e+04 3.481500000000000000e+04 3.481600000000000000e+04 9.383700000000000000e+04 3.451800000000000000e+04 9.383800000000000000e+04 3.481900000000000000e+04 3.482000000000000000e+04 3.482200000000000000e+04 3.452300000000000000e+04 3.482300000000000000e+04 3.452500000000000000e+04 9.385200000000000000e+04 3.482600000000000000e+04 3.482700000000000000e+04 9.386100000000000000e+04 3.453000000000000000e+04 9.386200000000000000e+04 3.483100000000000000e+04 3.483200000000000000e+04 3.483300000000000000e+04 3.483400000000000000e+04 9.447200000000000000e+04 9.447400000000000000e+04 3.483800000000000000e+04 3.453900000000000000e+04 3.483900000000000000e+04 9.448100000000000000e+04 3.514100000000000000e+04 9.448500000000000000e+04 9.388800000000000000e+04 9.389300000000000000e+04 3.454600000000000000e+04 9.389400000000000000e+04 3.484800000000000000e+04 3.484900000000000000e+04 3.485000000000000000e+04 9.390500000000000000e+04 3.455200000000000000e+04 3.455300000000000000e+04 9.390800000000000000e+04 3.485500000000000000e+04 3.485600000000000000e+04 3.455700000000000000e+04 3.485700000000000000e+04 3.455900000000000000e+04 9.392000000000000000e+04 9.392200000000000000e+04 9.452400000000000000e+04 9.452600000000000000e+04 3.516300000000000000e+04 3.516400000000000000e+04 9.453200000000000000e+04 9.453400000000000000e+04 3.486800000000000000e+04 3.456900000000000000e+04 3.486900000000000000e+04 3.457100000000000000e+04 9.394400000000000000e+04 3.487200000000000000e+04 3.487300000000000000e+04 3.487400000000000000e+04 3.487500000000000000e+04 3.487600000000000000e+04 3.487800000000000000e+04 3.487900000000000000e+04 3.488000000000000000e+04 3.458100000000000000e+04 3.488100000000000000e+04 3.458300000000000000e+04 3.458400000000000000e+04 9.397000000000000000e+04 9.397200000000000000e+04 9.397400000000000000e+04 9.397600000000000000e+04 9.457800000000000000e+04 3.518900000000000000e+04 3.489100000000000000e+04 9.458400000000000000e+04 3.489300000000000000e+04 9.399100000000000000e+04 3.459500000000000000e+04 9.399200000000000000e+04 3.459700000000000000e+04 9.399600000000000000e+04 3.489800000000000000e+04 3.490000000000000000e+04 9.400500000000000000e+04 3.460200000000000000e+04 9.400600000000000000e+04 9.460800000000000000e+04 3.520400000000000000e+04 9.401500000000000000e+04 3.460700000000000000e+04 9.401600000000000000e+04 3.490800000000000000e+04 3.461000000000000000e+04 3.491100000000000000e+04 3.461200000000000000e+04 9.402600000000000000e+04
3.449500000000000000e+04 9.379300000000000000e+04 9.379500000000000000e+04 3.419800000000000000e+04 3.449900000000000000e+04 3.450000000000000000e+04 9.380300000000000000e+04 9.320900000000000000e+04 3.390400000000000000e+04 3.390500000000000000e+04 9.321500000000000000e+04 3.390700000000000000e+04 9.321900000000000000e+04 3.390900000000000000e+04 9.322000000000000000e+04 3.451000000000000000e+04 3.421200000000000000e+04 3.421300000000000000e+04 3.421400000000000000e+04 3.421500000000000000e+04 9.383200000000000000e+04 3.451600000000000000e+04 3.421800000000000000e+04 3.391900000000000000e+04 3.421900000000000000e+04 3.392100000000000000e+04 9.324400000000000000e+04 3.422300000000000000e+04 9.325100000000000000e+04 3.392500000000000000e+04 9.325200000000000000e+04 3.422600000000000000e+04 3.392800000000000000e+04 9.326100000000000000e+04 3.393000000000000000e+04 9.326200000000000000e+04 3.423100000000000000e+04 3.393300000000000000e+04 3.393400000000000000e+04 9.327000000000000000e+04 9.327200000000000000e+04 9.327700000000000000e+04 3.393800000000000000e+04 3.423900000000000000e+04 3.394000000000000000e+04 3.424000000000000000e+04 3.424100000000000000e+04 3.424200000000000000e+04 3.394400000000000000e+04 9.329000000000000000e+04 3.424600000000000000e+04 3.394700000000000000e+04 3.424700000000000000e+04 9.389800000000000000e+04 9.390000000000000000e+04 3.455000000000000000e+04 3.425200000000000000e+04 3.425300000000000000e+04 9.331100000000000000e+04 3.395500000000000000e+04 9.331200000000000000e+04 3.425700000000000000e+04 9.331900000000000000e+04 3.395900000000000000e+04 9.332000000000000000e+04 3.426000000000000000e+04 3.426100000000000000e+04 3.426200000000000000e+04 3.426400000000000000e+04 9.333300000000000000e+04 3.396600000000000000e+04 9.333400000000000000e+04 9.333900000000000000e+04 3.426900000000000000e+04 3.397000000000000000e+04 3.427000000000000000e+04 9.334400000000000000e+04 3.427200000000000000e+04 3.457300000000000000e+04 3.457400000000000000e+04 9.395100000000000000e+04 3.457600000000000000e+04 9.395500000000000000e+04 9.336100000000000000e+04 3.428000000000000000e+04 3.428100000000000000e+04 3.398200000000000000e+04 9.336600000000000000e+04 3.428300000000000000e+04 3.428400000000000000e+04 3.428500000000000000e+04 3.428600000000000000e+04 3.428700000000000000e+04 3.428800000000000000e+04 9.338300000000000000e+04 3.399100000000000000e+04 3.399200000000000000e+04 3.399300000000000000e+04 3.429400000000000000e+04 3.429500000000000000e+04 9.339500000000000000e+04 3.399700000000000000e+04 9.339600000000000000e+04 3.429800000000000000e+04 3.400000000000000000e+04 3.400100000000000000e+04 3.430200000000000000e+04 3.400300000000000000e+04 3.430300000000000000e+04 3.430500000000000000e+04 3.430600000000000000e+04 3.430700000000000000e+04 9.341900000000000000e+04 3.400900000000000000e+04 9.342300000000000000e+04 3.401100000000000000e+04 3.401200000000000000e+04 9.342600000000000000e+04 3.431300000000000000e+04
9.259400000000000000e+04 3.359700000000000000e+04 3.329900000000000000e+04 9.260000000000000000e+04 3.330100000000000000e+04 9.260400000000000000e+04 9.260600000000000000e+04 3.360400000000000000e+04 9.261300000000000000e+04 3.330600000000000000e+04 9.261700000000000000e+04 3.330800000000000000e+04 9.262100000000000000e+04 3.331000000000000000e+04 9.262200000000000000e+04 3.331200000000000000e+04 9.322600000000000000e+04 9.322800000000000000e+04 3.391400000000000000e+04 9.323200000000000000e+04 3.391600000000000000e+04 3.361800000000000000e+04 3.361900000000000000e+04 9.264300000000000000e+04 3.332100000000000000e+04 9.264400000000000000e+04 3.362200000000000000e+04 3.332400000000000000e+04 3.362500000000000000e+04 9.265500000000000000e+04 3.332700000000000000e+04 3.332800000000000000e+04 3.332900000000000000e+04 3.333000000000000000e+04 9.266200000000000000e+04 3.363100000000000000e+04 3.333300000000000000e+04 9.266800000000000000e+04 3.363400000000000000e+04 3.363500000000000000e+04 3.363600000000000000e+04 3.363800000000000000e+04 9.268100000000000000e+04 3.334000000000000000e+04 9.268200000000000000e+04 3.364100000000000000e+04 9.328500000000000000e+04 9.269100000000000000e+04 3.334500000000000000e+04 9.269200000000000000e+04 3.364700000000000000e+04 3.334800000000000000e+04 3.364800000000000000e+04 3.335000000000000000e+04 3.335100000000000000e+04 9.330400000000000000e+04 9.330600000000000000e+04 3.395300000000000000e+04 3.365500000000000000e+04 9.271500000000000000e+04 3.335700000000000000e+04 9.271600000000000000e+04 3.365900000000000000e+04 3.336000000000000000e+04 3.366000000000000000e+04 3.336200000000000000e+04 9.272600000000000000e+04 3.366400000000000000e+04 9.273300000000000000e+04 3.366600000000000000e+04 3.336700000000000000e+04 3.366700000000000000e+04 3.366900000000000000e+04 3.367000000000000000e+04 3.337100000000000000e+04 3.367100000000000000e+04 3.367200000000000000e+04 9.334700000000000000e+04 3.397400000000000000e+04 9.335100000000000000e+04 3.397600000000000000e+04 9.275900000000000000e+04 9.276100000000000000e+04 9.276300000000000000e+04 9.276500000000000000e+04 3.368200000000000000e+04 3.338300000000000000e+04 3.368300000000000000e+04 3.398400000000000000e+04 3.398500000000000000e+04 3.398600000000000000e+04 3.398700000000000000e+04 9.337700000000000000e+04 9.337900000000000000e+04 3.369100000000000000e+04 3.369200000000000000e+04 3.369300000000000000e+04 3.369400000000000000e+04 9.339000000000000000e+04 3.399500000000000000e+04 3.369700000000000000e+04 9.279900000000000000e+04 3.339900000000000000e+04 3.340000000000000000e+04 3.340100000000000000e+04 9.280700000000000000e+04 3.370300000000000000e+04 9.281100000000000000e+04 3.340500000000000000e+04 9.281200000000000000e+04 9.341400000000000000e+04 9.341600000000000000e+04 3.370900000000000000e+04 9.282300000000000000e+04 3.371100000000000000e+04 9.282700000000000000e+04 3.341300000000000000e+04 3.371300000000000000e+04 3.341500000000000000e+04
3.299700000000000000e+04 3.269900000000000000e+04 3.270000000000000000e+04 3.270100000000000000e+04 9.200400000000000000e+04 3.300200000000000000e+04 3.300300000000000000e+04 9.201300000000000000e+04 3.300600000000000000e+04 9.201700000000000000e+04 3.270800000000000000e+04 3.270900000000000000e+04 3.271000000000000000e+04 3.271100000000000000e+04 3.271200000000000000e+04 9.202600000000000000e+04 3.271400000000000000e+04 3.271500000000000000e+04 9.263200000000000000e+04 3.331600000000000000e+04 3.301800000000000000e+04 3.301900000000000000e+04 9.264000000000000000e+04 3.302100000000000000e+04 9.204700000000000000e+04 3.272300000000000000e+04 9.204800000000000000e+04 9.205300000000000000e+04 3.272600000000000000e+04 3.272700000000000000e+04 9.205600000000000000e+04 3.302800000000000000e+04 3.302900000000000000e+04 3.303000000000000000e+04 3.303100000000000000e+04 3.303200000000000000e+04 3.303300000000000000e+04 3.303400000000000000e+04 3.303500000000000000e+04 3.303600000000000000e+04 9.267500000000000000e+04 9.208100000000000000e+04 3.304000000000000000e+04 3.274100000000000000e+04 3.304100000000000000e+04 9.268500000000000000e+04 9.209100000000000000e+04 3.274500000000000000e+04 9.209200000000000000e+04 3.304600000000000000e+04 3.304800000000000000e+04 9.210100000000000000e+04 3.275000000000000000e+04 9.210200000000000000e+04 3.275200000000000000e+04 9.210600000000000000e+04 9.211100000000000000e+04 9.211300000000000000e+04 3.275600000000000000e+04 3.305700000000000000e+04 3.275800000000000000e+04 3.305800000000000000e+04 3.306000000000000000e+04 9.212500000000000000e+04 3.276200000000000000e+04 9.212600000000000000e+04 3.306300000000000000e+04 9.213300000000000000e+04 3.306600000000000000e+04 3.306700000000000000e+04 9.213900000000000000e+04 3.276900000000000000e+04 9.274000000000000000e+04 3.307100000000000000e+04 3.277200000000000000e+04 3.307200000000000000e+04 9.274700000000000000e+04 3.307400000000000000e+04 3.307500000000000000e+04 3.277700000000000000e+04 9.215600000000000000e+04 3.307900000000000000e+04 3.308000000000000000e+04 3.308100000000000000e+04 3.308200000000000000e+04 3.308300000000000000e+04 3.278400000000000000e+04 3.308400000000000000e+04 3.278600000000000000e+04 9.217400000000000000e+04 3.278800000000000000e+04 9.217800000000000000e+04 3.279000000000000000e+04 9.218200000000000000e+04 9.278400000000000000e+04 3.339200000000000000e+04 3.339300000000000000e+04 3.339400000000000000e+04 3.339500000000000000e+04 3.309700000000000000e+04 9.279600000000000000e+04 3.309900000000000000e+04 3.310000000000000000e+04 3.310100000000000000e+04 9.220700000000000000e+04 3.310300000000000000e+04 9.280800000000000000e+04 3.310500000000000000e+04 9.221500000000000000e+04 3.280700000000000000e+04 9.221600000000000000e+04 3.310900000000000000e+04 9.282000000000000000e+04 3.311100000000000000e+04 9.282400000000000000e+04 3.311300000000000000e+04 9.223100000000000000e+04 3.281500000000000000e+04 9.223200000000000000e+04
9.199700000000000000e+04 3.239900000000000000e+04 3.240000000000000000e+04 3.240100000000000000e+04 3.240200000000000000e+04 3.240300000000000000e+04 3.240400000000000000e+04 3.240600000000000000e+04 3.240700000000000000e+04 3.240800000000000000e+04 3.240900000000000000e+04 3.241000000000000000e+04 3.241100000000000000e+04 9.142700000000000000e+04 3.211300000000000000e+04 9.142800000000000000e+04 9.143300000000000000e+04 3.211600000000000000e+04 9.143400000000000000e+04 3.271700000000000000e+04 9.203800000000000000e+04 9.204000000000000000e+04 3.272000000000000000e+04 9.204400000000000000e+04 3.242300000000000000e+04 9.145100000000000000e+04 3.212500000000000000e+04 3.212600000000000000e+04 9.145400000000000000e+04 3.242700000000000000e+04 3.242800000000000000e+04 3.272900000000000000e+04 3.273000000000000000e+04 3.273100000000000000e+04 3.273200000000000000e+04 3.273300000000000000e+04 3.273400000000000000e+04 9.207100000000000000e+04 3.243600000000000000e+04 3.243700000000000000e+04 3.243900000000000000e+04 3.244000000000000000e+04 3.244100000000000000e+04 9.148700000000000000e+04 3.214300000000000000e+04 9.148800000000000000e+04 3.214500000000000000e+04 9.149200000000000000e+04 3.244600000000000000e+04 9.209500000000000000e+04 9.209800000000000000e+04 3.245000000000000000e+04 9.150500000000000000e+04 3.215200000000000000e+04 9.150600000000000000e+04 3.245300000000000000e+04 3.245500000000000000e+04 3.245600000000000000e+04 3.245700000000000000e+04 9.151900000000000000e+04 3.215900000000000000e+04 3.245900000000000000e+04 9.152500000000000000e+04 3.216200000000000000e+04 9.152600000000000000e+04 3.246300000000000000e+04 3.246400000000000000e+04 9.153500000000000000e+04 3.216700000000000000e+04 3.216800000000000000e+04 3.246900000000000000e+04 9.154300000000000000e+04 3.217100000000000000e+04 3.247200000000000000e+04 3.217300000000000000e+04 3.247300000000000000e+04 3.217500000000000000e+04 3.217600000000000000e+04 3.217700000000000000e+04 9.155600000000000000e+04 3.247800000000000000e+04 9.156300000000000000e+04 9.156500000000000000e+04 3.218200000000000000e+04 3.218300000000000000e+04 3.248400000000000000e+04 3.218500000000000000e+04 3.248500000000000000e+04 3.218700000000000000e+04 3.218800000000000000e+04 9.157800000000000000e+04 3.219000000000000000e+04 9.158200000000000000e+04 3.219200000000000000e+04 9.158600000000000000e+04 9.158800000000000000e+04 3.219500000000000000e+04 9.219200000000000000e+04 3.279600000000000000e+04 9.219600000000000000e+04 3.279800000000000000e+04 9.220000000000000000e+04 3.280000000000000000e+04 3.280100000000000000e+04 3.250300000000000000e+04 9.220800000000000000e+04 3.280400000000000000e+04 9.221200000000000000e+04 3.250700000000000000e+04 9.161900000000000000e+04 3.220900000000000000e+04 3.221000000000000000e+04 9.162200000000000000e+04 9.222400000000000000e+04 3.281200000000000000e+04 9.222800000000000000e+04 3.251500000000000000e+04 3.221600000000000000e+04 3.251600000000000000e+04
3.209900000000000000e+04 3.210000000000000000e+04 3.210100000000000000e+04 3.210200000000000000e+04 3.210300000000000000e+04 9.140900000000000000e+04 3.180500000000000000e+04 3.180700000000000000e+04 9.141600000000000000e+04 3.210800000000000000e+04 9.142000000000000000e+04 3.211000000000000000e+04 3.211100000000000000e+04 3.181300000000000000e+04 9.083100000000000000e+04 3.151500000000000000e+04 9.083200000000000000e+04 3.151700000000000000e+04 3.181700000000000000e+04 9.084100000000000000e+04 3.152000000000000000e+04 9.144200000000000000e+04 3.212100000000000000e+04 9.144600000000000000e+04 9.144800000000000000e+04 3.182500000000000000e+04 3.152600000000000000e+04 3.182600000000000000e+04 3.182700000000000000e+04 3.212800000000000000e+04 9.145900000000000000e+04 3.183000000000000000e+04 3.183100000000000000e+04 3.213200000000000000e+04 9.146700000000000000e+04 3.213400000000000000e+04 9.147100000000000000e+04 3.213600000000000000e+04 9.147500000000000000e+04 9.147700000000000000e+04 9.148000000000000000e+04 9.148200000000000000e+04 3.214100000000000000e+04 3.184300000000000000e+04 9.089100000000000000e+04 3.154500000000000000e+04 9.089200000000000000e+04 3.184600000000000000e+04 9.149500000000000000e+04 9.090100000000000000e+04 3.155000000000000000e+04 9.090500000000000000e+04 3.155200000000000000e+04 9.090600000000000000e+04 3.185300000000000000e+04 3.185400000000000000e+04 3.185600000000000000e+04 9.151400000000000000e+04 3.215700000000000000e+04 3.185900000000000000e+04 9.092300000000000000e+04 3.156100000000000000e+04 3.186200000000000000e+04 9.092900000000000000e+04 3.156400000000000000e+04 9.093000000000000000e+04 3.186600000000000000e+04 3.186700000000000000e+04 9.093900000000000000e+04 3.156900000000000000e+04 3.157000000000000000e+04 3.187100000000000000e+04 3.187200000000000000e+04 3.187300000000000000e+04 3.157400000000000000e+04 3.187400000000000000e+04 9.095200000000000000e+04 3.187600000000000000e+04 3.187700000000000000e+04 3.187800000000000000e+04 3.187900000000000000e+04 3.188100000000000000e+04 3.188200000000000000e+04 3.188300000000000000e+04 3.188400000000000000e+04 3.188500000000000000e+04 9.097500000000000000e+04 3.158700000000000000e+04 9.097600000000000000e+04 3.188800000000000000e+04 3.188900000000000000e+04 3.189000000000000000e+04 3.189100000000000000e+04 3.159300000000000000e+04 9.098800000000000000e+04 9.099300000000000000e+04 3.159600000000000000e+04 9.099700000000000000e+04 3.159800000000000000e+04 9.100100000000000000e+04 3.160000000000000000e+04 9.100200000000000000e+04 9.160400000000000000e+04 3.220200000000000000e+04 3.190400000000000000e+04 3.220400000000000000e+04 3.190500000000000000e+04 3.190700000000000000e+04 9.161600000000000000e+04 3.190900000000000000e+04 3.191000000000000000e+04 9.102500000000000000e+04 3.161200000000000000e+04 9.102600000000000000e+04 3.161400000000000000e+04 3.161500000000000000e+04 3.191600000000000000e+04 3.161700000000000000e+04 3.191700000000000000e+04
3.150000000000000000e+04 9.080300000000000000e+04 3.150200000000000000e+04 3.150300000000000000e+04 9.080900000000000000e+04 3.150500000000000000e+04 9.081300000000000000e+04 9.081600000000000000e+04 3.150800000000000000e+04 9.082000000000000000e+04 3.151000000000000000e+04 3.121200000000000000e+04 3.121300000000000000e+04 9.082800000000000000e+04 3.121500000000000000e+04 9.023500000000000000e+04 3.091700000000000000e+04 3.091800000000000000e+04 3.121800000000000000e+04 3.122000000000000000e+04 9.024500000000000000e+04 3.092200000000000000e+04 9.024600000000000000e+04 3.092400000000000000e+04 3.122500000000000000e+04 3.122600000000000000e+04 3.092700000000000000e+04 3.122700000000000000e+04 9.085700000000000000e+04 9.086000000000000000e+04 3.153000000000000000e+04 9.086300000000000000e+04 3.123200000000000000e+04 3.123300000000000000e+04 3.123400000000000000e+04 3.153500000000000000e+04 3.153600000000000000e+04 3.153700000000000000e+04 9.087700000000000000e+04 9.087900000000000000e+04 9.028500000000000000e+04 9.028700000000000000e+04 3.094300000000000000e+04 3.094400000000000000e+04 3.124500000000000000e+04 3.094600000000000000e+04 3.124600000000000000e+04 3.094800000000000000e+04 9.029800000000000000e+04 3.125000000000000000e+04 9.030500000000000000e+04 3.095200000000000000e+04 9.030600000000000000e+04 3.125300000000000000e+04 9.090900000000000000e+04 9.091100000000000000e+04 9.091400000000000000e+04 3.155700000000000000e+04 3.125900000000000000e+04 9.092000000000000000e+04 3.126100000000000000e+04 9.032700000000000000e+04 3.096300000000000000e+04 3.126400000000000000e+04 3.096500000000000000e+04 3.126500000000000000e+04 9.033400000000000000e+04 9.093600000000000000e+04 3.126900000000000000e+04 3.127000000000000000e+04 9.034500000000000000e+04 3.097200000000000000e+04 3.097300000000000000e+04 3.097400000000000000e+04 9.035000000000000000e+04 3.127500000000000000e+04 3.127600000000000000e+04 3.127700000000000000e+04 3.157800000000000000e+04 9.095900000000000000e+04 3.098100000000000000e+04 9.096400000000000000e+04 9.096600000000000000e+04 9.096800000000000000e+04 3.158400000000000000e+04 3.158500000000000000e+04 3.128700000000000000e+04 3.098800000000000000e+04 3.128800000000000000e+04 3.158900000000000000e+04 3.159000000000000000e+04 3.159100000000000000e+04 3.129300000000000000e+04 3.099400000000000000e+04 3.129400000000000000e+04 9.039500000000000000e+04 3.099700000000000000e+04 9.039900000000000000e+04 3.099900000000000000e+04 9.040300000000000000e+04 3.100100000000000000e+04 3.100200000000000000e+04 9.040600000000000000e+04 3.130400000000000000e+04 9.101000000000000000e+04 3.160500000000000000e+04 9.101300000000000000e+04 9.101600000000000000e+04 3.160800000000000000e+04 9.102000000000000000e+04 3.161000000000000000e+04 3.131200000000000000e+04 9.042900000000000000e+04 3.101400000000000000e+04 9.043000000000000000e+04 9.043500000000000000e+04 3.101700000000000000e+04 9.043600000000000000e+04 3.131800000000000000e+04
3.030200000000000000e+04 8.960900000000000000e+04 3.030400000000000000e+04 3.030500000000000000e+04 3.030600000000000000e+04 3.030700000000000000e+04 8.961600000000000000e+04 9.021800000000000000e+04 3.090900000000000000e+04 9.022200000000000000e+04 3.091100000000000000e+04 9.022600000000000000e+04 9.022800000000000000e+04 3.091400000000000000e+04 9.023200000000000000e+04 3.061700000000000000e+04 8.963900000000000000e+04 3.031900000000000000e+04 3.061900000000000000e+04 8.964200000000000000e+04 3.062200000000000000e+04 3.032300000000000000e+04 8.965100000000000000e+04 3.032500000000000000e+04 8.965500000000000000e+04 3.032700000000000000e+04 8.965600000000000000e+04 3.062800000000000000e+04 3.062900000000000000e+04 3.033100000000000000e+04 9.026400000000000000e+04 3.093200000000000000e+04 3.093300000000000000e+04 9.026900000000000000e+04 9.027100000000000000e+04 8.967700000000000000e+04 3.033800000000000000e+04 8.967800000000000000e+04 3.034000000000000000e+04 8.968200000000000000e+04 3.064200000000000000e+04 3.064300000000000000e+04 3.064400000000000000e+04 3.064500000000000000e+04 3.064600000000000000e+04 8.969700000000000000e+04 3.034800000000000000e+04 8.969800000000000000e+04 3.064900000000000000e+04 8.970500000000000000e+04 3.035200000000000000e+04 8.970600000000000000e+04 3.065300000000000000e+04 9.030900000000000000e+04 3.065500000000000000e+04 8.971700000000000000e+04 8.971900000000000000e+04 3.035900000000000000e+04 3.036000000000000000e+04 3.096000000000000000e+04 9.032400000000000000e+04 3.066300000000000000e+04 8.973100000000000000e+04 3.036500000000000000e+04 8.973200000000000000e+04 3.066600000000000000e+04 3.066700000000000000e+04 3.066900000000000000e+04 9.034000000000000000e+04 3.097000000000000000e+04 3.067200000000000000e+04 3.037300000000000000e+04 8.974800000000000000e+04 3.067400000000000000e+04 3.067500000000000000e+04 3.097600000000000000e+04 9.035500000000000000e+04 9.035700000000000000e+04 3.038000000000000000e+04 8.976500000000000000e+04 3.038200000000000000e+04 8.976600000000000000e+04 9.036800000000000000e+04 3.098400000000000000e+04 8.977500000000000000e+04 3.038700000000000000e+04 3.068800000000000000e+04 3.038900000000000000e+04 3.068900000000000000e+04 3.069000000000000000e+04 3.039200000000000000e+04 8.978600000000000000e+04 3.069400000000000000e+04 3.039500000000000000e+04 3.069500000000000000e+04 3.069700000000000000e+04 3.039800000000000000e+04 8.980100000000000000e+04 3.040000000000000000e+04 3.070100000000000000e+04 3.040200000000000000e+04 8.980600000000000000e+04 3.070300000000000000e+04 3.070400000000000000e+04 3.100500000000000000e+04 3.100600000000000000e+04 8.981900000000000000e+04 8.982100000000000000e+04 3.041000000000000000e+04 3.041100000000000000e+04 3.041200000000000000e+04 9.042600000000000000e+04 3.071400000000000000e+04 8.983300000000000000e+04 3.041600000000000000e+04 3.071700000000000000e+04 3.041800000000000000e+04 3.071800000000000000e+04 3.042000000000000000e+04
2.970300000000000000e+04 2.970400000000000000e+04 8.901000000000000000e+04 3.000500000000000000e+04 3.000600000000000000e+04 3.000700000000000000e+04 3.000800000000000000e+04 8.902300000000000000e+04 8.902500000000000000e+04 8.902700000000000000e+04 2.971300000000000000e+04 2.971400000000000000e+04 2.971500000000000000e+04 2.971600000000000000e+04 2.971700000000000000e+04 3.001800000000000000e+04 3.001900000000000000e+04 8.904300000000000000e+04 2.972100000000000000e+04 8.904400000000000000e+04 3.002300000000000000e+04 8.905100000000000000e+04 2.972500000000000000e+04 2.972600000000000000e+04 3.002700000000000000e+04 2.972800000000000000e+04 3.002800000000000000e+04 8.965900000000000000e+04 2.973100000000000000e+04 2.973200000000000000e+04 2.973300000000000000e+04 2.973400000000000000e+04 8.907000000000000000e+04 8.907200000000000000e+04 8.907700000000000000e+04 2.973800000000000000e+04 2.973900000000000000e+04 2.974000000000000000e+04 8.908200000000000000e+04 8.908400000000000000e+04 8.908600000000000000e+04 8.968800000000000000e+04 3.004500000000000000e+04 8.969200000000000000e+04 3.034600000000000000e+04 3.004800000000000000e+04 8.910100000000000000e+04 2.975000000000000000e+04 8.910200000000000000e+04 2.975200000000000000e+04 8.910600000000000000e+04 3.005300000000000000e+04 8.970900000000000000e+04 3.035500000000000000e+04 8.971300000000000000e+04 3.005800000000000000e+04 3.005900000000000000e+04 3.006000000000000000e+04 8.912500000000000000e+04 2.976200000000000000e+04 2.976300000000000000e+04 8.913100000000000000e+04 2.976500000000000000e+04 8.913200000000000000e+04 3.006600000000000000e+04 8.973500000000000000e+04 3.006800000000000000e+04 8.974000000000000000e+04 3.037000000000000000e+04 8.914700000000000000e+04 3.007300000000000000e+04 8.915100000000000000e+04 2.977500000000000000e+04 3.037500000000000000e+04 8.975300000000000000e+04 3.007700000000000000e+04 8.916100000000000000e+04 2.978000000000000000e+04 8.916200000000000000e+04 3.008200000000000000e+04 8.916900000000000000e+04 2.978400000000000000e+04 8.917000000000000000e+04 3.008600000000000000e+04 3.008700000000000000e+04 3.008800000000000000e+04 3.008900000000000000e+04 8.918300000000000000e+04 2.979100000000000000e+04 8.918400000000000000e+04 2.979300000000000000e+04 8.918800000000000000e+04 3.009500000000000000e+04 2.979600000000000000e+04 3.009600000000000000e+04 3.009800000000000000e+04 8.920100000000000000e+04 3.010000000000000000e+04 8.920500000000000000e+04 2.980200000000000000e+04 2.980300000000000000e+04 3.010300000000000000e+04 8.921000000000000000e+04 8.921500000000000000e+04 8.921700000000000000e+04 2.980800000000000000e+04 3.010900000000000000e+04 8.922300000000000000e+04 8.922500000000000000e+04 2.981200000000000000e+04 8.922600000000000000e+04 3.011300000000000000e+04 8.983000000000000000e+04 3.011600000000000000e+04 8.923700000000000000e+04 2.981800000000000000e+04 8.923800000000000000e+04 3.011900000000000000e+04 8.924200000000000000e+04
8.840800000000000000e+04 2.940400000000000000e+04 2.940500000000000000e+04 2.970600000000000000e+04 2.970700000000000000e+04 2.970800000000000000e+04 8.901900000000000000e+04 2.941100000000000000e+04 2.941200000000000000e+04 2.941300000000000000e+04 2.941400000000000000e+04 2.941500000000000000e+04 2.941600000000000000e+04 2.941700000000000000e+04 2.941800000000000000e+04 8.903800000000000000e+04 2.971900000000000000e+04 2.942100000000000000e+04 8.844700000000000000e+04 2.912300000000000000e+04 2.912400000000000000e+04 2.942500000000000000e+04 2.942600000000000000e+04 8.845700000000000000e+04 2.912800000000000000e+04 8.845800000000000000e+04 2.942900000000000000e+04 8.846200000000000000e+04 2.943100000000000000e+04 2.943200000000000000e+04 2.943300000000000000e+04 2.943400000000000000e+04 2.943500000000000000e+04 2.943600000000000000e+04 8.847900000000000000e+04 2.913900000000000000e+04 8.848000000000000000e+04 2.944000000000000000e+04 2.944100000000000000e+04 2.944200000000000000e+04 2.944300000000000000e+04 2.944500000000000000e+04 8.909200000000000000e+04 2.974600000000000000e+04 8.909500000000000000e+04 8.909800000000000000e+04 2.945000000000000000e+04 8.850500000000000000e+04 2.915200000000000000e+04 8.850600000000000000e+04 2.945300000000000000e+04 8.910900000000000000e+04 8.911100000000000000e+04 8.911300000000000000e+04 2.915800000000000000e+04 8.911800000000000000e+04 8.852300000000000000e+04 2.916100000000000000e+04 2.946200000000000000e+04 2.946300000000000000e+04 8.853100000000000000e+04 2.916500000000000000e+04 8.853200000000000000e+04 2.946600000000000000e+04 8.913500000000000000e+04 2.976800000000000000e+04 8.913900000000000000e+04 8.854500000000000000e+04 8.854700000000000000e+04 2.947300000000000000e+04 8.914800000000000000e+04 2.947500000000000000e+04 2.917600000000000000e+04 2.947600000000000000e+04 2.917800000000000000e+04 8.855800000000000000e+04 8.856300000000000000e+04 2.918100000000000000e+04 2.918200000000000000e+04 8.856600000000000000e+04 2.948400000000000000e+04 2.918500000000000000e+04 2.948500000000000000e+04 8.917400000000000000e+04 8.917600000000000000e+04 2.978800000000000000e+04 2.978900000000000000e+04 2.949100000000000000e+04 8.858700000000000000e+04 2.919300000000000000e+04 8.858800000000000000e+04 8.859300000000000000e+04 2.919600000000000000e+04 8.859400000000000000e+04 2.949700000000000000e+04 2.949900000000000000e+04 2.950000000000000000e+04 2.950100000000000000e+04 2.950200000000000000e+04 8.860900000000000000e+04 2.920400000000000000e+04 8.861000000000000000e+04 2.950500000000000000e+04 2.920700000000000000e+04 8.861900000000000000e+04 2.920900000000000000e+04 2.951000000000000000e+04 8.862500000000000000e+04 2.921200000000000000e+04 8.862600000000000000e+04 2.951300000000000000e+04 2.921500000000000000e+04 2.921600000000000000e+04 2.921700000000000000e+04 2.921800000000000000e+04 8.863800000000000000e+04 2.951900000000000000e+04 8.924100000000000000e+04 2.952100000000000000e+04
2.880400000000000000e+04 2.910500000000000000e+04 8.841300000000000000e+04 2.850800000000000000e+04 2.850900000000000000e+04 8.782000000000000000e+04 8.782200000000000000e+04 8.782400000000000000e+04 2.881300000000000000e+04 8.842800000000000000e+04 2.881500000000000000e+04 8.843200000000000000e+04 2.911600000000000000e+04 2.911700000000000000e+04 8.843800000000000000e+04 2.911900000000000000e+04 8.844100000000000000e+04 8.844400000000000000e+04 2.882300000000000000e+04 2.882400000000000000e+04 8.785300000000000000e+04 2.852600000000000000e+04 8.785400000000000000e+04 2.882800000000000000e+04 8.786100000000000000e+04 2.853000000000000000e+04 8.786200000000000000e+04 2.883100000000000000e+04 2.913200000000000000e+04 2.913300000000000000e+04 2.913400000000000000e+04 2.913500000000000000e+04 8.847300000000000000e+04 8.787900000000000000e+04 2.883900000000000000e+04 2.854000000000000000e+04 2.854100000000000000e+04 2.854200000000000000e+04 2.854300000000000000e+04 2.854400000000000000e+04 8.789000000000000000e+04 8.789200000000000000e+04 2.914600000000000000e+04 2.914700000000000000e+04 2.884900000000000000e+04 2.885000000000000000e+04 8.850200000000000000e+04 2.885200000000000000e+04 8.790900000000000000e+04 2.855400000000000000e+04 8.791000000000000000e+04 2.855600000000000000e+04 8.791400000000000000e+04 8.791600000000000000e+04 8.792100000000000000e+04 2.856000000000000000e+04 2.886100000000000000e+04 8.792700000000000000e+04 2.856300000000000000e+04 2.856400000000000000e+04 2.886500000000000000e+04 2.856600000000000000e+04 2.886600000000000000e+04 8.853500000000000000e+04 2.886800000000000000e+04 2.886900000000000000e+04 2.857100000000000000e+04 2.887200000000000000e+04 2.887300000000000000e+04 8.854800000000000000e+04 2.917400000000000000e+04 2.887600000000000000e+04 8.795700000000000000e+04 2.857800000000000000e+04 8.795800000000000000e+04 2.887900000000000000e+04 2.888100000000000000e+04 8.796700000000000000e+04 2.858300000000000000e+04 8.796800000000000000e+04 2.858500000000000000e+04 8.797200000000000000e+04 2.888600000000000000e+04 2.888700000000000000e+04 8.798100000000000000e+04 8.798300000000000000e+04 8.798500000000000000e+04 2.859200000000000000e+04 2.889300000000000000e+04 8.799100000000000000e+04 2.859500000000000000e+04 2.859600000000000000e+04 8.799400000000000000e+04 2.889700000000000000e+04 8.859700000000000000e+04 2.860000000000000000e+04 8.860200000000000000e+04 2.920100000000000000e+04 2.920200000000000000e+04 2.890400000000000000e+04 2.860500000000000000e+04 2.890500000000000000e+04 2.860700000000000000e+04 8.801600000000000000e+04 2.890900000000000000e+04 8.802300000000000000e+04 2.861100000000000000e+04 2.891200000000000000e+04 2.861300000000000000e+04 2.891300000000000000e+04 8.862900000000000000e+04 2.891500000000000000e+04 2.891600000000000000e+04 2.891700000000000000e+04 2.891800000000000000e+04 2.891900000000000000e+04 8.864100000000000000e+04 2.922100000000000000e+04 2.922200000000000000e+04
8.781100000000000000e+04 2.820600000000000000e+04 8.721900000000000000e+04 2.790900000000000000e+04 8.722000000000000000e+04 2.821000000000000000e+04 2.821100000000000000e+04 2.821200000000000000e+04 8.782800000000000000e+04 2.851400000000000000e+04 2.821600000000000000e+04 2.851600000000000000e+04 2.851700000000000000e+04 8.783800000000000000e+04 2.851900000000000000e+04 2.852000000000000000e+04 2.822200000000000000e+04 2.822300000000000000e+04 8.784800000000000000e+04 2.852400000000000000e+04 2.822600000000000000e+04 8.725700000000000000e+04 2.792800000000000000e+04 8.726100000000000000e+04 2.793000000000000000e+04 8.726200000000000000e+04 2.823100000000000000e+04 8.786500000000000000e+04 2.823300000000000000e+04 2.823400000000000000e+04 2.853500000000000000e+04 2.793700000000000000e+04 8.727600000000000000e+04 2.823900000000000000e+04 2.824000000000000000e+04 2.794100000000000000e+04 8.728400000000000000e+04 2.824200000000000000e+04 2.824300000000000000e+04 2.824400000000000000e+04 2.824500000000000000e+04 2.824600000000000000e+04 2.824700000000000000e+04 8.730100000000000000e+04 2.825000000000000000e+04 2.825100000000000000e+04 2.855100000000000000e+04 8.790600000000000000e+04 2.825400000000000000e+04 8.731300000000000000e+04 2.795600000000000000e+04 8.731400000000000000e+04 2.825700000000000000e+04 8.731800000000000000e+04 8.732300000000000000e+04 2.796100000000000000e+04 2.826200000000000000e+04 2.826300000000000000e+04 2.826400000000000000e+04 2.826500000000000000e+04 2.826600000000000000e+04 8.733700000000000000e+04 2.796800000000000000e+04 8.733800000000000000e+04 2.797000000000000000e+04 8.734200000000000000e+04 2.797200000000000000e+04 8.794600000000000000e+04 8.794800000000000000e+04 2.857400000000000000e+04 8.795100000000000000e+04 8.795400000000000000e+04 2.827800000000000000e+04 8.736100000000000000e+04 2.798000000000000000e+04 8.736200000000000000e+04 2.828200000000000000e+04 2.828300000000000000e+04 2.798400000000000000e+04 2.798500000000000000e+04 8.737200000000000000e+04 2.828600000000000000e+04 8.797500000000000000e+04 8.797700000000000000e+04 2.829000000000000000e+04 2.829100000000000000e+04 2.829200000000000000e+04 2.829300000000000000e+04 8.798800000000000000e+04 2.829500000000000000e+04 2.829600000000000000e+04 8.739700000000000000e+04 2.799800000000000000e+04 8.739800000000000000e+04 8.740300000000000000e+04 2.800100000000000000e+04 8.740400000000000000e+04 8.740900000000000000e+04 2.800400000000000000e+04 2.830500000000000000e+04 2.800600000000000000e+04 2.830600000000000000e+04 8.741900000000000000e+04 2.800900000000000000e+04 8.742000000000000000e+04 2.831100000000000000e+04 8.742700000000000000e+04 2.801300000000000000e+04 8.742800000000000000e+04 2.831400000000000000e+04 2.861500000000000000e+04 2.861600000000000000e+04 2.861700000000000000e+04 2.861800000000000000e+04 2.861900000000000000e+04 2.832000000000000000e+04 2.832100000000000000e+04 2.862200000000000000e+04 8.804800000000000000e+04
2.790600000000000000e+04 8.661900000000000000e+04 2.760900000000000000e+04 2.731000000000000000e+04 2.731100000000000000e+04 2.731200000000000000e+04 2.731300000000000000e+04 2.731400000000000000e+04 8.663000000000000000e+04 8.663200000000000000e+04 8.723400000000000000e+04 2.791700000000000000e+04 8.723700000000000000e+04 8.724000000000000000e+04 2.792000000000000000e+04 2.762200000000000000e+04 8.724600000000000000e+04 2.792300000000000000e+04 2.792400000000000000e+04 2.762600000000000000e+04 8.725400000000000000e+04 2.762800000000000000e+04 8.666100000000000000e+04 2.733000000000000000e+04 8.666200000000000000e+04 2.763100000000000000e+04 8.726500000000000000e+04 2.763300000000000000e+04 8.726900000000000000e+04 8.727100000000000000e+04 8.667700000000000000e+04 2.733800000000000000e+04 2.733900000000000000e+04 8.668000000000000000e+04 2.764100000000000000e+04 2.734200000000000000e+04 2.764200000000000000e+04 2.734400000000000000e+04 2.734500000000000000e+04 2.734600000000000000e+04 8.669400000000000000e+04 8.669600000000000000e+04 8.669800000000000000e+04 2.765000000000000000e+04 2.765100000000000000e+04 8.730400000000000000e+04 2.795200000000000000e+04 8.730700000000000000e+04 8.731000000000000000e+04 2.765600000000000000e+04 8.671700000000000000e+04 2.735800000000000000e+04 8.671800000000000000e+04 2.765900000000000000e+04 2.736100000000000000e+04 8.672400000000000000e+04 2.766200000000000000e+04 8.732800000000000000e+04 8.733000000000000000e+04 2.796500000000000000e+04 2.796600000000000000e+04 2.766800000000000000e+04 8.674100000000000000e+04 2.737000000000000000e+04 8.674200000000000000e+04 2.737200000000000000e+04 8.674600000000000000e+04 2.767300000000000000e+04 8.735000000000000000e+04 2.797500000000000000e+04 2.767700000000000000e+04 2.767800000000000000e+04 8.735800000000000000e+04 2.768000000000000000e+04 2.738100000000000000e+04 2.768100000000000000e+04 8.676900000000000000e+04 2.738400000000000000e+04 8.677000000000000000e+04 2.768500000000000000e+04 2.768600000000000000e+04 8.737500000000000000e+04 8.677800000000000000e+04 8.678000000000000000e+04 2.769100000000000000e+04 2.769200000000000000e+04 8.738600000000000000e+04 2.799300000000000000e+04 2.799400000000000000e+04 8.739200000000000000e+04 2.799600000000000000e+04 2.769800000000000000e+04 8.680100000000000000e+04 2.740000000000000000e+04 2.740100000000000000e+04 8.680400000000000000e+04 2.770200000000000000e+04 8.681100000000000000e+04 2.740500000000000000e+04 2.770600000000000000e+04 2.740700000000000000e+04 2.770700000000000000e+04 2.770900000000000000e+04 2.741000000000000000e+04 2.741100000000000000e+04 2.741200000000000000e+04 2.741300000000000000e+04 8.682800000000000000e+04 2.771400000000000000e+04 8.743100000000000000e+04 8.743400000000000000e+04 2.801700000000000000e+04 8.743700000000000000e+04 2.772000000000000000e+04 2.802000000000000000e+04 2.772100000000000000e+04 8.684600000000000000e+04 2.742400000000000000e+04 8.685000000000000000e+04
8.601900000000000000e+04 2.670900000000000000e+04 2.671000000000000000e+04 8.602200000000000000e+04 2.701100000000000000e+04 2.701200000000000000e+04 2.701300000000000000e+04 2.701400000000000000e+04 2.701500000000000000e+04 2.701600000000000000e+04 8.663600000000000000e+04 2.731800000000000000e+04 8.663900000000000000e+04 8.664200000000000000e+04 2.732100000000000000e+04 8.664600000000000000e+04 2.732300000000000000e+04 8.665000000000000000e+04 2.732500000000000000e+04 8.665400000000000000e+04 2.732700000000000000e+04 8.665800000000000000e+04 2.703000000000000000e+04 8.606500000000000000e+04 2.673200000000000000e+04 8.606600000000000000e+04 2.733300000000000000e+04 8.666900000000000000e+04 2.673600000000000000e+04 2.673700000000000000e+04 2.703800000000000000e+04 8.608100000000000000e+04 2.674000000000000000e+04 8.608500000000000000e+04 2.674200000000000000e+04 8.608600000000000000e+04 2.704300000000000000e+04 2.704400000000000000e+04 2.704500000000000000e+04 2.704600000000000000e+04 2.704700000000000000e+04 2.704800000000000000e+04 2.704900000000000000e+04 2.705100000000000000e+04 8.670400000000000000e+04 2.735200000000000000e+04 8.670700000000000000e+04 8.611300000000000000e+04 2.675600000000000000e+04 8.611700000000000000e+04 2.675800000000000000e+04 8.611800000000000000e+04 2.705900000000000000e+04 2.676100000000000000e+04 8.612400000000000000e+04 2.706200000000000000e+04 8.672700000000000000e+04 8.673000000000000000e+04 2.736500000000000000e+04 2.706700000000000000e+04 2.706800000000000000e+04 8.673800000000000000e+04 2.707000000000000000e+04 8.614500000000000000e+04 2.677200000000000000e+04 8.614600000000000000e+04 2.707300000000000000e+04 8.615000000000000000e+04 8.615200000000000000e+04 2.737600000000000000e+04 8.675600000000000000e+04 8.675800000000000000e+04 2.737900000000000000e+04 2.708100000000000000e+04 8.616700000000000000e+04 2.678300000000000000e+04 2.678400000000000000e+04 8.617000000000000000e+04 2.708500000000000000e+04 2.738600000000000000e+04 8.677500000000000000e+04 2.708800000000000000e+04 2.708900000000000000e+04 2.709000000000000000e+04 8.678400000000000000e+04 8.678600000000000000e+04 2.739300000000000000e+04 8.679000000000000000e+04 2.739500000000000000e+04 2.709700000000000000e+04 2.709800000000000000e+04 8.679800000000000000e+04 2.710000000000000000e+04 8.620500000000000000e+04 2.680200000000000000e+04 2.710200000000000000e+04 8.680700000000000000e+04 2.710500000000000000e+04 8.621500000000000000e+04 2.680700000000000000e+04 8.621600000000000000e+04 2.710800000000000000e+04 2.681000000000000000e+04 8.622200000000000000e+04 2.711100000000000000e+04 2.711200000000000000e+04 2.711300000000000000e+04 2.711400000000000000e+04 2.711500000000000000e+04 8.623400000000000000e+04 8.683600000000000000e+04 2.741800000000000000e+04 2.712000000000000000e+04 8.684200000000000000e+04 2.742100000000000000e+04 8.684500000000000000e+04 2.712300000000000000e+04 8.625000000000000000e+04 2.712500000000000000e+04
8.542100000000000000e+04 2.611000000000000000e+04 8.542200000000000000e+04 2.641100000000000000e+04 2.671200000000000000e+04 2.671300000000000000e+04 2.671400000000000000e+04 2.671500000000000000e+04 8.603300000000000000e+04 2.611800000000000000e+04 2.611900000000000000e+04 8.544000000000000000e+04 8.544500000000000000e+04 2.612200000000000000e+04 8.604600000000000000e+04 8.604800000000000000e+04 2.672400000000000000e+04 8.605200000000000000e+04 2.672600000000000000e+04 8.545900000000000000e+04 2.642900000000000000e+04 2.643000000000000000e+04 8.606200000000000000e+04 2.643200000000000000e+04 2.613300000000000000e+04 2.643300000000000000e+04 2.613500000000000000e+04 8.547200000000000000e+04 8.547700000000000000e+04 2.613800000000000000e+04 8.547800000000000000e+04 2.644000000000000000e+04 8.548500000000000000e+04 2.614200000000000000e+04 8.548600000000000000e+04 2.644300000000000000e+04 2.674400000000000000e+04 2.614600000000000000e+04 2.614700000000000000e+04 2.614800000000000000e+04 2.614900000000000000e+04 2.615000000000000000e+04 8.550200000000000000e+04 8.550400000000000000e+04 2.675200000000000000e+04 8.551100000000000000e+04 2.615500000000000000e+04 2.645600000000000000e+04 8.551700000000000000e+04 2.645800000000000000e+04 2.615900000000000000e+04 2.645900000000000000e+04 8.612100000000000000e+04 2.646100000000000000e+04 2.646200000000000000e+04 8.612700000000000000e+04 2.616500000000000000e+04 2.616600000000000000e+04 8.553400000000000000e+04 8.613600000000000000e+04 8.613800000000000000e+04 2.676900000000000000e+04 8.614200000000000000e+04 2.647200000000000000e+04 8.554900000000000000e+04 2.617400000000000000e+04 8.555000000000000000e+04 2.647500000000000000e+04 8.555400000000000000e+04 2.617800000000000000e+04 8.555800000000000000e+04 2.648000000000000000e+04 2.648100000000000000e+04 8.616400000000000000e+04 2.648300000000000000e+04 2.648400000000000000e+04 8.557300000000000000e+04 2.618600000000000000e+04 2.618700000000000000e+04 2.618800000000000000e+04 2.618900000000000000e+04 2.619000000000000000e+04 8.558200000000000000e+04 8.558400000000000000e+04 8.618600000000000000e+04 8.618800000000000000e+04 2.679400000000000000e+04 8.619200000000000000e+04 2.679600000000000000e+04 8.619600000000000000e+04 8.619800000000000000e+04 2.650000000000000000e+04 8.620200000000000000e+04 2.650200000000000000e+04 8.560900000000000000e+04 2.620400000000000000e+04 8.561000000000000000e+04 8.561500000000000000e+04 2.620700000000000000e+04 8.561600000000000000e+04 2.650800000000000000e+04 8.621900000000000000e+04 2.651000000000000000e+04 2.651100000000000000e+04 2.681200000000000000e+04 2.681300000000000000e+04 2.681400000000000000e+04 2.681500000000000000e+04 8.623300000000000000e+04 2.651700000000000000e+04 2.651800000000000000e+04 2.681900000000000000e+04 8.624200000000000000e+04 2.682100000000000000e+04 8.624600000000000000e+04 2.682300000000000000e+04 8.624900000000000000e+04 2.652500000000000000e+04 2.622700000000000000e+04
2.551000000000000000e+04 8.482200000000000000e+04 2.581100000000000000e+04 2.581200000000000000e+04 2.581300000000000000e+04 8.542900000000000000e+04 8.483500000000000000e+04 2.551700000000000000e+04 8.483900000000000000e+04 2.551900000000000000e+04 8.484000000000000000e+04 2.582000000000000000e+04 2.582200000000000000e+04 8.484900000000000000e+04 2.552400000000000000e+04 8.485000000000000000e+04 2.612500000000000000e+04 2.582700000000000000e+04 2.582800000000000000e+04 2.582900000000000000e+04 2.583000000000000000e+04 8.546200000000000000e+04 2.613100000000000000e+04 2.583300000000000000e+04 8.487100000000000000e+04 2.553500000000000000e+04 8.487200000000000000e+04 2.583600000000000000e+04 2.553800000000000000e+04 8.487800000000000000e+04 2.583900000000000000e+04 8.488500000000000000e+04 2.554200000000000000e+04 8.488600000000000000e+04 2.584300000000000000e+04 8.548900000000000000e+04 2.584500000000000000e+04 2.584600000000000000e+04 2.584700000000000000e+04 2.584800000000000000e+04 2.584900000000000000e+04 2.585000000000000000e+04 2.585100000000000000e+04 2.585200000000000000e+04 2.585400000000000000e+04 2.585500000000000000e+04 8.491500000000000000e+04 2.555700000000000000e+04 2.585800000000000000e+04 2.585900000000000000e+04 2.556000000000000000e+04 2.586000000000000000e+04 2.616100000000000000e+04 2.616200000000000000e+04 8.552700000000000000e+04 8.493300000000000000e+04 2.556600000000000000e+04 8.493400000000000000e+04 2.586700000000000000e+04 8.494100000000000000e+04 8.494300000000000000e+04 2.557100000000000000e+04 2.587200000000000000e+04 8.554600000000000000e+04 2.587400000000000000e+04 8.495300000000000000e+04 2.557600000000000000e+04 8.495400000000000000e+04 2.557800000000000000e+04 8.495800000000000000e+04 2.587900000000000000e+04 2.588100000000000000e+04 8.556400000000000000e+04 2.618200000000000000e+04 8.556800000000000000e+04 2.618400000000000000e+04 2.588600000000000000e+04 2.558700000000000000e+04 2.588700000000000000e+04 2.588800000000000000e+04 2.588900000000000000e+04 2.589000000000000000e+04 2.589100000000000000e+04 2.589200000000000000e+04 8.499100000000000000e+04 8.499300000000000000e+04 2.559600000000000000e+04 8.499700000000000000e+04 2.559800000000000000e+04 8.499800000000000000e+04 2.590000000000000000e+04 8.560200000000000000e+04 2.620100000000000000e+04 8.560600000000000000e+04 2.590400000000000000e+04 2.560500000000000000e+04 2.590500000000000000e+04 2.560700000000000000e+04 8.501600000000000000e+04 2.590800000000000000e+04 2.591000000000000000e+04 2.621000000000000000e+04 2.621100000000000000e+04 8.562500000000000000e+04 2.591300000000000000e+04 2.621400000000000000e+04 8.563100000000000000e+04 2.591700000000000000e+04 2.621700000000000000e+04 2.591800000000000000e+04 8.504000000000000000e+04 2.622000000000000000e+04 8.564400000000000000e+04 2.622200000000000000e+04 8.564800000000000000e+04 8.565000000000000000e+04 2.622500000000000000e+04 8.565300000000000000e+04 2.592700000000000000e+04
8.422200000000000000e+04 2.521100000000000000e+04 8.482500000000000000e+04 8.482700000000000000e+04 8.482900000000000000e+04 8.423500000000000000e+04 2.491700000000000000e+04 2.491800000000000000e+04 2.491900000000000000e+04 8.424000000000000000e+04 2.522000000000000000e+04 2.522100000000000000e+04 2.522300000000000000e+04 2.522400000000000000e+04 2.492500000000000000e+04 2.522500000000000000e+04 8.425400000000000000e+04 8.425900000000000000e+04 2.492900000000000000e+04 8.486000000000000000e+04 2.553000000000000000e+04 2.553100000000000000e+04 2.523300000000000000e+04 8.486800000000000000e+04 2.523500000000000000e+04 8.427500000000000000e+04 2.493700000000000000e+04 2.493800000000000000e+04 2.493900000000000000e+04 2.494000000000000000e+04 2.494100000000000000e+04 2.494200000000000000e+04 8.428600000000000000e+04 2.524300000000000000e+04 8.488900000000000000e+04 2.554500000000000000e+04 2.554600000000000000e+04 2.554700000000000000e+04 2.554800000000000000e+04 2.554900000000000000e+04 2.555000000000000000e+04 2.555100000000000000e+04 8.490500000000000000e+04 8.490700000000000000e+04 2.525500000000000000e+04 8.491200000000000000e+04 2.525700000000000000e+04 2.525800000000000000e+04 8.491800000000000000e+04 2.526000000000000000e+04 2.496100000000000000e+04 2.526100000000000000e+04 2.526200000000000000e+04 2.556300000000000000e+04 8.492900000000000000e+04 2.526600000000000000e+04 2.496700000000000000e+04 2.526700000000000000e+04 2.496900000000000000e+04 8.434000000000000000e+04 2.527100000000000000e+04 8.434700000000000000e+04 2.497300000000000000e+04 2.527400000000000000e+04 8.495000000000000000e+04 2.527600000000000000e+04 8.435700000000000000e+04 2.497800000000000000e+04 8.435800000000000000e+04 2.527900000000000000e+04 2.498100000000000000e+04 8.496400000000000000e+04 2.558200000000000000e+04 2.498400000000000000e+04 8.437300000000000000e+04 8.437500000000000000e+04 2.498700000000000000e+04 8.437600000000000000e+04 2.528800000000000000e+04 2.558900000000000000e+04 2.559000000000000000e+04 2.559100000000000000e+04 8.498500000000000000e+04 8.498700000000000000e+04 2.529500000000000000e+04 2.529600000000000000e+04 8.439700000000000000e+04 2.499800000000000000e+04 2.499900000000000000e+04 2.500000000000000000e+04 2.500100000000000000e+04 8.440400000000000000e+04 8.440900000000000000e+04 2.500400000000000000e+04 2.530500000000000000e+04 2.500600000000000000e+04 2.530700000000000000e+04 2.500800000000000000e+04 2.530800000000000000e+04 8.501900000000000000e+04 8.502200000000000000e+04 2.561100000000000000e+04 8.502500000000000000e+04 2.561300000000000000e+04 8.502900000000000000e+04 2.531500000000000000e+04 2.561600000000000000e+04 8.503600000000000000e+04 2.561800000000000000e+04 8.503900000000000000e+04 2.532000000000000000e+04 8.444400000000000000e+04 8.504600000000000000e+04 2.562300000000000000e+04 2.562400000000000000e+04 8.445500000000000000e+04 2.532700000000000000e+04 2.562700000000000000e+04 2.532800000000000000e+04
2.461100000000000000e+04 2.431300000000000000e+04 2.431400000000000000e+04 8.363000000000000000e+04 8.363200000000000000e+04 2.461700000000000000e+04 8.363900000000000000e+04 2.431900000000000000e+04 8.364000000000000000e+04 2.462000000000000000e+04 8.424300000000000000e+04 2.432300000000000000e+04 2.432400000000000000e+04 2.462500000000000000e+04 2.432600000000000000e+04 8.365400000000000000e+04 2.462700000000000000e+04 2.462900000000000000e+04 8.366300000000000000e+04 2.433100000000000000e+04 2.433200000000000000e+04 2.433300000000000000e+04 8.366800000000000000e+04 2.463500000000000000e+04 8.367500000000000000e+04 2.433700000000000000e+04 8.367600000000000000e+04 2.463800000000000000e+04 2.463900000000000000e+04 2.464000000000000000e+04 2.464100000000000000e+04 2.464200000000000000e+04 2.464300000000000000e+04 8.428900000000000000e+04 8.429100000000000000e+04 8.369700000000000000e+04 2.434800000000000000e+04 2.434900000000000000e+04 2.435000000000000000e+04 2.435100000000000000e+04 2.435200000000000000e+04 8.370600000000000000e+04 8.370800000000000000e+04 8.371300000000000000e+04 2.435600000000000000e+04 2.435700000000000000e+04 8.431600000000000000e+04 2.495800000000000000e+04 2.495900000000000000e+04 2.466100000000000000e+04 2.436200000000000000e+04 2.466200000000000000e+04 2.466300000000000000e+04 2.466400000000000000e+04 8.373500000000000000e+04 2.466700000000000000e+04 2.436800000000000000e+04 2.436900000000000000e+04 8.374000000000000000e+04 2.467000000000000000e+04 8.374700000000000000e+04 2.437300000000000000e+04 8.374800000000000000e+04 2.467400000000000000e+04 8.375500000000000000e+04 8.375700000000000000e+04 2.437800000000000000e+04 8.375800000000000000e+04 2.467900000000000000e+04 2.438100000000000000e+04 8.376400000000000000e+04 2.468200000000000000e+04 2.468400000000000000e+04 8.377300000000000000e+04 2.468600000000000000e+04 2.468700000000000000e+04 8.377900000000000000e+04 2.438900000000000000e+04 2.439000000000000000e+04 8.378200000000000000e+04 2.469100000000000000e+04 8.378900000000000000e+04 2.439400000000000000e+04 2.439500000000000000e+04 8.379200000000000000e+04 8.379700000000000000e+04 2.469800000000000000e+04 2.469900000000000000e+04 8.380300000000000000e+04 2.440100000000000000e+04 2.440200000000000000e+04 8.380600000000000000e+04 2.470400000000000000e+04 8.381300000000000000e+04 2.470600000000000000e+04 2.440700000000000000e+04 2.470800000000000000e+04 8.382100000000000000e+04 2.441000000000000000e+04 2.441100000000000000e+04 8.382400000000000000e+04 8.442600000000000000e+04 2.501300000000000000e+04 8.442900000000000000e+04 2.501500000000000000e+04 8.443300000000000000e+04 2.471700000000000000e+04 8.443800000000000000e+04 8.444000000000000000e+04 2.502000000000000000e+04 8.444300000000000000e+04 2.472200000000000000e+04 8.385100000000000000e+04 8.385300000000000000e+04 2.442600000000000000e+04 2.472700000000000000e+04 8.445600000000000000e+04 2.502800000000000000e+04 8.445900000000000000e+04
2.401200000000000000e+04 2.401300000000000000e+04 2.401400000000000000e+04 2.401500000000000000e+04 2.401600000000000000e+04 2.401800000000000000e+04 2.401900000000000000e+04 2.372000000000000000e+04 2.402000000000000000e+04 2.402100000000000000e+04 2.402300000000000000e+04 8.305100000000000000e+04 2.372500000000000000e+04 2.402600000000000000e+04 2.372700000000000000e+04 2.402700000000000000e+04 2.402800000000000000e+04 2.403000000000000000e+04 2.403100000000000000e+04 2.403200000000000000e+04 2.403300000000000000e+04 8.307100000000000000e+04 2.373500000000000000e+04 8.307200000000000000e+04 2.403700000000000000e+04 8.307900000000000000e+04 2.373900000000000000e+04 2.433900000000000000e+04 2.434000000000000000e+04 2.434100000000000000e+04 2.434200000000000000e+04 2.434300000000000000e+04 8.368900000000000000e+04 2.404500000000000000e+04 8.309700000000000000e+04 2.374800000000000000e+04 8.309800000000000000e+04 2.404900000000000000e+04 2.405000000000000000e+04 2.405100000000000000e+04 2.405200000000000000e+04 2.405300000000000000e+04 2.405400000000000000e+04 2.405600000000000000e+04 8.311700000000000000e+04 2.375800000000000000e+04 2.375900000000000000e+04 2.376000000000000000e+04 2.376100000000000000e+04 2.406200000000000000e+04 2.376300000000000000e+04 2.406300000000000000e+04 2.376500000000000000e+04 8.313200000000000000e+04 2.406700000000000000e+04 2.406800000000000000e+04 8.314100000000000000e+04 2.377000000000000000e+04 2.407000000000000000e+04 8.314700000000000000e+04 2.407300000000000000e+04 2.377400000000000000e+04 2.407400000000000000e+04 8.315500000000000000e+04 8.315700000000000000e+04 2.377800000000000000e+04 8.315800000000000000e+04 2.407900000000000000e+04 8.376100000000000000e+04 2.408100000000000000e+04 2.408200000000000000e+04 2.408300000000000000e+04 2.408500000000000000e+04 2.408600000000000000e+04 2.408700000000000000e+04 8.377600000000000000e+04 2.408900000000000000e+04 2.379000000000000000e+04 2.409000000000000000e+04 2.409100000000000000e+04 2.409200000000000000e+04 8.319100000000000000e+04 2.379500000000000000e+04 8.319200000000000000e+04 2.409600000000000000e+04 2.409800000000000000e+04 2.409900000000000000e+04 2.410000000000000000e+04 2.410100000000000000e+04 2.410200000000000000e+04 8.320900000000000000e+04 2.380400000000000000e+04 8.321000000000000000e+04 2.410600000000000000e+04 2.410700000000000000e+04 2.380800000000000000e+04 2.380900000000000000e+04 2.381000000000000000e+04 8.322200000000000000e+04 2.411100000000000000e+04 2.411200000000000000e+04 8.322800000000000000e+04 8.383000000000000000e+04 2.441500000000000000e+04 8.383300000000000000e+04 2.441700000000000000e+04 8.383700000000000000e+04 8.384000000000000000e+04 2.442000000000000000e+04 2.412200000000000000e+04 2.442200000000000000e+04 2.412300000000000000e+04 2.412500000000000000e+04 2.412600000000000000e+04 2.412700000000000000e+04 2.412800000000000000e+04 2.442800000000000000e+04 2.412900000000000000e+04 2.383100000000000000e+04
2.371300000000000000e+04 8.302900000000000000e+04 2.371500000000000000e+04 8.303300000000000000e+04 8.303500000000000000e+04 2.341900000000000000e+04 2.342000000000000000e+04 2.312100000000000000e+04 2.342100000000000000e+04 8.244600000000000000e+04 2.312400000000000000e+04 2.342500000000000000e+04 2.312600000000000000e+04 2.342700000000000000e+04 2.312800000000000000e+04 2.342800000000000000e+04 8.246000000000000000e+04 8.306200000000000000e+04 8.306400000000000000e+04 2.373200000000000000e+04 2.373300000000000000e+04 2.343500000000000000e+04 8.247500000000000000e+04 2.313700000000000000e+04 8.247900000000000000e+04 2.313900000000000000e+04 8.248000000000000000e+04 2.344000000000000000e+04 8.248400000000000000e+04 2.374200000000000000e+04 8.308700000000000000e+04 2.374400000000000000e+04 2.374500000000000000e+04 8.249700000000000000e+04 2.314800000000000000e+04 8.249800000000000000e+04 2.344900000000000000e+04 2.375000000000000000e+04 2.375100000000000000e+04 2.375200000000000000e+04 2.375300000000000000e+04 8.310900000000000000e+04 8.311100000000000000e+04 8.251700000000000000e+04 2.345800000000000000e+04 2.345900000000000000e+04 2.346000000000000000e+04 2.346100000000000000e+04 2.346200000000000000e+04 2.346300000000000000e+04 8.253100000000000000e+04 2.316500000000000000e+04 8.253200000000000000e+04 2.346600000000000000e+04 8.313600000000000000e+04 8.313800000000000000e+04 2.347000000000000000e+04 8.254500000000000000e+04 2.317200000000000000e+04 8.254600000000000000e+04 2.347400000000000000e+04 8.255300000000000000e+04 2.317600000000000000e+04 8.255700000000000000e+04 2.317800000000000000e+04 8.255800000000000000e+04 2.347900000000000000e+04 8.316100000000000000e+04 2.378100000000000000e+04 2.378200000000000000e+04 8.316700000000000000e+04 2.318500000000000000e+04 8.317200000000000000e+04 8.317400000000000000e+04 2.378700000000000000e+04 2.378800000000000000e+04 2.349000000000000000e+04 2.319100000000000000e+04 2.349100000000000000e+04 8.318500000000000000e+04 8.259100000000000000e+04 2.319500000000000000e+04 8.259200000000000000e+04 2.349600000000000000e+04 8.319500000000000000e+04 8.319800000000000000e+04 8.320000000000000000e+04 2.380000000000000000e+04 2.380100000000000000e+04 2.380200000000000000e+04 2.350400000000000000e+04 8.261300000000000000e+04 2.320600000000000000e+04 8.261700000000000000e+04 2.320800000000000000e+04 8.261800000000000000e+04 2.350900000000000000e+04 2.351000000000000000e+04 2.351100000000000000e+04 8.322500000000000000e+04 8.322700000000000000e+04 2.351400000000000000e+04 2.351500000000000000e+04 2.381600000000000000e+04 8.323500000000000000e+04 8.264100000000000000e+04 2.322000000000000000e+04 2.322100000000000000e+04 8.264400000000000000e+04 8.324600000000000000e+04 2.382300000000000000e+04 8.324900000000000000e+04 8.325200000000000000e+04 8.325400000000000000e+04 2.352800000000000000e+04 8.325800000000000000e+04 2.382900000000000000e+04 8.326100000000000000e+04 2.353100000000000000e+04
8.242900000000000000e+04 2.311500000000000000e+04 8.243300000000000000e+04 2.281800000000000000e+04 8.184100000000000000e+04 2.252000000000000000e+04 2.282100000000000000e+04 2.252200000000000000e+04 2.282200000000000000e+04 2.282300000000000000e+04 2.252500000000000000e+04 2.282600000000000000e+04 2.252700000000000000e+04 2.252800000000000000e+04 8.185800000000000000e+04 2.282900000000000000e+04 2.283000000000000000e+04 2.283100000000000000e+04 8.186900000000000000e+04 8.187100000000000000e+04 8.187300000000000000e+04 8.247200000000000000e+04 2.283700000000000000e+04 8.187900000000000000e+04 2.253900000000000000e+04 8.188000000000000000e+04 2.284000000000000000e+04 8.248300000000000000e+04 2.284200000000000000e+04 2.284300000000000000e+04 8.189300000000000000e+04 2.254600000000000000e+04 8.189700000000000000e+04 2.254800000000000000e+04 8.189800000000000000e+04 2.284900000000000000e+04 8.250100000000000000e+04 2.285100000000000000e+04 2.285200000000000000e+04 2.285300000000000000e+04 2.285400000000000000e+04 2.285500000000000000e+04 2.285700000000000000e+04 2.285800000000000000e+04 8.251800000000000000e+04 2.315900000000000000e+04 2.316000000000000000e+04 2.316100000000000000e+04 2.316200000000000000e+04 2.316300000000000000e+04 2.286500000000000000e+04 2.256600000000000000e+04 2.286600000000000000e+04 2.286700000000000000e+04 2.286800000000000000e+04 2.287000000000000000e+04 8.254200000000000000e+04 2.287200000000000000e+04 2.257300000000000000e+04 8.195100000000000000e+04 2.257500000000000000e+04 2.287600000000000000e+04 2.257700000000000000e+04 2.287800000000000000e+04 2.257900000000000000e+04 2.287900000000000000e+04 8.256100000000000000e+04 2.258200000000000000e+04 2.258300000000000000e+04 8.196800000000000000e+04 8.197300000000000000e+04 2.258600000000000000e+04 8.197700000000000000e+04 2.258800000000000000e+04 8.197800000000000000e+04 8.198300000000000000e+04 2.289100000000000000e+04 2.259200000000000000e+04 2.289200000000000000e+04 2.259400000000000000e+04 2.289500000000000000e+04 2.259600000000000000e+04 2.289600000000000000e+04 8.259500000000000000e+04 2.259900000000000000e+04 8.200000000000000000e+04 8.200500000000000000e+04 2.260200000000000000e+04 2.260300000000000000e+04 8.201100000000000000e+04 8.261000000000000000e+04 2.290600000000000000e+04 8.201700000000000000e+04 2.260800000000000000e+04 8.201800000000000000e+04 2.290900000000000000e+04 2.321000000000000000e+04 2.321100000000000000e+04 8.262500000000000000e+04 2.321300000000000000e+04 2.321400000000000000e+04 8.263100000000000000e+04 8.203700000000000000e+04 2.261800000000000000e+04 8.203800000000000000e+04 8.204300000000000000e+04 2.262100000000000000e+04 8.204400000000000000e+04 2.262300000000000000e+04 8.204800000000000000e+04 2.322400000000000000e+04 8.265100000000000000e+04 8.205700000000000000e+04 2.262800000000000000e+04 2.292900000000000000e+04 2.322900000000000000e+04 2.293000000000000000e+04 2.323100000000000000e+04 2.323200000000000000e+04
8.123200000000000000e+04 2.191700000000000000e+04 8.123600000000000000e+04 2.221900000000000000e+04 2.222000000000000000e+04 8.124500000000000000e+04 2.222200000000000000e+04 2.192300000000000000e+04 2.222300000000000000e+04 8.125300000000000000e+04 2.192600000000000000e+04 2.192700000000000000e+04 8.125600000000000000e+04 2.222800000000000000e+04 2.222900000000000000e+04 8.186100000000000000e+04 8.186300000000000000e+04 2.193300000000000000e+04 2.223400000000000000e+04 2.223500000000000000e+04 2.223600000000000000e+04 8.127700000000000000e+04 2.193800000000000000e+04 2.223900000000000000e+04 8.128300000000000000e+04 2.194100000000000000e+04 8.128400000000000000e+04 2.254200000000000000e+04 8.188700000000000000e+04 8.188900000000000000e+04 2.224600000000000000e+04 8.129700000000000000e+04 2.194800000000000000e+04 8.129800000000000000e+04 2.224900000000000000e+04 8.190100000000000000e+04 2.225100000000000000e+04 2.255200000000000000e+04 2.255300000000000000e+04 8.190900000000000000e+04 8.191100000000000000e+04 8.191300000000000000e+04 2.225800000000000000e+04 8.191800000000000000e+04 2.255900000000000000e+04 8.192100000000000000e+04 8.192400000000000000e+04 2.256200000000000000e+04 2.256300000000000000e+04 2.226500000000000000e+04 2.226600000000000000e+04 2.196700000000000000e+04 2.226700000000000000e+04 2.196900000000000000e+04 8.134000000000000000e+04 2.227100000000000000e+04 2.227200000000000000e+04 2.227300000000000000e+04 8.135100000000000000e+04 2.227500000000000000e+04 8.135500000000000000e+04 2.227700000000000000e+04 8.135900000000000000e+04 2.197900000000000000e+04 2.198000000000000000e+04 2.228000000000000000e+04 2.198200000000000000e+04 8.136600000000000000e+04 8.136800000000000000e+04 2.228400000000000000e+04 2.228600000000000000e+04 8.137700000000000000e+04 2.198800000000000000e+04 8.137800000000000000e+04 2.228900000000000000e+04 2.229100000000000000e+04 2.229200000000000000e+04 8.138900000000000000e+04 2.199400000000000000e+04 8.139000000000000000e+04 2.229600000000000000e+04 2.199700000000000000e+04 2.229700000000000000e+04 2.199900000000000000e+04 8.140000000000000000e+04 2.230000000000000000e+04 2.230200000000000000e+04 8.140900000000000000e+04 2.200400000000000000e+04 8.141300000000000000e+04 2.200600000000000000e+04 2.230700000000000000e+04 2.230800000000000000e+04 8.142100000000000000e+04 2.201000000000000000e+04 8.142200000000000000e+04 8.202400000000000000e+04 2.261200000000000000e+04 8.202700000000000000e+04 2.231400000000000000e+04 8.143500000000000000e+04 2.201700000000000000e+04 8.143900000000000000e+04 2.201900000000000000e+04 8.144000000000000000e+04 2.202100000000000000e+04 8.144400000000000000e+04 2.232200000000000000e+04 2.232300000000000000e+04 2.232400000000000000e+04 2.232500000000000000e+04 2.232700000000000000e+04 2.232800000000000000e+04 2.232900000000000000e+04 8.206000000000000000e+04 2.263000000000000000e+04 8.206300000000000000e+04 2.263200000000000000e+04 2.233400000000000000e+04
2.161600000000000000e+04 2.131800000000000000e+04 8.063800000000000000e+04 2.132000000000000000e+04 2.132100000000000000e+04 2.162200000000000000e+04 8.064900000000000000e+04 2.132400000000000000e+04 2.162400000000000000e+04 2.132600000000000000e+04 8.065400000000000000e+04 2.162700000000000000e+04 2.162800000000000000e+04 2.192900000000000000e+04 8.126100000000000000e+04 2.193100000000000000e+04 8.066900000000000000e+04 2.133400000000000000e+04 8.067000000000000000e+04 8.067500000000000000e+04 2.133700000000000000e+04 2.163800000000000000e+04 8.068100000000000000e+04 2.134000000000000000e+04 2.134100000000000000e+04 8.068400000000000000e+04 2.164200000000000000e+04 2.164300000000000000e+04 2.164400000000000000e+04 8.069500000000000000e+04 8.069700000000000000e+04 2.134800000000000000e+04 8.069800000000000000e+04 2.164900000000000000e+04 8.130100000000000000e+04 2.195100000000000000e+04 8.130500000000000000e+04 2.165300000000000000e+04 2.165400000000000000e+04 2.135600000000000000e+04 8.071400000000000000e+04 2.135800000000000000e+04 8.071800000000000000e+04 2.195900000000000000e+04 2.196000000000000000e+04 8.072700000000000000e+04 8.072900000000000000e+04 2.136400000000000000e+04 2.136500000000000000e+04 2.136600000000000000e+04 2.166700000000000000e+04 8.073900000000000000e+04 2.136900000000000000e+04 8.074000000000000000e+04 2.137100000000000000e+04 2.137200000000000000e+04 8.134600000000000000e+04 8.134800000000000000e+04 2.167500000000000000e+04 8.135200000000000000e+04 2.167700000000000000e+04 8.135600000000000000e+04 2.167900000000000000e+04 2.168000000000000000e+04 8.076500000000000000e+04 2.138200000000000000e+04 8.076600000000000000e+04 2.168300000000000000e+04 2.168400000000000000e+04 8.077500000000000000e+04 2.138700000000000000e+04 2.168800000000000000e+04 2.138900000000000000e+04 2.168900000000000000e+04 8.138100000000000000e+04 8.138400000000000000e+04 8.138600000000000000e+04 2.169400000000000000e+04 2.139500000000000000e+04 2.169500000000000000e+04 2.139700000000000000e+04 8.079600000000000000e+04 2.169800000000000000e+04 2.169900000000000000e+04 2.170000000000000000e+04 2.170100000000000000e+04 2.170300000000000000e+04 2.170400000000000000e+04 8.081300000000000000e+04 2.170600000000000000e+04 2.170700000000000000e+04 8.141600000000000000e+04 2.200800000000000000e+04 2.171000000000000000e+04 8.082500000000000000e+04 2.141200000000000000e+04 8.082600000000000000e+04 8.082800000000000000e+04 2.141500000000000000e+04 8.083200000000000000e+04 2.171700000000000000e+04 8.083900000000000000e+04 2.141900000000000000e+04 8.084000000000000000e+04 2.172000000000000000e+04 8.084400000000000000e+04 2.172200000000000000e+04 2.202300000000000000e+04 2.202400000000000000e+04 8.145100000000000000e+04 8.145300000000000000e+04 2.172800000000000000e+04 8.145800000000000000e+04 2.173000000000000000e+04 2.203000000000000000e+04 2.173100000000000000e+04 2.173300000000000000e+04 2.173400000000000000e+04 8.147000000000000000e+04
8.003900000000000000e+04 2.071900000000000000e+04 8.004000000000000000e+04 8.004500000000000000e+04 2.072200000000000000e+04 8.004900000000000000e+04 2.072400000000000000e+04 8.005000000000000000e+04 2.102500000000000000e+04 8.005400000000000000e+04 2.102700000000000000e+04 2.132800000000000000e+04 8.065900000000000000e+04 2.103000000000000000e+04 8.066300000000000000e+04 2.073300000000000000e+04 8.007100000000000000e+04 2.073500000000000000e+04 8.007200000000000000e+04 2.103700000000000000e+04 8.007900000000000000e+04 2.073900000000000000e+04 2.104000000000000000e+04 2.074100000000000000e+04 8.008400000000000000e+04 2.104200000000000000e+04 8.068700000000000000e+04 8.068900000000000000e+04 2.074600000000000000e+04 8.009700000000000000e+04 2.074800000000000000e+04 8.009800000000000000e+04 2.104900000000000000e+04 8.070100000000000000e+04 2.135100000000000000e+04 8.070500000000000000e+04 2.135300000000000000e+04 8.070900000000000000e+04 8.011500000000000000e+04 2.075700000000000000e+04 8.011600000000000000e+04 2.075900000000000000e+04 8.012000000000000000e+04 8.012200000000000000e+04 2.106200000000000000e+04 2.106300000000000000e+04 2.106400000000000000e+04 2.106500000000000000e+04 2.106600000000000000e+04 2.106700000000000000e+04 8.073600000000000000e+04 2.106900000000000000e+04 8.014300000000000000e+04 2.077100000000000000e+04 2.077200000000000000e+04 8.014600000000000000e+04 8.015100000000000000e+04 8.015300000000000000e+04 2.107600000000000000e+04 2.137600000000000000e+04 2.107700000000000000e+04 2.137800000000000000e+04 8.076000000000000000e+04 2.138000000000000000e+04 2.108200000000000000e+04 8.016900000000000000e+04 2.078400000000000000e+04 8.017000000000000000e+04 8.017200000000000000e+04 2.108700000000000000e+04 8.017900000000000000e+04 2.078900000000000000e+04 2.079000000000000000e+04 2.109000000000000000e+04 8.018400000000000000e+04 8.018900000000000000e+04 8.019100000000000000e+04 2.079500000000000000e+04 8.019200000000000000e+04 2.109600000000000000e+04 2.109700000000000000e+04 2.109800000000000000e+04 8.079900000000000000e+04 2.140000000000000000e+04 8.080300000000000000e+04 8.080500000000000000e+04 8.080800000000000000e+04 8.081000000000000000e+04 2.110600000000000000e+04 8.081400000000000000e+04 2.140700000000000000e+04 2.140800000000000000e+04 2.111000000000000000e+04 8.082200000000000000e+04 2.111200000000000000e+04 8.022900000000000000e+04 2.081400000000000000e+04 8.023000000000000000e+04 2.081600000000000000e+04 8.023400000000000000e+04 8.023900000000000000e+04 2.081900000000000000e+04 8.024000000000000000e+04 2.112000000000000000e+04 8.084300000000000000e+04 2.112200000000000000e+04 8.084700000000000000e+04 2.112400000000000000e+04 8.025500000000000000e+04 2.082700000000000000e+04 2.082800000000000000e+04 8.025800000000000000e+04 2.142900000000000000e+04 2.113100000000000000e+04 2.143100000000000000e+04 2.113200000000000000e+04 8.086800000000000000e+04 2.113500000000000000e+04 2.143500000000000000e+04
2.041900000000000000e+04 2.012000000000000000e+04 7.944500000000000000e+04 2.012200000000000000e+04 2.012300000000000000e+04 2.012400000000000000e+04 7.945000000000000000e+04 2.042500000000000000e+04 8.005300000000000000e+04 2.042700000000000000e+04 8.005700000000000000e+04 2.042900000000000000e+04 2.073000000000000000e+04 8.006300000000000000e+04 2.043300000000000000e+04 7.947100000000000000e+04 2.013500000000000000e+04 2.013600000000000000e+04 2.043600000000000000e+04 2.043800000000000000e+04 2.043900000000000000e+04 7.948300000000000000e+04 2.044100000000000000e+04 7.948700000000000000e+04 2.014300000000000000e+04 7.948800000000000000e+04 2.044500000000000000e+04 7.949500000000000000e+04 2.014700000000000000e+04 2.014800000000000000e+04 7.949800000000000000e+04 2.044900000000000000e+04 2.015100000000000000e+04 7.950400000000000000e+04 7.950600000000000000e+04 2.015400000000000000e+04 2.015500000000000000e+04 2.015600000000000000e+04 2.045700000000000000e+04 2.015800000000000000e+04 2.015900000000000000e+04 7.952000000000000000e+04 2.046000000000000000e+04 2.046100000000000000e+04 2.046200000000000000e+04 2.046400000000000000e+04 8.013000000000000000e+04 2.076500000000000000e+04 8.013400000000000000e+04 2.076700000000000000e+04 2.076800000000000000e+04 8.014000000000000000e+04 2.047100000000000000e+04 2.047200000000000000e+04 7.954900000000000000e+04 2.017400000000000000e+04 7.955000000000000000e+04 2.047600000000000000e+04 8.015400000000000000e+04 2.077700000000000000e+04 8.015700000000000000e+04 2.077900000000000000e+04 8.016100000000000000e+04 2.078100000000000000e+04 2.048300000000000000e+04 2.048400000000000000e+04 7.957300000000000000e+04 2.018600000000000000e+04 7.957400000000000000e+04 7.957900000000000000e+04 2.048900000000000000e+04 2.049000000000000000e+04 7.958500000000000000e+04 2.019200000000000000e+04 7.958600000000000000e+04 2.049400000000000000e+04 2.049500000000000000e+04 7.959500000000000000e+04 2.019700000000000000e+04 2.079700000000000000e+04 2.079800000000000000e+04 8.019900000000000000e+04 2.080000000000000000e+04 8.020300000000000000e+04 2.020300000000000000e+04 2.020400000000000000e+04 7.961000000000000000e+04 2.050600000000000000e+04 8.021400000000000000e+04 2.080700000000000000e+04 2.050900000000000000e+04 2.051000000000000000e+04 8.022200000000000000e+04 2.081100000000000000e+04 8.022600000000000000e+04 2.051400000000000000e+04 7.963300000000000000e+04 2.021600000000000000e+04 7.963400000000000000e+04 2.021800000000000000e+04 2.021900000000000000e+04 7.964000000000000000e+04 2.052000000000000000e+04 8.024300000000000000e+04 2.082200000000000000e+04 8.024700000000000000e+04 2.052400000000000000e+04 8.025100000000000000e+04 7.965700000000000000e+04 2.022800000000000000e+04 2.022900000000000000e+04 7.966000000000000000e+04 7.966200000000000000e+04 8.026400000000000000e+04 2.083200000000000000e+04 8.026700000000000000e+04 2.053500000000000000e+04 8.027200000000000000e+04 2.083600000000000000e+04
1.952000000000000000e+04 1.952100000000000000e+04 1.952200000000000000e+04 7.884600000000000000e+04 1.982300000000000000e+04 1.982400000000000000e+04 1.982500000000000000e+04 7.945300000000000000e+04 2.012700000000000000e+04 1.982800000000000000e+04 2.012900000000000000e+04 7.946100000000000000e+04 1.983100000000000000e+04 1.983200000000000000e+04 1.983400000000000000e+04 1.983500000000000000e+04 1.983600000000000000e+04 7.887700000000000000e+04 1.953800000000000000e+04 7.887800000000000000e+04 1.954000000000000000e+04 1.984100000000000000e+04 7.948400000000000000e+04 1.984300000000000000e+04 1.954400000000000000e+04 1.984400000000000000e+04 7.889500000000000000e+04 1.954700000000000000e+04 7.889600000000000000e+04 1.984800000000000000e+04 1.984900000000000000e+04 7.950100000000000000e+04 1.985100000000000000e+04 1.985200000000000000e+04 1.955400000000000000e+04 1.955500000000000000e+04 1.955600000000000000e+04 1.955700000000000000e+04 1.955800000000000000e+04 7.891800000000000000e+04 1.985900000000000000e+04 1.986000000000000000e+04 1.956200000000000000e+04 1.956300000000000000e+04 1.956400000000000000e+04 7.893000000000000000e+04 2.016500000000000000e+04 7.953400000000000000e+04 2.016700000000000000e+04 7.953800000000000000e+04 2.016900000000000000e+04 2.017000000000000000e+04 7.954400000000000000e+04 2.017200000000000000e+04 1.987400000000000000e+04 7.895300000000000000e+04 1.957600000000000000e+04 7.955400000000000000e+04 2.017700000000000000e+04 7.955700000000000000e+04 1.987900000000000000e+04 7.896200000000000000e+04 1.988200000000000000e+04 1.988300000000000000e+04 7.956800000000000000e+04 2.018400000000000000e+04 1.988600000000000000e+04 7.897700000000000000e+04 1.958800000000000000e+04 1.988900000000000000e+04 7.958000000000000000e+04 2.019000000000000000e+04 1.989200000000000000e+04 1.959300000000000000e+04 1.989300000000000000e+04 7.959000000000000000e+04 7.959200000000000000e+04 1.989700000000000000e+04 7.899900000000000000e+04 1.959900000000000000e+04 7.900000000000000000e+04 1.990000000000000000e+04 7.900700000000000000e+04 1.960300000000000000e+04 1.960400000000000000e+04 7.901000000000000000e+04 1.990500000000000000e+04 7.961400000000000000e+04 2.020700000000000000e+04 2.020800000000000000e+04 7.962000000000000000e+04 1.991100000000000000e+04 2.021100000000000000e+04 1.991200000000000000e+04 1.991400000000000000e+04 7.963000000000000000e+04 1.991600000000000000e+04 7.903700000000000000e+04 1.961800000000000000e+04 7.903800000000000000e+04 1.991900000000000000e+04 1.992000000000000000e+04 1.992100000000000000e+04 7.904600000000000000e+04 2.022300000000000000e+04 2.022400000000000000e+04 7.965100000000000000e+04 7.905700000000000000e+04 7.905900000000000000e+04 1.962900000000000000e+04 7.906000000000000000e+04 1.993000000000000000e+04 1.993100000000000000e+04 1.963300000000000000e+04 7.906800000000000000e+04 1.963500000000000000e+04 7.967200000000000000e+04 2.023600000000000000e+04 2.023700000000000000e+04
