ncols 119
nrows 32
xllcorner 1080
yllcorner 560
cellsize 10.0
4.997418913971775289e+00 4.997916903740729389e+00 4.998093156361232303e+00 5.001732551614431088e+00 5.003095976137852396e+00 4.998278097953490651e+00 4.999584183489889533e+00 4.997761502071670137e+00 5.002263894459499483e+00 4.996663739778533397e+00 4.997211954162266601e+00 4.997829097092568951e+00 4.990634598887861983e+00 4.996973436578819872e+00 4.997697674362008513e+00 4.997326733700064416e+00 5.000151382642099129e+00 4.998202761648968817e+00 5.003082623556728947e+00 4.996170807472487319e+00 4.998348824193139528e+00 4.964890160929829932e+00 4.998519692220511956e+00 4.997692553662391290e+00 4.997290138572785700e+00 4.997640710747538684e+00 5.002604729982750520e+00 4.997298987527642566e+00 4.997607406242257078e+00 4.998554708514156175e+00 4.997504146327170105e+00 4.989347926871013250e+00 5.003126448704771967e+00 4.997697673286793041e+00 4.997461296674543085e+00 4.998407813162277336e+00 5.002494717306276151e+00 4.992737253580630252e+00 4.997702081344836955e+00 4.997887474999484603e+00 5.000207418431409145e+00 4.998020351344592882e+00 5.000196664927154977e+00 5.000132769559401780e+00 4.996428675850217438e+00 5.002197253738941640e+00 5.003654315192290092e+00 4.997697604971483187e+00 4.998464653155655135e+00 4.997496169696638013e+00 4.993450075278112799e+00 5.001643682338361430e+00 4.997597090587929003e+00 4.995548704753701053e+00 5.000182324987261673e+00 5.000824524685421935e+00 5.001658571251316410e+00 4.996905799406219373e+00 4.997341203783854269e+00 5.001122348398493678e+00 5.000951612033635030e+00 4.998002753714120949e+00 5.002968590342952382e+00 4.995594030516460116e+00 4.997941645919310893e+00 4.998656692109626043e+00 4.998204431505604894e+00 4.998659961850058231e+00 4.997233805456370526e+00 5.002728943566039810e+00 4.998519525176885914e+00 4.998350694030803787e+00 5.002422387557405870e+00 5.002160020771158955e+00 4.959282175765365785e+00 5.003216351438639187e+00 4.995630366182686188e+00 5.004890762264917470e+00 4.996238990572884120e+00 5.000359634326052571e+00 4.997746265737100124e+00 4.995986922844988243e+00 4.999183592501187157e+00 4.999196117030690445e+00 4.997356100903513010e+00 5.002545424504757143e+00 4.996553774068672737e+00 4.998097273882904368e+00 5.002717463898649797e+00 4.996881802326258004e+00 5.002279936501418334e+00 4.999965040527381888e+00 5.002984828656742877e+00 4.996340007879883416e+00 4.996237953915384722e+00 4.994407081717962882e+00 5.003028531773400012e+00 4.997037849454348368e+00 4.997039617752654372e+00 4.997151244776133261e+00 5.001073560754040415e+00 4.998620198804773374e+00 4.993029841042559980e+00 4.996821956866753567e+00 4.997481519162947805e+00 5.000184945783543000e+00 4.997574517096516011e+00 4.997024209273387640e+00 5.000529596370375529e+00 4.998492778395482006e+00 4.997405149063643748e+00 4.997275400759629171e+00 4.999450624817962208e+00 5.001111786147950156e+00 4.878986244551109408e+00 4.997016675909208949e+00 5.001777794023251289e+00 4.999842991083299992e+00 4.996548828468974079e+00
4.999425593976035920e+00 4.997541884195624284e+00 4.997490170299961676e+00 4.997996866372560021e+00 4.973962826144465943e+00 5.001092694404212224e+00 4.997731100334333654e+00 5.001857579900147677e+00 4.998326603466491491e+00 4.999642893076813088e+00 5.001502818254516036e+00 4.999330859327748122e+00 4.997410103662912384e+00 4.999457819525907176e+00 4.999653362055742178e+00 4.995560024512258224e+00 4.996376211784607335e+00 5.001206674618479120e+00 4.997981221848814215e+00 4.998482488499379706e+00 4.997934456164795591e+00 4.973098136938737923e+00 4.998561098978298922e+00 4.996817694847117686e+00 4.997436550897276675e+00 4.998299691317825477e+00 4.997141015480436543e+00 4.998067017547410451e+00 4.997251721191659612e+00 4.966484098967156591e+00 5.003360307047870492e+00 4.996708071663986672e+00 4.998626212801711155e+00 5.003529120048993306e+00 4.983662600031767198e+00 5.002492521402066572e+00 5.002943335822565452e+00 4.996416468918511100e+00 5.001525283866626204e+00 4.998259010018180071e+00 4.998838791203109366e+00 4.995761616189131615e+00 4.996776145204822939e+00 5.002106796311497128e+00 4.997441338125046428e+00 4.967897298936891914e+00 5.002768881136969270e+00 5.002277477945303197e+00 5.000410969380446602e+00 4.997489157513367530e+00 4.998730692939421516e+00 5.001288291223901616e+00 4.997450760415540927e+00 5.002016048116681546e+00 4.997740856936962572e+00 4.995970599929753675e+00 4.990924502089749026e+00 4.999316249090597353e+00 4.997507144426320380e+00 4.997818592313093333e+00 4.997748841181479662e+00 4.989259283749855278e+00 4.998750025780211104e+00 4.994414214451524892e+00 5.002240816684609293e+00 4.996100585613118206e+00 5.002104283749368108e+00 4.997357540255164210e+00 4.997056467195041485e+00 4.998711012659262209e+00 4.998410735636454660e+00 5.000971685948740308e+00 4.997423529014228372e+00 5.001981450695566878e+00 4.998832968801884213e+00 4.998757222826624158e+00 4.983387681074958664e+00 4.996376900228254314e+00 4.921879346670927191e+00 4.998476450815397598e+00 4.996899081389086561e+00 5.001688387743399744e+00 4.997601669322072837e+00 4.999580652132619818e+00 4.998602454107622606e+00 4.996349400412053221e+00 5.000561448742032233e+00 4.998697202188928657e+00 5.000742373316126255e+00 4.979736477736205202e+00 5.003058870286776205e+00 4.996385273645142178e+00 5.003329343489526515e+00 5.003461291273208822e+00 4.974479381165427760e+00 4.997515858317399307e+00 5.001651644988802659e+00 4.997620243631546444e+00 4.998918574672644333e+00 4.998299683705297092e+00 4.996987915089090571e+00 5.003788335127802078e+00 4.983663056357887200e+00 5.002967545919441150e+00 5.003207031050882492e+00 4.997654856573592319e+00 5.003352679446488871e+00 4.987711170760196211e+00 4.999145185866479935e+00 4.996484825962726362e+00 5.001951650895264834e+00 4.998306893093774406e+00 4.999013610027716936e+00 4.996757396007885710e+00 5.004214217134645537e+00 5.001814595269935104e+00 4.997923234183087260e+00 4.997793814824710523e+00 5.003654030673588160e+00
5.001548012940268073e+00 4.998679081256597101e+00 4.997542193073389427e+00 5.003222880005276707e+00 4.998411762551499216e+00 5.002342645618389483e+00 4.997570021201648061e+00 4.998459511928987631e+00 4.999017803891327105e+00 4.997928386902445119e+00 5.001969796629675891e+00 5.001469074712015406e+00 4.998449692260766852e+00 4.998528353046623351e+00 5.000004210648541836e+00 5.003299397028318829e+00 4.996273466997938506e+00 4.998278256286833532e+00 4.996278925600669218e+00 4.996619173614611498e+00 4.998191082592783552e+00 4.986448716075564391e+00 5.003891309330631643e+00 4.997084612384583124e+00 4.999508489549324253e+00 4.997037216900798384e+00 4.997784534127814204e+00 4.996291653974302527e+00 5.003816572020604703e+00 4.995372655647224214e+00 4.998304538219284332e+00 4.997123449156183561e+00 4.997518801442131675e+00 4.996271699130134358e+00 5.001912669138597778e+00 4.996398524499368499e+00 4.996207776140526136e+00 4.996165490079141236e+00 4.998338456138424313e+00 4.999170051989554331e+00 4.999139552554983545e+00 5.001771501104212092e+00 4.990538430207770659e+00 4.992804867539366143e+00 5.003283582518955441e+00 4.996603730401342425e+00 4.997852555392143792e+00 4.998942316425837973e+00 5.003065106883620494e+00 4.999149846483565085e+00 4.997831590887876985e+00 4.999442148167495326e+00 4.997867175026755149e+00 4.998341434627278979e+00 5.001362753003697037e+00 5.000607291240708463e+00 4.998564963336722400e+00 4.999074301670724196e+00 4.996647817144583392e+00 4.998784666233142993e+00 5.003430301793631685e+00 4.996840299103901373e+00 4.999618619388796148e+00 4.998866371208553261e+00 5.000536042516123381e+00 4.997237284866206330e+00 5.003254107905459769e+00 4.998713863614016262e+00 5.002165818060157143e+00 4.998146603978208979e+00 4.998434149650511138e+00 5.000752570433718347e+00 5.002007839565137282e+00 4.997508672938028695e+00 4.998047254084862168e+00 5.000559506284158573e+00 4.874378008214137914e+00 5.004666441588244474e+00 5.003076157230162302e+00 4.996031717580230236e+00 4.998181359621583830e+00 5.000609842951675432e+00 4.997562482082745561e+00 4.998911406472789309e+00 4.998698377439646734e+00 5.002431963359910583e+00 4.998610424222936999e+00 4.998820613462118700e+00 4.998355185197625339e+00 4.999010828619048219e+00 4.997841078205470744e+00 5.003275713860776186e+00 4.997093618984236763e+00 4.998852081653891943e+00 4.997455451956670736e+00 4.997580608889253817e+00 4.997294301316152598e+00 4.998238622021276001e+00 4.998310577189561066e+00 5.000745640807350512e+00 4.998298253115246226e+00 4.995452097122336177e+00 4.998253670177106756e+00 4.996659103866868179e+00 4.997656208768202823e+00 4.998080284814339080e+00 5.003065619111995765e+00 4.997278897401269404e+00 4.997019605281023402e+00 4.997595898599101361e+00 5.000164327421102506e+00 4.994855186071579745e+00 4.996037819415114711e+00 4.997064195741395487e+00 4.877231372113755903e+00 4.997501023091583505e+00 4.996891202517860897e+00 4.999962107277330148e+00 4.997888930614639236e+00
4.995863880583224947e+00 4.995400326332535279e+00 4.970965556002113317e+00 4.996737127732534312e+00 4.998751473623837427e+00 4.998707456245960579e+00 4.996367168352295884e+00 4.998900344267280360e+00 4.997265668648365633e+00 4.996545193028648413e+00 5.002424250267824668e+00 5.002415480029788419e+00 4.996049593694394275e+00 4.996088473397224838e+00 4.997450365715236487e+00 4.995615453327815203e+00 4.999888440730146044e+00 4.995578589730447661e+00 5.003271593104329895e+00 5.003119499949796101e+00 4.996502338521037423e+00 4.998195439146860153e+00 4.995934248024958890e+00 4.973972201425769235e+00 4.996375996628550809e+00 5.002319220654088738e+00 4.998045703007289120e+00 5.001953033710886842e+00 4.981870429259293687e+00 5.001973819634035756e+00 5.000227762786734864e+00 5.000920580059260878e+00 4.998064798401479436e+00 4.998773273301557296e+00 5.001542861693740960e+00 4.997323423671025111e+00 4.996955238052213311e+00 4.997788900113582677e+00 5.002169815072517345e+00 4.998321595281514540e+00 4.997851185114686068e+00 5.003445598778739623e+00 4.996723178536950805e+00 4.997133789432352202e+00 5.002669870836156996e+00 4.997541483283680641e+00 4.998554579483735161e+00 4.998395328478899557e+00 4.997717310516915035e+00 4.983513797865404271e+00 5.002788660565151702e+00 5.002279827237899212e+00 4.995607981911050821e+00 4.998277631353926331e+00 5.002698443716732335e+00 4.997991026697353512e+00 4.991488432957314814e+00 5.002911323206221894e+00 4.998613307174000653e+00 5.003053960251862442e+00 4.996391925960956826e+00 4.998214500524921888e+00 4.999028310059824065e+00 4.998171402831260934e+00 4.997313633893563534e+00 4.998758146213315712e+00 4.992834653079359697e+00 4.998834531711595197e+00 4.996936493332186480e+00 4.996337730193459947e+00 5.001912021569362210e+00 5.002291504783518583e+00 4.997396009122680560e+00 4.996347546259656269e+00 5.004614272745606662e+00 4.991447565368635431e+00 4.998841132547073407e+00 4.998156741927111568e+00 4.995942274079410161e+00 4.994186004376045318e+00 5.000656686260414929e+00 4.997968149353045675e+00 4.996509270408242998e+00 5.002043387396482466e+00 4.998812989866489254e+00 5.002004640617015774e+00 4.997400437107247129e+00 5.001184462292682653e+00 4.998496912881529752e+00 4.998799130499499199e+00 4.997554491259979415e+00 5.000065006206114937e+00 4.967118676710693848e+00 4.999917232205194573e+00 4.996786928279334461e+00 4.998824339509994275e+00 4.999540599808679708e+00 4.996947296022130836e+00 5.001646131922480087e+00 4.998524592601283345e+00 5.002416087707256764e+00 4.995629902563826441e+00 4.998058035088531526e+00 4.996157942014344933e+00 4.996664292504767957e+00 4.998625057348255574e+00 4.995726858223548561e+00 4.997835326166809367e+00 5.002676150125919818e+00 4.996575693463070067e+00 4.997288663376599160e+00 4.996532155441545164e+00 5.003096694384515430e+00 5.002738668842842351e+00 4.999486653043081930e+00 5.003896775244956352e+00 4.993402055051521238e+00 5.001495219224004529e+00 4.997185560866023835e+00
4.998398125374175827e+00 5.003475573012924116e+00 4.996108332384968875e+00 5.001617060107981239e+00 5.001597112957086644e+00 5.000682438938198970e+00 4.999061089714396999e+00 4.997414205158836609e+00 5.001519208879629197e+00 4.998166874556934758e+00 4.999607622972304988e+00 4.998056673562108365e+00 4.996138806636067464e+00 5.003594481505960090e+00 4.997412006696897890e+00 4.998658445957452123e+00 5.000555833099641134e+00 4.997057638763379828e+00 5.002207112851159820e+00 4.995784624478665670e+00 4.998991802339454615e+00 5.004266505972728041e+00 4.997429354452489036e+00 4.991588756710381602e+00 4.999507308974481923e+00 4.997920761501056575e+00 4.998683353081519343e+00 5.003478154889024587e+00 5.001639120784806103e+00 4.996747127068102756e+00 5.000853351362028576e+00 4.995955133636059031e+00 5.002112393966626769e+00 4.995514383159169292e+00 4.998021579318243646e+00 5.000918174860949250e+00 5.001917533900919643e+00 4.997528193790515161e+00 5.002792761738580118e+00 4.996161939785164208e+00 4.968517353122562596e+00 4.996573358460365988e+00 4.996981491353256644e+00 5.000596789426142941e+00 4.997000530179662725e+00 4.999794887881601646e+00 4.996815755484821153e+00 4.999543062350551459e+00 4.998148806906890229e+00 4.997692971234062753e+00 4.999188743101391275e+00 5.002939198588356895e+00 4.998244813875711401e+00 4.995317080888055372e+00 4.983492817230055216e+00 4.996467767736635146e+00 5.000243939320311526e+00 4.997964135517318773e+00 4.997812008412251927e+00 5.000523463625002663e+00 4.999259919799620810e+00 5.000019791926596291e+00 5.002820772836652274e+00 4.995711524550133120e+00 5.002947626421746286e+00 4.997870023986209276e+00 4.998894358852094655e+00 4.999337350892821163e+00 4.999006112063922203e+00 4.998754601766633776e+00 4.994868960488768828e+00 4.996636278074222837e+00 4.996221550016957558e+00 5.004710796492833680e+00 4.996848205086190653e+00 4.998105987228762537e+00 4.999992781780558282e+00 4.996634443583625185e+00 5.003411785974439141e+00 5.000432920725251584e+00 4.997395326702388729e+00 4.999418011234322279e+00 4.996323157446180829e+00 4.994002068144105522e+00 4.996835551809049036e+00 4.999856126685092050e+00 5.003361556721895198e+00 5.000755599599963297e+00 4.997288750034632798e+00 5.000190009805419500e+00 4.997738684132364995e+00 4.997611859875928708e+00 4.996699864986612560e+00 5.003589451450388026e+00 4.995742778347141311e+00 4.998525776480000182e+00 4.996180529534352210e+00 4.997365941941668055e+00 4.996776897180567723e+00 4.989516391078606894e+00 4.998002709996512749e+00 4.997966297914556044e+00 4.997162388818745526e+00 5.003147259448542883e+00 5.002471338694012282e+00 4.997380246797057168e+00 4.996815624179303583e+00 4.999456556259072926e+00 5.001619894071478001e+00 4.998452443186235605e+00 4.996152700642446653e+00 4.998469170753833346e+00 4.998955436089608462e+00 4.996858411936997868e+00 4.995913248563693898e+00 5.003992695337070806e+00 5.003216146410496279e+00 4.997074280043904082e+00 4.995790170410462139e+00
5.003213646187280261e+00 4.999278861197392843e+00 5.001150056929660082e+00 4.997771025402900413e+00 5.001621576909891509e+00 4.995756345783272323e+00 4.998349614899937343e+00 4.998393605741997092e+00 4.997267027070357415e+00 4.996851367706637959e+00 4.997734679990461615e+00 4.998706535221306702e+00 4.998135801891240071e+00 4.999812908596118710e+00 4.995708034755957705e+00 4.998485031296261205e+00 4.995360297262791960e+00 4.996936231879661072e+00 4.996602799739404688e+00 4.998647263567111310e+00 4.995747271926607169e+00 4.999076340759113002e+00 4.996688070119053471e+00 4.998130147376947718e+00 4.975777916603689732e+00 4.997330329999677190e+00 4.981301310614099087e+00 5.001362576861035691e+00 5.001862274442231637e+00 4.996646544602698192e+00 4.999938597631818915e+00 5.001023909116309341e+00 4.999703501907646341e+00 4.997830532441431828e+00 4.999334525887880964e+00 4.997299094835808475e+00 4.998487874476188253e+00 4.998523005722069534e+00 4.996968183346101711e+00 4.997925029108022166e+00 5.003598315425310084e+00 5.001732958982338495e+00 4.999106036021288446e+00 4.996813270921482086e+00 4.999961874830409769e+00 4.997657800357887758e+00 4.997216336694285665e+00 5.000515305118140574e+00 4.995667196200435534e+00 5.003571316718922191e+00 4.996412687048031209e+00 4.997735739502574326e+00 5.003120830651972106e+00 5.003278978477355032e+00 4.996540288801213592e+00 4.999176217306479764e+00 4.997303222774943876e+00 4.997223513788506821e+00 4.997065445426287944e+00 4.998201381991511205e+00 4.997564125191185980e+00 4.985754207108763048e+00 4.992097380195221312e+00 4.997563112721182144e+00 4.997701132096459276e+00 5.003533210586289748e+00 4.995840920767463444e+00 4.998669465003629853e+00 5.001468445759220671e+00 4.998085918527305438e+00 5.001747019406273864e+00 4.996757936704356418e+00 4.928253614402237304e+00 4.997297786846679912e+00 4.998609539984048666e+00 4.998135812379395304e+00 4.997142758497717274e+00 4.996661894203739074e+00 4.998100961874605730e+00 5.001476031813284706e+00 4.996739974983942290e+00 4.998454829567140933e+00 5.001915680633810091e+00 5.003754765653749104e+00 4.934729010306345032e+00 4.998278611928101967e+00 4.998988378928461707e+00 5.003560282356280808e+00 4.997660926790270963e+00 4.996834941615944103e+00 4.996921149867035616e+00 5.002685719432060196e+00 5.003532162307037900e+00 4.996559867779293285e+00 5.000816346110578792e+00 4.997321925330703962e+00 5.001603350257602720e+00 5.000709996252655998e+00 5.003582696099647009e+00 4.996977571818865371e+00 4.997376509827500257e+00 4.997428137051447727e+00 4.996330890151184256e+00 5.002526627777538870e+00 4.998616321560169773e+00 4.997696068020808013e+00 4.997684525089992391e+00 4.996148638726524815e+00 4.996303326781468712e+00 4.998677534357469199e+00 5.002895213627590820e+00 4.997891741505712915e+00 5.001142994791424101e+00 5.000497502029133123e+00 4.998089860261047512e+00 5.004077935971984026e+00 4.998186606410262911e+00 4.994664566218884438e+00 5.003452988282402814e+00
5.001962440297908152e+00 5.002212940093168747e+00 5.003533022947170394e+00 4.995848633637089087e+00 4.999472942606110415e+00 5.001006007677071707e+00 4.996222335613804688e+00 5.000123295699758330e+00 4.997937186122839215e+00 5.002383665008544256e+00 4.998571121244530957e+00 4.996549600662598678e+00 5.001733821875505193e+00 4.950875184470730161e+00 5.003924752177616675e+00 4.953671729396257106e+00 5.004069673363055415e+00 5.004045043294473416e+00 4.997630364555913474e+00 4.997614097062840877e+00 4.949807848389278675e+00 5.002520714759851828e+00 4.996044712133437038e+00 4.996875020133430212e+00 4.997976243918031081e+00 5.003584106976152412e+00 4.998804954166080172e+00 4.999035202134144207e+00 4.997559996299616891e+00 4.999396265923536475e+00 4.999236532851098147e+00 5.002445781575737271e+00 4.997808355597202379e+00 4.994925263154894601e+00 5.000925388747922362e+00 4.997271949558010462e+00 4.997231293902570926e+00 5.001614193779468920e+00 4.998382940056962376e+00 5.000528633323571448e+00 4.998216818918253423e+00 4.980662673290952469e+00 4.998183086063106018e+00 5.002313022036898538e+00 4.989750611651332157e+00 4.997407921663516994e+00 4.999150531595537572e+00 4.998280789390062040e+00 4.995723413275780622e+00 5.000845726382182832e+00 4.996430570064720911e+00 4.999782858751185444e+00 4.996958802815356648e+00 4.997612971770127643e+00 4.998934591660827209e+00 4.998398539925030803e+00 4.999712381256594007e+00 5.002068299163249243e+00 5.000716642827814695e+00 4.999255823787090769e+00 5.001286225706296662e+00 4.997179680301554683e+00 4.996526589012507458e+00 5.000682424698703166e+00 4.997608706949348445e+00 4.997379767797454519e+00 4.994859492566566139e+00 4.999702797164534473e+00 4.997919025836129236e+00 4.998621836974809440e+00 4.998386310616812267e+00 4.999370989507347929e+00 4.998262662275273271e+00 4.992178504955883334e+00 5.004463359526196697e+00 4.996587018535585401e+00 5.000236114612618188e+00 4.998719528577918680e+00 4.996865586749680510e+00 4.998411735223391439e+00 4.999230144121766806e+00 4.996895297308957318e+00 5.003685196018240688e+00 4.996627612558754095e+00 4.996727934258756498e+00 4.998665638625393370e+00 5.002541353496131826e+00 4.998273687398334886e+00 4.987031184357491931e+00 4.996027986717064273e+00 4.997615638343349431e+00 4.984137380206362877e+00 4.997134645818340992e+00 4.998682875443728690e+00 4.998328821423471346e+00 4.996480965045297040e+00 5.001959379880289269e+00 5.002793336559476778e+00 4.999331939754774190e+00 4.998476503235937507e+00 4.997137722699373619e+00 5.002557835603868241e+00 4.998425019057002316e+00 4.999265588859811871e+00 4.995842761698138901e+00 4.998386261776598616e+00 4.999300612154549128e+00 5.002532699056342125e+00 5.001820882764221210e+00 4.995914183702605982e+00 4.998726792203377123e+00 4.996508532250000911e+00 4.998546451702442717e+00 5.000426787419331554e+00 4.942588477175359429e+00 4.995804047721598806e+00 4.996791461234122877e+00 5.002697571852376512e+00 4.995482449445105111e+00
4.996736257109401613e+00 4.997519905958764497e+00 4.995352566590621990e+00 4.998863279238009660e+00 5.002199536988983120e+00 5.000944014347974864e+00 4.996728794709774490e+00 4.997723539423284400e+00 4.997456759968695650e+00 5.000090289274165656e+00 4.995543088051284997e+00 5.001444136486792758e+00 5.003569012453913167e+00 4.998621203776098199e+00 4.996901618683543767e+00 4.999356512086724713e+00 4.997350193344650471e+00 5.002564203481074223e+00 4.981234820081011705e+00 5.004004805667753963e+00 5.002038927692090908e+00 4.997861441854635878e+00 4.998379995207474558e+00 5.002423297845854044e+00 5.001186693608527634e+00 4.996027374203222848e+00 4.990247651766291703e+00 4.997433889859491885e+00 4.998174639454271428e+00 4.984038056096474989e+00 5.002258856019408562e+00 4.997814573221553758e+00 4.996776962688998402e+00 4.999240602562563751e+00 4.997043924567141637e+00 4.999534000125640532e+00 4.995862206171858055e+00 4.998985213112792536e+00 4.993943658983174494e+00 5.002263028422759383e+00 4.996320342379520163e+00 4.996887638996607706e+00 5.003691542357143973e+00 5.003561064703695216e+00 4.996034633243742640e+00 5.002628444220191817e+00 4.996327482021144739e+00 4.997530078434043510e+00 5.003190135260084936e+00 4.996801147469362547e+00 4.997918796774064809e+00 4.995236087973051298e+00 4.997946590370426989e+00 4.997994052810387444e+00 4.998800713425524123e+00 4.999112994047009373e+00 4.996235280652137511e+00 4.998452866408909401e+00 4.997503161264180704e+00 4.998078608448530247e+00 4.998022417763992920e+00 5.003612204704078081e+00 4.997617697445756235e+00 5.000933848395189507e+00 4.998270119323128036e+00 4.999019995063571642e+00 4.999249441858705900e+00 4.999014939956154535e+00 4.997071901327896803e+00 4.997531800875970376e+00 4.999320283616589755e+00 4.999221794196018642e+00 4.998877949277834354e+00 4.996758237502686661e+00 4.996413386212661401e+00 5.004506866826819333e+00 4.998241139411594425e+00 4.999212873733944740e+00 4.996754793572119269e+00 4.995472044789598165e+00 4.997552247329192454e+00 4.998372942441005939e+00 5.003181110708503354e+00 4.998417758372964315e+00 4.999742925476152067e+00 4.998499258123486833e+00 4.997302528007659284e+00 5.002708222533914117e+00 5.000316751483362410e+00 4.997470829355869171e+00 5.003489447128607104e+00 5.001077721384127095e+00 4.998005456135992119e+00 5.000181882308869952e+00 4.999496511644080599e+00 4.996299504689360127e+00 4.999572737075795636e+00 4.996506867926625794e+00 4.997731277396385785e+00 4.997232549083282294e+00 5.001726263129942396e+00 4.999256561740173410e+00 5.001596974118832861e+00 4.999008971094934140e+00 4.999533153401497287e+00 4.997136017852700007e+00 5.001431158357526385e+00 5.000555648795208974e+00 5.003822908269696335e+00 4.996657125441737790e+00 4.998319026260714892e+00 4.982286504033859309e+00 4.996042012038465430e+00 5.003979508001323850e+00 5.000543870533509683e+00 5.000635203642675108e+00 4.998644432236210022e+00 4.995353101410017871e+00 4.997230079751004084e+00
4.996543751956934898e+00 4.997239244550124582e+00 4.996946659442521366e+00 4.998216808869971217e+00 4.996110417659937575e+00 4.997017459911148762e+00 5.001477505843004323e+00 4.996831896746290802e+00 4.999324892310788471e+00 5.001617691524028686e+00 4.996772679670865358e+00 4.998835430875825381e+00 4.963791811747502614e+00 4.998179754107431982e+00 5.000212347985807604e+00 4.998818253484484053e+00 4.998567782775658053e+00 4.996688915847036228e+00 4.996732436591920568e+00 5.002759309954264211e+00 5.000816348858413640e+00 4.992893157015049432e+00 4.998399605855000871e+00 4.997831086470028161e+00 4.998281972078444824e+00 4.997678525220501378e+00 5.002177257121399379e+00 5.002664419308282540e+00 5.003156046187030803e+00 4.997474219383772898e+00 4.999263842137963820e+00 4.999800302007172625e+00 5.002510780261488321e+00 4.996366038232656237e+00 4.999712471729909069e+00 5.002301160569369465e+00 5.002694554296101437e+00 4.997792403665861194e+00 4.995324397327932431e+00 5.002363952066531283e+00 4.998378299826081950e+00 5.002374268369432109e+00 4.964194511178582125e+00 4.995919157069277361e+00 4.997937176854338581e+00 4.996826381615239399e+00 4.997944541923001083e+00 4.992877283191126558e+00 5.002896675424886475e+00 5.002781475869753081e+00 4.996517370251386758e+00 5.002472295331864771e+00 5.002760232553700170e+00 4.996768614069760694e+00 4.997236430712967525e+00 5.000691154600490407e+00 4.997018890556633508e+00 4.999466196532163842e+00 4.998292711194144644e+00 5.002658732258690399e+00 5.002874024084441373e+00 4.998985082881339359e+00 4.999093648056808448e+00 4.999978439800120356e+00 4.999530071494570294e+00 4.999399428891744712e+00 4.999303453536698250e+00 4.998793750839134908e+00 4.998039668495334098e+00 5.002544625327146832e+00 4.996461310091419250e+00 4.999890005944600091e+00 4.998219222695666986e+00 4.999648731804139601e+00 4.998560777684815548e+00 4.998789491492817483e+00 4.977012362615113261e+00 4.997874560729341553e+00 5.003375066893263501e+00 5.003129853612729327e+00 4.996197883862874889e+00 4.975359808163320352e+00 4.999316701994652057e+00 4.999714722097220232e+00 4.994703448754048480e+00 5.000915842730381478e+00 5.002726921127618631e+00 4.995629389487688421e+00 5.003588030864727365e+00 4.995931593665841497e+00 4.998513393535612970e+00 4.998025515452965806e+00 4.998624639159626959e+00 4.997732512370659741e+00 4.996601300242720534e+00 5.002740497594779789e+00 4.999250823587208181e+00 4.997442087873036343e+00 4.996850454589361057e+00 5.000434415308804503e+00 4.999923613912522491e+00 5.001509989121678323e+00 4.998171069031252856e+00 4.994744976306886741e+00 5.002455946656393593e+00 4.996813155764243675e+00 5.001626214731244247e+00 4.984463984424772676e+00 4.998383215858422268e+00 4.980828732763054489e+00 4.997516845142595976e+00 4.995369883868221450e+00 5.004076331992123983e+00 4.998226137928059032e+00 5.000447294324344760e+00 4.998945758497911562e+00 5.002147226749226405e+00 5.001971452175154376e+00 4.996778125567226780e+00
5.002553010805561584e+00 5.002813857761356786e+00 5.002956145704958502e+00 4.996950703518941772e+00 4.998972273584787018e+00 4.999039494683286122e+00 4.998736850692812261e+00 4.997038719494018011e+00 4.998957624089949370e+00 5.001606987747458710e+00 4.996711265843995164e+00 5.000216122846302902e+00 4.998367558822895518e+00 4.998730191258754729e+00 4.999128372680222476e+00 4.998972619924231253e+00 4.998070533890452083e+00 5.000967023502770559e+00 4.997471187360789102e+00 4.996495988732178262e+00 4.998494370840620427e+00 4.998891820548784004e+00 4.997312237625469500e+00 4.997875791822439240e+00 5.001200086432368686e+00 4.997852594626065681e+00 4.996967210226468836e+00 5.002011989722728202e+00 4.995533890362563234e+00 4.998133468615056252e+00 4.998569181037939124e+00 4.998756022346107386e+00 4.998154411413156417e+00 4.998482481133155630e+00 4.997682512596469451e+00 4.997160372674605888e+00 4.998569951603743178e+00 4.998195355956384311e+00 4.997268453641553698e+00 5.001488175260917046e+00 4.996734435608503944e+00 4.999942095413273613e+00 4.996150872272317578e+00 5.003983071967098795e+00 5.002249441636545058e+00 4.996527603676439000e+00 5.000102070908736707e+00 4.997970564187344422e+00 5.002502066918274259e+00 5.002139845661222495e+00 4.996757942620933868e+00 5.001142558671656246e+00 4.998865409196114662e+00 4.999343164364534076e+00 5.000430108748693314e+00 4.998408517547743735e+00 4.999174462359980531e+00 4.994063140476409757e+00 4.998594789280183193e+00 4.998967873901201564e+00 5.001690435364404941e+00 5.001519343844836207e+00 4.997254780923745976e+00 4.998100759934319903e+00 4.997656507217123512e+00 4.998112604002864501e+00 4.996406588264030724e+00 4.999046111704022799e+00 4.999668256066419403e+00 4.997201642247318887e+00 5.001922377943159859e+00 5.000989534722140917e+00 4.996859705542870955e+00 4.996634771289139465e+00 4.999243013706689887e+00 4.982325468531287882e+00 5.003008398786751521e+00 4.997403061281960213e+00 4.995179776999205679e+00 4.995465584001447468e+00 4.992560243507234041e+00 5.002004962429623447e+00 4.996060143651114061e+00 5.001627984774328795e+00 4.999120504415737187e+00 4.998545884936487660e+00 4.996062910027059267e+00 4.998476219057314651e+00 4.995550627487726381e+00 4.996903807188258995e+00 5.001915707826191770e+00 4.998897050353957816e+00 4.999157534209808240e+00 4.997898940004678714e+00 4.999532587118440397e+00 4.990200130842381121e+00 4.997352244630280715e+00 5.001822290032958307e+00 4.996189943539675049e+00 5.002051566232372792e+00 4.995378764707879782e+00 5.002288541859245541e+00 5.000865321257418117e+00 4.998150062166636154e+00 5.002276808373829375e+00 4.995889361566884901e+00 5.003924829120473206e+00 4.997780923004278897e+00 4.997801568681103035e+00 4.998106656342935494e+00 4.998042095755613978e+00 4.997842290117334052e+00 4.996731073074671237e+00 5.001248039455760797e+00 4.998531456299492248e+00 5.002240316998730840e+00 4.996642658915522617e+00 4.998451215456082508e+00 4.998143126673705083e+00
4.997990469219751652e+00 4.996612510951564445e+00 4.996093497953014051e+00 4.998360245286735726e+00 4.996967153257728000e+00 4.997222501370714554e+00 5.000515168832027513e+00 4.998557113060111412e+00 4.997981648709115099e+00 5.001450603128793304e+00 4.988830428661993110e+00 4.997992297584866961e+00 4.999468718769990438e+00 5.001789102183637148e+00 4.996784327607673326e+00 4.998689349939652971e+00 4.997914549620668723e+00 4.998508510946294336e+00 4.997108550321232912e+00 4.997582174388903731e+00 5.001179272902491313e+00 5.000954618605190305e+00 5.001805400121383194e+00 4.997396533503693838e+00 4.997197781325787957e+00 4.998554943037063936e+00 4.999053108629368580e+00 4.995593665746068446e+00 5.001476873372197929e+00 4.998649494758467426e+00 4.998939280685216424e+00 4.998090145474550106e+00 4.999103382046310884e+00 5.001999815289924989e+00 4.997802096547798278e+00 4.996872609176801205e+00 5.003125406506621964e+00 5.001879824849540412e+00 4.997320221707232335e+00 4.997073099495526805e+00 4.997667121952251712e+00 4.996770032164955744e+00 4.998972137391771042e+00 4.998046256844759228e+00 4.998839162749202814e+00 4.997131372543773153e+00 5.000198968045818759e+00 4.998592281041463359e+00 4.964346012995087598e+00 4.999794095036651065e+00 5.002111509097188602e+00 4.999276817469510803e+00 4.997234866110826346e+00 4.998762280244035239e+00 4.999800210679800294e+00 4.998556310773907718e+00 5.001958137331325105e+00 4.998997005305767516e+00 4.997276987629576617e+00 5.002162443485882015e+00 4.997366833228286787e+00 4.997770615356409429e+00 4.994302727297052158e+00 4.996961530212944425e+00 5.002259867437473417e+00 4.997543901105842679e+00 5.001866314120078982e+00 5.000517019226013993e+00 5.002806809827135659e+00 4.990135788725187815e+00 4.997539333761096714e+00 4.996153951219479694e+00 5.000831045486600068e+00 5.001671065361256829e+00 4.997884551371235773e+00 5.004374393268279597e+00 4.995335787371900871e+00 4.998603604151380608e+00 4.998216543318577010e+00 5.004368702941717650e+00 4.902546726210329275e+00 4.999410306100585011e+00 4.998100542175500038e+00 4.997153168146548197e+00 4.997953448024719414e+00 4.998480804855130799e+00 4.998741609757494153e+00 4.999214087732962497e+00 4.997368406342600267e+00 4.998784754398075236e+00 4.997519807056614027e+00 4.999551298552793455e+00 4.997375609686027786e+00 5.000124031432907401e+00 5.002992534137154834e+00 4.996863371271773602e+00 4.997774006522346824e+00 5.001288308754382683e+00 4.998673004670926012e+00 5.002057868926047313e+00 4.997124422883927330e+00 5.002923821573499907e+00 4.998995735774354188e+00 4.995677752506399116e+00 4.999337618064031652e+00 4.977958824628819556e+00 4.998425974150123352e+00 4.997263094279873030e+00 4.998859662387562075e+00 4.998318888084220646e+00 4.998043906110678947e+00 4.998382821165382239e+00 4.998084696820616735e+00 4.997883477322567991e+00 4.997286728211598472e+00 4.997911170488660737e+00 4.998996881209997412e+00 4.997825325719336576e+00 4.999566638874718194e+00
5.003864672925148582e+00 4.998130758992472167e+00 5.001213772444785377e+00 4.997665520201994838e+00 5.000851091374650004e+00 4.997433579864774877e+00 4.999240386733642794e+00 4.998534357242767179e+00 5.000265488634993538e+00 5.001963429152237239e+00 4.980784298064557802e+00 4.999043694901644130e+00 5.001448161950595050e+00 4.997900845563244765e+00 5.002230079815524810e+00 4.996358216482683190e+00 5.001257821540516346e+00 4.996286521725436636e+00 5.001523657515263288e+00 4.998216328746876158e+00 5.001250800854426970e+00 4.998252999361616489e+00 4.999331660151360879e+00 4.995846430753527301e+00 5.003358463968424097e+00 5.001470039229598541e+00 5.000991438084280816e+00 4.996995853351442918e+00 5.000329735136824105e+00 4.996656595551320912e+00 4.997770721033297114e+00 4.998581477362256109e+00 5.000977330367537554e+00 4.996699083757304649e+00 4.998890047549902960e+00 4.999749915387334376e+00 4.995606068832893598e+00 4.996592723813432002e+00 4.999108667093501879e+00 5.002481582350321254e+00 4.983199616984502534e+00 5.003427759263221475e+00 5.002914890907502965e+00 4.993258610562974376e+00 4.981447777477283623e+00 4.997927112636551428e+00 4.996694183945262324e+00 4.996633647544086898e+00 5.003615228009139493e+00 4.995769117024461359e+00 5.000878252434439730e+00 5.000096101247136993e+00 4.999122339479002086e+00 5.001039480885233424e+00 4.996789127758670013e+00 4.996067954898358643e+00 5.003548877135321149e+00 4.997217428927553051e+00 4.997432971682636449e+00 4.999112802212614781e+00 4.997658169574102693e+00 4.983167784654259691e+00 4.999036485976169786e+00 4.998604066465408557e+00 4.999449296454442582e+00 5.002017442111637457e+00 4.998222140217897902e+00 5.002538396311456914e+00 4.998730109882757233e+00 4.991634602942075283e+00 4.997766704710254970e+00 4.999189566923497807e+00 5.002088661482968490e+00 4.998081067096069141e+00 4.997533222180334356e+00 5.002128436958083846e+00 5.004484010511414560e+00 4.997320419587216733e+00 5.004195019049457294e+00 4.999482768910001873e+00 4.998819572729213512e+00 4.980873957538705099e+00 5.004227192580414929e+00 4.997230019000359569e+00 5.002299121913373448e+00 4.996807755015403529e+00 4.997400585561266873e+00 4.997842795933511439e+00 4.998554696716927204e+00 4.999099853168536889e+00 4.997179425221042415e+00 4.996747254996486198e+00 5.001783531639353519e+00 4.997281319173011660e+00 5.000948736826646090e+00 5.001092393747043729e+00 4.998371108730731649e+00 4.998113927456987682e+00 4.997065739989521305e+00 4.999305275180964792e+00 4.993454060392220839e+00 4.998938328700972988e+00 4.998221866402044355e+00 5.003449392652841610e+00 5.002659099944420262e+00 4.996301499752648922e+00 4.979963773307595432e+00 4.999342609774902968e+00 4.995643411858083027e+00 4.999797738909429690e+00 4.996750260646916075e+00 5.002348284169107373e+00 4.997310049102665630e+00 4.998981010225993060e+00 4.998004065138792029e+00 4.997503169615857388e+00 4.997691641097491200e+00 4.998242202745863949e+00 5.001132374887198750e+00
4.996635443959859479e+00 4.986012568503424447e+00 5.001751358925351276e+00 4.996243471132675751e+00 5.002517172033240200e+00 5.001722184457114473e+00 4.996183155328367320e+00 4.999409901435194925e+00 4.996820247894166123e+00 4.997477888358935694e+00 4.998917032472611766e+00 5.003292632975242960e+00 4.999367074818571233e+00 5.001179214168912424e+00 4.997988973568569193e+00 4.996615188328993540e+00 4.999298876576731665e+00 4.997349732026481028e+00 4.996804973929028115e+00 4.999485858307740394e+00 5.001876691117685070e+00 4.996505595270631872e+00 4.997964095367112058e+00 4.998856372521785829e+00 4.996916416929895632e+00 4.996953506812602086e+00 5.002829652176910002e+00 4.997842769585416178e+00 4.999149178566241858e+00 4.995616940153443153e+00 4.998598665447833156e+00 4.998509200152485121e+00 4.997396245781108526e+00 4.998368783848134100e+00 5.001189476472718276e+00 4.997408310587740488e+00 4.996131167453470745e+00 5.002060277258855159e+00 5.001669227435318277e+00 5.001240493641047280e+00 4.998772596231193077e+00 4.998008734519675755e+00 4.997973180162834872e+00 4.999470583898181886e+00 4.997718333128641000e+00 5.003906607889274660e+00 5.001680946315357090e+00 5.001127639316480966e+00 4.991244730106703109e+00 4.997361255320170059e+00 4.998325480235611629e+00 5.003163781161473977e+00 4.996663431989324167e+00 4.999015603030101396e+00 5.002783554801283117e+00 4.996556082410021915e+00 4.996469378984916609e+00 4.999280833405197022e+00 4.998683541910246220e+00 4.998090363967860661e+00 5.000442762739209179e+00 5.003141456710122448e+00 5.001522059760318939e+00 4.996689667092661047e+00 4.998350480416530850e+00 4.997124222444604413e+00 4.986181268066224526e+00 5.000414051345084765e+00 4.997867896550129529e+00 4.998608130682709927e+00 5.001740631404974380e+00 4.997239201260092578e+00 4.998638187638963615e+00 5.000594840241863182e+00 4.998591090494771905e+00 4.997260494291283273e+00 4.997540656221271860e+00 4.893966709477057364e+00 5.003247143681793574e+00 4.994437538630828399e+00 4.997479550281013871e+00 5.001357559286888410e+00 4.998344530010065512e+00 5.004286438404527360e+00 4.997748105494773441e+00 4.998576600218852306e+00 5.001566429367654720e+00 4.997476824665480599e+00 4.998424359320121191e+00 4.997557313856546557e+00 5.000568220398456276e+00 5.002422411688078441e+00 5.000848470655812505e+00 5.002744662550955290e+00 4.997372122361176672e+00 4.998016118688081377e+00 4.998799468203731777e+00 4.998386549145346969e+00 5.000934179524318068e+00 4.997232032125481282e+00 4.997206460624298074e+00 4.997872714602911159e+00 4.998447918224304232e+00 4.995460853634988929e+00 4.997192745018519844e+00 4.997296732757355642e+00 4.999024267377627950e+00 5.003826891892679818e+00 5.002830280868490576e+00 4.994996215733507050e+00 4.996348640476402814e+00 4.998723698000311799e+00 4.995147946185380050e+00 5.001523898831325532e+00 4.998413072227915421e+00 5.001690714677481608e+00 5.002229804710175642e+00 4.996908200736946526e+00 5.001708616416635778e+00
4.998247105300097637e+00 4.997166058118613918e+00 5.003765456291994873e+00 4.993662585625727957e+00 4.996893906920942818e+00 4.996311823284937503e+00 4.998246950858720616e+00 4.995833419047216672e+00 4.996017554677309569e+00 4.997419119566421486e+00 5.000938592154798634e+00 4.998995205407535281e+00 5.003471203200269279e+00 4.998208766644540724e+00 4.995932939798199079e+00 5.003235134387128191e+00 4.996332954634418400e+00 4.998505750773016842e+00 5.001756871473292954e+00 4.999223865720163751e+00 4.999377669368588073e+00 4.996686236906176859e+00 4.998147453052337319e+00 4.997333318991807438e+00 4.999432388426151341e+00 5.002760140355207774e+00 4.998034940819882976e+00 4.992746852494047261e+00 5.002662021646600010e+00 5.002702211327705761e+00 4.997986453597622614e+00 4.996348625232779561e+00 5.003003495000067247e+00 4.996266950082993041e+00 4.997944534810462081e+00 5.001744203132335365e+00 4.997999335004235988e+00 4.997206039692619228e+00 4.997922701634797349e+00 5.002323407356881191e+00 4.996357797291611114e+00 4.996980691528850826e+00 4.998636504731337027e+00 5.001211295754250941e+00 4.997678879117260387e+00 4.997686743413460420e+00 4.953440282779217441e+00 5.003653092519747325e+00 4.997243066391789057e+00 4.997532204396801347e+00 4.997118135584412535e+00 4.997403226992166658e+00 4.997958545574114453e+00 4.997130124379665972e+00 4.998386852380522605e+00 4.996275207427142817e+00 4.997280986409550430e+00 4.997387844959809478e+00 5.001015354356205478e+00 4.997833953687544017e+00 5.003021699216981588e+00 4.996445221997357855e+00 5.003054216740870253e+00 4.996512704404815430e+00 4.999885920641985670e+00 4.997737195536140042e+00 4.984564812104931519e+00 4.997290225597279090e+00 4.997174191423653156e+00 5.002634192043038830e+00 5.002874050231169711e+00 4.997005503847419483e+00 4.998369136169628746e+00 4.998267851434631481e+00 4.997121942723651067e+00 5.001636285642764967e+00 4.997344846689302678e+00 5.000796687291659381e+00 4.996068928446915081e+00 4.996858599064260886e+00 5.000339617275610493e+00 4.997413830411326252e+00 4.997446513727846984e+00 4.998211624316790669e+00 4.964102726781050023e+00 5.000018596587969988e+00 5.001693976312079570e+00 4.996825910202901788e+00 4.997819056414525285e+00 4.997463238814197517e+00 5.000876262395333782e+00 4.999700881515362738e+00 4.953843553060048421e+00 4.998205322715690180e+00 4.999150151610980863e+00 4.996912184862791761e+00 5.001503183147195664e+00 4.995524741873544450e+00 5.002954018866260455e+00 4.999095146382623867e+00 5.002208103032885766e+00 4.997935733771009303e+00 4.996807327790744324e+00 4.998299920741677838e+00 4.997745361284568588e+00 5.000935017314260378e+00 4.996822184497164976e+00 5.001877886629223724e+00 5.004052025456550368e+00 4.998261955258973543e+00 5.002165171187809456e+00 4.996380700563675781e+00 5.001568586866866895e+00 4.997850915744738387e+00 5.001503153335100649e+00 5.002592582093635443e+00 5.001046319032147913e+00 4.997034552806592700e+00 4.996953367073263763e+00
5.000444648889000199e+00 4.996093127432252423e+00 4.998445590116006088e+00 4.997783457287581221e+00 4.995816041157678633e+00 5.002236221072368316e+00 4.999011254184122066e+00 5.001455586990786628e+00 5.002649543698612256e+00 4.997628930395388025e+00 4.998619806532827781e+00 4.998937169794730906e+00 4.998957973000528909e+00 5.003573928200705900e+00 5.002434573268427442e+00 4.997447173290083811e+00 4.997080734374322653e+00 4.996829229741298839e+00 4.985164695871533880e+00 4.999664130889434510e+00 4.992980363041622738e+00 5.003263963754157828e+00 4.995164445533700537e+00 4.981410683437402120e+00 4.999257377235768018e+00 4.997135912170740824e+00 5.002493212885660512e+00 4.996524362953323362e+00 4.999249830535796413e+00 5.003039461280586409e+00 4.998214156594608326e+00 5.002886843824147611e+00 4.996886969625755626e+00 4.999391055731000399e+00 4.994411018667466173e+00 4.998107457757761551e+00 4.998650137823228867e+00 4.999406329786445724e+00 4.999954410674925853e+00 4.999663596613909355e+00 4.998322293280855533e+00 5.000979386945833660e+00 4.997556722546303121e+00 4.997335908893455247e+00 4.995412963945740970e+00 5.004308643402445966e+00 4.995914786363041316e+00 4.996703863075760310e+00 4.984261379880325471e+00 4.997942685712311928e+00 4.999797459859545157e+00 4.997319237426133043e+00 4.996901513772294301e+00 4.998400039972167974e+00 4.998639127993062203e+00 5.002859323815546766e+00 4.996411470451918468e+00 4.998941605520490938e+00 4.996151330402326174e+00 4.998859995532778377e+00 4.996860596735585247e+00 4.997447523413473647e+00 4.962397048205623662e+00 4.996734276227454252e+00 4.995296042714493012e+00 5.003395296796694147e+00 4.997676062368856975e+00 4.998659899245781801e+00 4.996585487431509875e+00 4.999100455895225892e+00 4.995961479182142284e+00 4.997412175499007958e+00 4.996846878911632928e+00 4.999052872441259510e+00 4.999125984344293450e+00 4.998082904074703237e+00 5.001652211075255039e+00 4.999484845308575842e+00 5.002154454196795719e+00 4.997386366391158852e+00 4.998418010424594549e+00 5.001195686605649726e+00 4.997909116973384691e+00 4.996506458325337796e+00 5.004236197178903112e+00 5.001172716111592642e+00 4.997610990539122611e+00 4.996163545484701984e+00 5.002745414624337528e+00 4.999028213853275560e+00 5.002579101385623339e+00 4.995759504699517350e+00 4.999852538856816686e+00 4.998362456578666624e+00 4.998305747321293957e+00 4.997061402844675371e+00 4.997463247771825934e+00 4.999284405025869127e+00 4.996207090930816719e+00 4.998145303522458782e+00 5.001046503485226502e+00 4.996553440011521019e+00 4.988343741872943937e+00 4.996668440997753535e+00 4.998544832925039039e+00 5.000142400878665683e+00 4.996197925265224882e+00 5.002492918856736637e+00 4.996704905134041752e+00 4.976981160946942317e+00 4.996682995112944781e+00 5.001566777839068223e+00 4.997333194241450727e+00 4.998720874974099004e+00 4.996810332448371028e+00 4.996287002815201106e+00 4.996883306184789042e+00 4.998468186780804956e+00 4.998691812091912823e+00
4.998311194152632808e+00 4.998383767924861054e+00 5.003532000851612871e+00 4.995548137624587604e+00 4.997635929521499598e+00 4.998469888669493599e+00 4.995809178694032404e+00 5.002479554806853024e+00 5.001334644878788538e+00 4.996891520514596507e+00 4.998266311940386508e+00 5.000048388784255948e+00 4.995765621725613670e+00 4.996852208916944704e+00 4.966312804396681990e+00 5.001022515154915915e+00 4.997980905333697876e+00 4.991899548796768116e+00 4.998456362640975925e+00 5.003112703006068251e+00 5.001829974674516954e+00 5.002272476770690979e+00 4.996086930722887232e+00 4.996855268056399346e+00 4.998563379463715428e+00 4.998482917356403377e+00 5.003034830628894980e+00 4.996759820915001704e+00 4.997384192014480142e+00 4.999919612831716265e+00 4.988743379814849277e+00 5.000432527792852966e+00 5.002114975630997051e+00 4.997510661434423795e+00 4.998024780551192592e+00 4.998633992490383093e+00 4.998065011940975744e+00 4.995803812998448556e+00 4.997584943031254667e+00 4.998876033639743532e+00 4.999213421595256612e+00 4.996105680725662523e+00 5.001844152034340851e+00 5.002221019911954336e+00 5.002780906028217345e+00 5.002566682934795672e+00 4.994471316190418619e+00 5.000460421649499665e+00 4.984253755350954940e+00 4.996104486862556371e+00 4.997187034450355725e+00 5.000639753685240052e+00 5.002583289683582457e+00 4.996719333331574475e+00 5.002453958559554437e+00 4.997553632561466230e+00 4.999146136825366682e+00 4.998593483671658788e+00 4.998674875630719328e+00 4.996641235372320189e+00 4.999161624328913867e+00 4.998048671255354236e+00 5.003675582676534006e+00 4.998259862996190961e+00 4.998826383628333758e+00 5.003130420055775573e+00 5.003084592794175833e+00 4.997268925354432234e+00 4.998014173212677491e+00 4.998610675708492934e+00 5.002383505350548987e+00 4.998147426031343876e+00 5.002610168401075086e+00 4.996698930762297763e+00 4.999609323529634608e+00 4.995754015166165907e+00 4.997914980947282260e+00 5.000430891214563189e+00 5.003274630376122190e+00 4.995742926399024952e+00 4.998248550207375906e+00 4.999156179880436035e+00 4.997110108205901291e+00 4.938015442455467863e+00 4.998132189857543040e+00 5.002695314496312662e+00 4.996879421521074782e+00 4.999964792543137193e+00 4.998011510879935670e+00 5.002798199211214936e+00 4.997046859968827803e+00 4.995971466302654207e+00 4.996414153293869731e+00 5.003624719974366641e+00 4.997064539967698948e+00 5.003788684090454630e+00 4.996252820176672493e+00 4.996600252679675336e+00 5.001874656096295446e+00 5.000654118747757337e+00 5.000278748147152896e+00 4.981468617417747602e+00 4.997965452284636179e+00 5.002593476021358398e+00 4.996972418703045093e+00 4.998767475712224240e+00 4.996206202751322323e+00 4.997950574464844919e+00 4.979502478115323427e+00 4.996760761226703984e+00 4.997223016837618381e+00 4.997006149950719234e+00 4.997674816350857085e+00 4.995725991436619218e+00 4.998268572788030717e+00 5.000592495278895377e+00 5.001284610825271315e+00 4.997684569992862258e+00 4.997322921710495081e+00
5.003999407542794486e+00 4.997461238749828283e+00 4.995917039688578143e+00 4.971127442030938148e+00 4.999329812856442068e+00 5.000211607814385673e+00 4.997762244538895615e+00 4.996969654957925222e+00 4.989988669226636198e+00 5.001326091432280130e+00 4.998380525227084092e+00 4.996601758686395556e+00 5.002704685999631806e+00 4.997024786564322696e+00 4.997268255932834080e+00 5.003334202732003355e+00 5.003359361163446373e+00 5.000139776646782330e+00 4.996968463426194162e+00 4.998948679968076902e+00 4.997100678975679777e+00 4.998485699875008237e+00 4.998836160177991594e+00 5.000201830177539719e+00 4.999386001014356040e+00 4.998707784755183070e+00 4.995893275619992302e+00 4.997204441828688282e+00 4.998241099120772191e+00 4.997774526645947901e+00 4.999142636129766615e+00 4.998116348249244112e+00 4.997334471611311280e+00 4.998711131565884536e+00 4.998464260740904663e+00 5.001876070258197693e+00 4.997297518151292195e+00 5.002258115542900896e+00 4.999370540999630741e+00 4.998435210689581965e+00 4.994376060737866219e+00 5.002521703576603862e+00 4.996693807462415649e+00 5.002508226309331008e+00 4.998431685576695038e+00 4.997838690335286493e+00 4.999332028619700274e+00 5.003818025069331377e+00 5.004425011820211822e+00 4.996040240765171170e+00 4.997918649695765936e+00 4.995957788239758557e+00 4.997825990883662861e+00 5.002203352012372761e+00 5.000631091421214869e+00 5.001691129567133132e+00 4.996977271063691717e+00 4.995777048378761798e+00 4.999222438104252930e+00 4.999301662803233626e+00 4.999148416939815931e+00 4.996569057750525289e+00 5.002024806709375326e+00 4.995338273331492829e+00 4.986112222298713093e+00 4.996941567018624575e+00 4.997366029764129358e+00 4.995500271460683095e+00 4.996601464100783652e+00 4.998023855354161604e+00 4.995652031709870933e+00 4.997752200356699426e+00 4.999055596362397047e+00 5.001794279647547192e+00 4.998889405901148386e+00 5.003295743782786964e+00 4.996221845229701586e+00 4.998477281097245317e+00 4.996202853012992051e+00 4.997819720516158526e+00 5.004100537953338090e+00 4.984439644872843189e+00 5.004024089808228659e+00 4.997964728407883861e+00 4.996706606619383706e+00 4.995990054573128170e+00 4.998102159826697033e+00 4.998959521516327165e+00 4.996983204600001116e+00 5.001845498353191033e+00 4.995028936893172400e+00 5.003526743153211775e+00 4.997520343656694841e+00 4.995769722139094426e+00 4.991202591530791821e+00 4.998145249124676504e+00 5.003675545383521772e+00 4.997000468479825486e+00 4.998103869144913780e+00 5.000972995556045575e+00 5.004051086378075830e+00 4.997241649514346129e+00 4.997134485066034415e+00 4.995548237835375716e+00 5.004125099847340330e+00 4.960682691583333970e+00 5.004286649346647131e+00 5.003817499269568536e+00 5.000804010089342277e+00 5.003925338563062652e+00 5.000751654365036103e+00 4.988161013887278727e+00 5.002643427664978937e+00 5.003141485435416591e+00 4.992056456227323302e+00 5.002178936617805327e+00 5.002990026440528482e+00 4.996712397843808162e+00 4.992222802900224465e+00
4.996997188069375539e+00 4.997533973480205560e+00 5.001235674736602910e+00 5.002708727217122231e+00 4.997210819186447495e+00 4.998358125464712920e+00 4.997152233033206770e+00 5.000329470277452337e+00 5.002747683513669053e+00 5.000093210737112770e+00 4.997843697025225573e+00 4.999785135672961900e+00 4.999344410686560991e+00 4.997854501860892640e+00 5.002317988508405477e+00 5.001131203444223239e+00 5.003371745989154462e+00 4.997206387538268402e+00 4.997155006347012929e+00 5.002529005522303507e+00 4.996081226249288854e+00 5.000745231169135607e+00 4.997830142855775648e+00 4.998082791099579758e+00 5.000747437206031876e+00 4.999862538039964832e+00 4.997225124794094420e+00 5.000001824580443177e+00 4.995781571137210442e+00 4.997051847943282610e+00 5.004138931935225187e+00 4.998291095745152290e+00 4.994024739891059994e+00 4.991072816652775579e+00 4.998805500046169747e+00 5.001406647075007150e+00 5.002062428232232350e+00 4.999665974057541540e+00 4.997703055038269504e+00 4.997242429307278577e+00 4.998240327011008510e+00 4.998502238700577749e+00 4.993731501022889319e+00 5.001370639277722852e+00 4.995904353037730061e+00 4.997489289219220865e+00 4.997271720158831698e+00 5.001487033047513187e+00 4.933337691941345859e+00 4.996497191448576736e+00 4.998209725824550809e+00 5.003209863369797894e+00 4.976546269427879920e+00 4.998138410779622731e+00 5.001432513104145272e+00 4.996828801838352874e+00 4.997193093939632291e+00 5.002956656077437003e+00 4.997286320416933769e+00 4.998870727392617397e+00 4.997477457458010086e+00 5.001347686216256250e+00 4.998241251178671796e+00 5.003613538823776352e+00 4.995374595712354093e+00 4.998633342223103071e+00 4.998956578850057397e+00 4.998271540674082303e+00 4.996533693083411443e+00 5.001990975119166016e+00 4.997366774447422166e+00 4.998307366586585587e+00 5.001760548756239544e+00 4.996370830232880422e+00 4.993952699150573160e+00 4.997898900632953278e+00 4.998243263308666862e+00 4.998489136630245966e+00 4.998834631119887462e+00 4.962509749400519254e+00 4.995788387101561590e+00 4.998745740969757101e+00 4.995215528011073935e+00 4.999225031772545513e+00 5.001728471367929529e+00 4.999115814600727070e+00 4.997877554404292155e+00 4.999932795770710037e+00 4.997095873667163346e+00 4.996468028431859665e+00 5.000330143789443405e+00 4.996906025394995510e+00 4.997770617899458756e+00 4.997509790441263533e+00 4.997148536366900373e+00 4.998247839783609869e+00 5.001824520116338491e+00 4.953409517229975911e+00 5.004310049574036690e+00 5.004136889734833282e+00 4.996679424429629535e+00 5.002963643244858538e+00 4.997364150787202419e+00 4.997642225752096046e+00 4.996093094726116846e+00 4.999112998902205618e+00 4.996809497249181220e+00 5.001948151659028063e+00 4.998441863836728061e+00 4.976501272269510778e+00 4.949546188863294560e+00 4.997704740111698740e+00 4.998622308876812248e+00 4.996484933507197468e+00 4.999530118176237714e+00 4.996677985509321296e+00 4.996012045726901718e+00 4.997953459268248189e+00 4.997445599595094379e+00
5.002733480934499433e+00 4.996013142853021449e+00 4.999994360594573806e+00 5.001490054263840079e+00 4.984256142344252183e+00 4.995310244691205881e+00 4.997991217953784648e+00 4.999124354608209586e+00 5.002605173238046987e+00 4.997484129228796590e+00 4.999617256755358063e+00 4.997052645571802287e+00 4.998657960839958392e+00 4.998399954140026580e+00 4.996753287330857773e+00 4.996313406177110394e+00 4.959427218953079475e+00 4.997877235908930516e+00 5.003805522659668270e+00 4.995397591332213949e+00 4.996718161305914840e+00 4.998916959631740653e+00 4.997944617655607935e+00 4.998040130075393606e+00 5.001921369237263271e+00 5.001192349181640573e+00 4.993382352667009805e+00 4.985888016735709805e+00 5.003337666153766961e+00 4.979623553685616599e+00 4.996617149756271914e+00 5.003792590160019316e+00 5.003056112908776498e+00 4.997663453354097562e+00 4.997765019329882819e+00 4.995261862285510723e+00 4.996057693280690160e+00 4.998735173258939568e+00 4.998314656506047449e+00 5.002325233015548989e+00 4.993353537614703797e+00 5.003527857270143819e+00 4.998011221294193618e+00 4.998125174916128621e+00 5.002622711094303121e+00 4.996893872492933042e+00 4.997191927127220268e+00 4.997816021932829145e+00 4.999697477613004537e+00 5.004262142517080569e+00 4.997828160261510000e+00 4.996471840971413059e+00 4.997617034109493872e+00 4.997623854581642711e+00 4.998006050292687519e+00 4.996866278782183812e+00 4.996935999246486126e+00 4.997250973169182764e+00 5.002474544037494475e+00 4.997062669893114872e+00 4.999135865616491259e+00 4.999470918725377189e+00 4.998423032455397319e+00 4.996946526313786663e+00 4.997556812325665732e+00 4.996706378788226210e+00 4.998020719083891450e+00 4.997362954739556606e+00 5.001316546042200883e+00 5.002007494978737867e+00 4.997293792980381788e+00 4.999488473561725321e+00 4.996297072001684825e+00 5.000999608769419957e+00 4.990529016013681485e+00 5.002676186203089514e+00 4.998275378295317317e+00 4.998671082062606352e+00 5.000615775598777013e+00 5.001971167048847811e+00 4.996814065477156674e+00 4.996999453240993816e+00 5.001786512966730491e+00 5.001523790283116000e+00 5.002539560432830434e+00 4.997325412290909874e+00 5.001215454844075481e+00 4.996666444654176864e+00 4.998671406527990690e+00 5.000096423057548201e+00 4.998318863744424689e+00 4.998553518521950956e+00 5.000295061780169803e+00 4.998094430161121871e+00 5.000555716483133573e+00 4.996591039263806877e+00 5.002356024748902286e+00 5.000090069239450763e+00 4.987751280139788079e+00 5.003283879875662699e+00 5.000668188094054223e+00 4.996587918754699764e+00 4.996910365027181555e+00 5.003001292020745616e+00 4.987605870903495386e+00 4.996730282030721781e+00 5.002231753325820485e+00 4.999848656345868392e+00 4.998164603708783460e+00 5.002675389776467973e+00 4.997642575685791400e+00 5.003476626168318120e+00 5.002620589227177561e+00 4.995602079045520227e+00 4.998523855362960511e+00 4.999473750507461567e+00 4.999764132512770409e+00 4.997440436708696865e+00 5.002718383114885370e+00
5.000604152425985660e+00 4.997008236364778533e+00 5.001657853290034872e+00 4.996831825858288667e+00 5.001426728273810518e+00 4.999375838651167747e+00 5.002321911398117216e+00 5.000543714096798098e+00 4.997765668958757068e+00 4.998184215696579002e+00 4.999663294719649542e+00 4.998336580733102608e+00 4.999137865775009182e+00 5.002290255153292620e+00 4.999454869120692813e+00 5.002763999499943104e+00 5.002501441233973445e+00 4.997605608881546146e+00 4.995380527541613880e+00 4.995844251122778523e+00 4.999125194946788753e+00 4.999146236086779993e+00 5.001004206256553175e+00 4.999892654104516332e+00 4.997393896449887407e+00 4.998744233884027111e+00 5.002483089445892261e+00 4.997296275054129211e+00 5.001492955812097740e+00 4.997930632429181230e+00 4.997534613441732887e+00 4.998216817701220727e+00 5.000338117392239212e+00 4.997668057267851793e+00 4.997133828834077640e+00 5.004105886110997048e+00 4.996054508623448243e+00 4.997275182367458157e+00 4.998077701257903627e+00 4.999428751714284580e+00 4.993099092452252918e+00 4.996375142918084045e+00 4.999684033491510249e+00 4.997593385860824355e+00 4.997188166130170472e+00 4.996182937253195178e+00 5.000626063597959359e+00 4.998885401100671366e+00 4.996586255398072218e+00 4.999546738345775232e+00 4.931222050869835449e+00 4.968116508928703823e+00 4.998422000779966012e+00 5.001854719436757080e+00 4.948301137647661108e+00 5.002611624102437204e+00 4.997979505226959773e+00 5.000663556558147427e+00 4.998001478664050090e+00 4.998500996299235055e+00 4.998898593878642771e+00 4.997609432736573432e+00 4.997303768138788627e+00 5.003419581570852870e+00 5.002031306647610975e+00 5.001477357848084004e+00 5.001399233769398656e+00 4.997659036769661611e+00 4.998107139044987157e+00 4.997855351591938167e+00 4.997563093627489295e+00 4.996674337243280029e+00 4.997359872595393604e+00 5.003977923732484179e+00 4.997155955055164078e+00 4.997298037990832498e+00 5.003766602399408292e+00 5.003873757026326530e+00 4.996727099431584662e+00 4.998547481253083902e+00 4.999003616813067374e+00 4.997864637382910757e+00 4.998554745390855203e+00 4.999051259577431239e+00 4.996823969028277190e+00 4.998524135730965767e+00 4.998889603038963791e+00 5.000935560844893324e+00 4.997603937573325439e+00 4.998941393784964049e+00 4.998082186272407412e+00 4.996555586358971901e+00 4.995985768098870849e+00 4.996633536909665274e+00 4.998326793423367498e+00 5.000490785096871171e+00 4.995943382723303294e+00 4.998975360078031116e+00 4.999053762595436545e+00 4.998732227035935338e+00 5.001003607044002486e+00 4.995948450468863378e+00 4.995177754446190832e+00 5.003339408104879205e+00 5.000084832481970665e+00 4.997914686590291922e+00 5.002280042362355239e+00 4.998426517265352587e+00 4.986311382415145488e+00 4.999989433553761131e+00 5.003538122777245079e+00 5.001475323923870953e+00 4.998021600028510036e+00 4.997584963789035939e+00 5.001672676525690697e+00 5.001673954930088151e+00 4.998000714779864850e+00 4.995585888537373620e+00 4.973824188808182001e+00
4.997145478310245359e+00 4.998628271436082571e+00 4.996998137826334840e+00 4.999625490630499769e+00 5.001993263223101671e+00 4.996351415972323906e+00 4.999641811297020233e+00 4.999904420668453753e+00 4.998271162880762120e+00 5.000502054851799549e+00 4.997233776056333454e+00 5.002422809800281200e+00 4.998040841185654948e+00 4.997233811796512271e+00 4.995445307033472560e+00 5.003338887291906900e+00 4.996323003826628195e+00 5.001964579854874415e+00 4.996123536926553754e+00 5.002799388417352056e+00 4.999348897053674357e+00 4.996891898138776433e+00 4.997427044408164321e+00 4.998092187092571415e+00 4.998651046300164325e+00 4.998661123225731195e+00 4.996906483636843532e+00 4.998412967618743430e+00 4.998969230440727607e+00 4.997956015350715653e+00 4.997723280220785824e+00 4.996592028668031205e+00 4.992498963755854113e+00 5.001240933373862774e+00 4.996288916461155694e+00 4.999982468797791846e+00 4.998624879644027352e+00 5.002106114166734230e+00 4.997945634578031537e+00 5.001969102556544478e+00 4.997902035097991025e+00 4.999047178045029405e+00 4.998484498107340634e+00 4.998579716290171504e+00 4.998967606711442357e+00 5.000891186702084212e+00 4.998316057836954762e+00 4.996089449368584567e+00 5.002292950857386344e+00 4.998106475390915904e+00 4.998944988957973123e+00 4.998003368289769099e+00 5.004578279868661994e+00 4.997469597395062912e+00 5.000527898125013415e+00 4.994909027895094056e+00 4.998696763304485202e+00 5.002057337608079912e+00 4.999554468091374382e+00 4.999566125669883121e+00 4.997183761786044620e+00 4.998858971200096590e+00 4.959601807867688450e+00 4.999634192845063829e+00 4.995660479744323368e+00 5.003078310678972684e+00 4.996668161100245698e+00 4.997877764898160713e+00 5.001918040764742557e+00 4.997544495010106225e+00 4.968574435656493371e+00 5.003569287027360701e+00 4.979122640300418290e+00 4.996782369380177613e+00 5.001613958991105058e+00 4.997119484426157499e+00 4.996833666894443304e+00 5.004153028659720448e+00 4.995346755259043370e+00 5.000146572763748409e+00 4.997044708318456152e+00 5.001874521215074587e+00 5.000030045890758501e+00 4.997389020750259370e+00 4.998348394446288978e+00 4.997070528914731469e+00 5.002641858407534059e+00 4.995903907089472185e+00 4.997495857132436825e+00 4.996642798997910973e+00 4.999966115412425971e+00 5.001853753313264761e+00 5.003285412944615373e+00 4.996232573388557086e+00 4.995388243842757703e+00 5.002389179511331996e+00 4.998112289476839720e+00 4.998344833496844331e+00 5.000799187906213916e+00 5.001468431021041994e+00 4.990482844304793275e+00 5.002572333149529094e+00 4.988894440641809425e+00 4.989285229557814283e+00 4.999656627142972987e+00 4.997924433389729693e+00 4.998415984933301637e+00 5.002089050749899179e+00 4.998555006125950051e+00 4.998457501874681519e+00 4.950586828375623583e+00 4.997195950531284403e+00 4.997466831808415222e+00 4.997286533629702987e+00 5.001938502187177171e+00 4.996689907735959224e+00 5.003093828354134409e+00 5.003281034074957390e+00 4.996878167246786795e+00
5.000322719987322806e+00 4.997220723956702138e+00 4.997501110245332612e+00 4.996312369322621905e+00 4.998483079741200541e+00 5.001741376799635042e+00 4.997542688379634335e+00 5.002698390807746698e+00 4.996126691184915813e+00 4.997730840965019183e+00 4.998258791013132196e+00 4.996682260226059213e+00 4.998505817823318154e+00 5.000203140265289115e+00 4.998648911873095457e+00 4.972184345624906854e+00 5.002602355398787282e+00 4.997324158593723809e+00 5.000950023118471144e+00 5.000695406913948204e+00 4.998851541796434539e+00 4.997688862502503326e+00 4.999555342525773938e+00 4.999638433165314311e+00 4.997843904965882267e+00 5.000117678660136455e+00 4.997497503942739172e+00 4.999453024562395598e+00 5.000236903313533432e+00 4.998047875470128076e+00 4.997364418802366259e+00 5.002899351167163999e+00 5.003432085478354274e+00 5.000424485510658101e+00 5.003238206419267975e+00 5.003386002052297776e+00 4.996903665000090200e+00 4.996920931072071248e+00 4.998532737582748631e+00 4.997293033429882847e+00 4.999047986117477471e+00 5.000094034609539051e+00 4.998899023428886146e+00 4.997903971404979551e+00 4.998191277289986800e+00 5.002286703347617269e+00 5.001351624781003480e+00 4.998295156962956121e+00 4.997105286329748708e+00 5.001022545856348422e+00 4.999057873674661145e+00 4.998633124308507369e+00 4.997772170277690940e+00 4.996800465819831061e+00 4.997726331970156366e+00 4.997326365815154325e+00 5.004682646857817829e+00 4.989986488797806707e+00 4.998852136279101188e+00 4.997575170829047231e+00 4.992111782072322868e+00 4.998675253115406392e+00 5.002021200266767664e+00 4.997624228586830419e+00 4.997243655134856688e+00 4.997272001149569931e+00 4.998615489629723463e+00 4.999016912784652433e+00 4.996721996858769721e+00 5.002721510333392629e+00 4.999811096627845508e+00 4.997004574183872450e+00 4.999740649197073061e+00 5.000204952996417873e+00 4.996720096453867832e+00 4.997140317549631838e+00 4.951151388729762459e+00 4.997347953124236852e+00 4.996142277061903059e+00 4.999089214925675151e+00 4.996265272002223590e+00 4.998648820360275913e+00 5.001079836099286524e+00 5.001767522169986435e+00 4.998960425050686496e+00 5.000227027682495162e+00 4.993865993325290908e+00 4.998170128172261251e+00 5.000027154175365141e+00 5.002003329321234482e+00 4.998694944283474939e+00 4.998335988502923044e+00 5.002345674154706323e+00 4.997836630348893472e+00 4.995208495418185457e+00 5.002465850796165014e+00 5.001456640141976884e+00 4.999375664847343970e+00 4.997204194355038709e+00 4.998233321820855224e+00 4.997097860639788003e+00 4.995545196370052565e+00 4.998745849010146181e+00 4.995298269317346218e+00 4.998368802682410461e+00 4.997802174579877743e+00 4.997048520712082720e+00 4.999437065714711359e+00 4.999714580990533008e+00 4.996907159290576494e+00 5.003578686837036216e+00 5.002910360208268514e+00 5.000543141236125422e+00 4.997646927158769792e+00 4.988661178952085606e+00 5.002989261090998951e+00 5.001172134734015451e+00 4.996812408817811857e+00 5.003797341572020052e+00
5.003586416867229048e+00 4.996581517199199851e+00 4.998304208860220754e+00 5.001088610522485212e+00 4.998144286085616450e+00 4.998413531134889176e+00 4.999132018891130791e+00 4.997417972693293464e+00 4.996550314471974730e+00 5.001883208088078625e+00 4.997323417754810038e+00 4.997950645181441942e+00 4.997089271556275136e+00 4.997130947256200884e+00 5.002363101751938324e+00 4.997618329476852139e+00 4.995129759710090767e+00 4.998041910258816500e+00 4.997494713008782341e+00 4.998388540054644835e+00 4.998443919324697227e+00 4.999521539448052998e+00 4.998199684141233945e+00 4.997852080154420840e+00 5.001172765147096300e+00 4.998871878492408882e+00 4.997118730274767273e+00 4.999731150810646341e+00 4.997520818709924484e+00 4.997792205139791832e+00 4.998174100712644119e+00 5.001736634386633185e+00 4.975869208038850466e+00 5.003506544201689721e+00 4.997431655028846009e+00 4.997741122960036364e+00 5.003718172599813663e+00 4.998177022975145434e+00 4.997611614805521185e+00 4.998600459377684935e+00 4.998203586114943420e+00 4.999415183619847269e+00 5.002225696502183183e+00 4.995821459757429750e+00 4.998086228866046810e+00 4.999153771754932585e+00 4.995581165822608583e+00 5.000163502355938761e+00 4.998194347031889251e+00 5.002247580961196149e+00 4.996909734285597260e+00 5.003028008318633368e+00 4.997637377487794019e+00 4.996844517127300378e+00 4.996707897244050400e+00 4.997280486243141695e+00 4.998128960768443818e+00 5.004635550097175312e+00 4.997121116324056977e+00 5.003830071347072028e+00 4.997204374932469051e+00 4.997362745807314433e+00 4.997704825389912564e+00 4.997938816939821116e+00 4.998365401410198139e+00 4.999069196350035327e+00 4.998361886584107516e+00 4.995311440369038181e+00 4.997430847302119616e+00 4.991562510878718939e+00 4.996371750269484657e+00 4.999507743940610816e+00 4.997271508219693459e+00 5.001077635299735924e+00 4.997857969380228305e+00 5.001624395870151396e+00 5.002062755842938024e+00 4.999031224899406212e+00 5.002562030724742925e+00 4.997238617201766431e+00 5.002669971994242459e+00 4.997169358391463589e+00 4.998867702651780043e+00 4.998689619927314531e+00 4.998014086255977872e+00 4.998331180498380988e+00 4.997572947451128123e+00 5.002717418693097606e+00 4.996562315071535920e+00 5.001909889775721929e+00 4.996969909192804593e+00 4.999430972323322564e+00 5.001039047572120921e+00 5.001937589853256760e+00 4.998686014953372947e+00 5.000062017499343980e+00 4.998596949563237857e+00 5.001603232305346758e+00 5.000817706756711445e+00 4.998855175737200618e+00 4.999238033717857022e+00 4.997367626886667580e+00 5.000532244974579044e+00 5.001381409848713488e+00 4.998770747518689106e+00 4.997172022398216562e+00 5.002377684291586135e+00 4.999531151084703140e+00 5.000213127818241787e+00 4.994775849289606384e+00 4.997641501991954449e+00 4.997934191732181120e+00 4.994712310754997553e+00 5.002855429013719935e+00 5.002131267199801279e+00 4.996559555959307453e+00 5.002381102779911437e+00 4.997214720819011191e+00 4.996755675877898817e+00
4.995356829130131793e+00 4.997994845606780423e+00 5.002751069813879958e+00 4.996193299097064333e+00 4.999508116579064243e+00 4.998032123524624559e+00 4.995878047472077199e+00 4.998853055356486941e+00 4.998670492170722568e+00 4.998852301181361923e+00 4.997463376498184395e+00 5.002606786285966223e+00 5.002388358929995782e+00 4.998016130018370085e+00 4.998587893679933281e+00 4.998671824577637146e+00 5.001602825685143472e+00 4.997225566656304352e+00 5.000141631994230451e+00 4.998722349906056905e+00 4.999197564185768883e+00 4.997727992380116113e+00 4.998489359777679830e+00 4.999623185026044858e+00 4.999163580871347712e+00 4.992189607848395383e+00 5.002726231614420094e+00 5.000441367173054985e+00 4.998406559191067799e+00 4.998136568173512373e+00 4.997091871946211405e+00 5.003449358560630778e+00 4.999196915186074008e+00 4.998297335996844559e+00 5.002699860336245585e+00 4.996762914209806006e+00 4.994957291836662705e+00 4.997999635921647865e+00 4.996003446673377368e+00 4.985366819855416409e+00 4.999301377659255863e+00 5.001142924822578273e+00 5.000208906778953910e+00 4.997348071274045900e+00 4.996464512970842264e+00 4.994661306178478810e+00 4.998294662095053020e+00 5.000961162775638513e+00 4.998335266312203373e+00 4.996431075437533842e+00 4.998113211053740734e+00 4.996324243285790168e+00 4.996826828387472830e+00 4.997153701044081409e+00 5.003310210193081531e+00 4.997054902369892915e+00 4.997929018754217800e+00 4.999089399891610164e+00 5.002685538751158845e+00 4.997519319061851206e+00 4.997616543145163348e+00 4.997290140204425413e+00 5.001481995212754939e+00 4.999655762456892916e+00 4.991443126145370002e+00 5.003240337572117724e+00 4.998314370069904200e+00 5.003216320601121758e+00 5.002928071081399253e+00 5.001810332814342175e+00 4.996062944491687752e+00 4.999331396458010168e+00 4.996035470518918942e+00 5.002364394954084581e+00 5.001625159774683027e+00 4.997710756994450776e+00 4.979120568597476648e+00 5.000806776042872492e+00 5.003962302785083693e+00 4.975125068982674037e+00 4.988107819003748666e+00 4.969444465526603238e+00 5.001708277191195151e+00 4.997116779850840906e+00 5.001946834927673891e+00 4.997710463330711228e+00 4.999903597299727664e+00 4.996554805012642042e+00 4.998943586662306870e+00 4.997799330128756878e+00 4.983716831652434287e+00 5.001533741791241994e+00 4.998472807418735897e+00 4.996827831647426166e+00 4.997498810577401862e+00 4.998232981647811712e+00 4.997475008766741666e+00 4.997109726165110288e+00 4.998504805906312853e+00 4.996932731416812601e+00 5.000569117585600409e+00 4.997881589025190863e+00 5.000900369279199786e+00 4.997903729590046140e+00 4.998270774105202818e+00 4.996675525314868693e+00 5.002609054117942655e+00 4.996755342637863251e+00 4.998512264096628854e+00 5.003643737285991655e+00 4.996994529246856942e+00 4.996841256311479462e+00 4.996647454827339629e+00 4.998345101818753022e+00 4.998670571976326471e+00 4.999532367741215566e+00 4.996960250995861053e+00 5.000913879593526623e+00 4.996994896642250161e+00
5.003240566530331002e+00 5.001904244595129612e+00 5.000076332560396075e+00 4.998375659210090305e+00 5.000104971524844011e+00 4.996936695857788102e+00 5.002371029051644769e+00 4.997809319240730908e+00 4.997657319002687615e+00 4.999302547352596271e+00 4.998015203124075434e+00 4.996044255738698148e+00 4.997719942116227720e+00 5.002207221830764716e+00 5.000638203367630652e+00 5.002721675153003034e+00 4.995413081673108380e+00 4.998506251346494622e+00 4.997151919626353411e+00 5.002614970262347249e+00 4.996535196473025131e+00 4.999016155834105746e+00 4.997627121410822326e+00 4.998589867317821067e+00 4.997911960767805972e+00 5.001162317557058756e+00 4.997213320264027203e+00 5.002171842041471805e+00 4.996765901730362280e+00 5.002863476927338127e+00 4.994112459226677458e+00 4.997122023355237808e+00 4.998957200812285784e+00 4.998554235169696547e+00 5.002197165148094093e+00 4.998327920947410519e+00 4.996545359535250697e+00 5.003926172956255414e+00 4.995929461266618965e+00 4.997811561961490234e+00 5.001413076725061302e+00 4.997119250145944491e+00 4.997664605469779531e+00 4.997844659357830288e+00 5.002648623457196742e+00 4.999336906505045697e+00 4.998381398227552452e+00 4.997432101781324576e+00 4.998434003671817116e+00 4.997571021746428421e+00 4.996867878377361905e+00 4.998661002686532129e+00 5.001636996408985070e+00 4.996681740986495868e+00 5.001184180016450043e+00 4.998044235181830608e+00 5.004536962499516406e+00 4.997574062865561828e+00 4.998510946861877358e+00 5.000832869696697713e+00 4.998660992216562349e+00 4.998238458481463198e+00 4.997171631929898439e+00 4.999096134994000629e+00 4.997532870718582210e+00 4.998895935731102469e+00 4.997762302655750943e+00 4.996620310493242734e+00 4.996361520561272584e+00 4.996381189748565710e+00 5.002013120778958211e+00 5.001007234481605224e+00 4.999368635529980232e+00 4.998205486739421666e+00 4.997455212847963679e+00 4.998108747592787893e+00 5.003682935375552532e+00 5.001299598591508300e+00 5.003673498970337086e+00 4.996024456430615324e+00 4.998228434650484608e+00 4.997747369392344652e+00 5.003637506678330737e+00 4.998358462452698880e+00 5.001239645502935538e+00 4.996537848367061052e+00 4.998548385152107976e+00 5.002485935425402097e+00 4.996562852937225685e+00 5.002903981168592473e+00 4.997551780563863844e+00 5.002215804305548019e+00 4.997099069494378654e+00 4.995527208190214452e+00 5.002909555633455518e+00 5.002739848934918854e+00 4.997673006894194359e+00 4.998734997083559506e+00 4.995868966131809863e+00 5.002889933642633125e+00 5.002978430441267221e+00 4.996924357869112043e+00 4.998619976222443917e+00 4.999062162570593770e+00 4.998703182740889872e+00 4.999363955052434250e+00 4.996704186889808774e+00 4.997116117122747170e+00 4.997232490104432934e+00 4.996159101458109930e+00 5.003744311089380226e+00 5.004006010060201959e+00 4.976675861752510421e+00 4.998121013192743156e+00 5.000556337588994538e+00 4.997595450906636927e+00 4.998355605138537605e+00 4.997896906782812287e+00 4.998483267874565428e+00
4.999106444643945046e+00 5.001978634691971237e+00 5.000388655240794122e+00 4.998500860971263116e+00 4.997580006569720013e+00 4.996071346072913144e+00 5.002628553590390048e+00 4.998326881071458061e+00 4.996186773664591740e+00 5.002622826211980289e+00 5.000956726132872454e+00 5.002928297723880036e+00 4.996407080338856943e+00 4.995612267724698796e+00 4.998690890711889878e+00 4.997064619518364559e+00 4.998710983877714398e+00 4.997849902885043605e+00 4.999155975895134496e+00 4.997355876511531569e+00 4.997777858125641792e+00 5.002684287626713910e+00 4.996806716486067224e+00 4.997492050362166260e+00 5.001332300595459301e+00 4.998322098772218780e+00 5.001214066756044296e+00 4.992449544588851928e+00 4.998536198034535971e+00 4.997264626824504674e+00 4.998921803674867270e+00 5.001171142093313371e+00 5.001320988975047399e+00 4.996601238971228653e+00 4.960615657474971130e+00 4.996121359609040802e+00 4.999193391332969583e+00 4.996411311195475768e+00 4.999288030547855755e+00 4.998761732086824949e+00 4.998909556038295676e+00 4.998487346273015497e+00 4.995219756829552438e+00 4.996012688425995663e+00 4.995908641741250378e+00 5.002668762260126911e+00 4.994316523909052563e+00 4.992653347618174031e+00 5.002761982152181375e+00 5.003246496973754454e+00 4.997676721481394857e+00 4.994955697703128195e+00 5.001663587113273302e+00 4.996899132134061006e+00 4.997710776578285774e+00 5.004537544734104948e+00 4.999279986151040411e+00 5.003623702776844873e+00 4.999917085245085602e+00 4.998141180672728723e+00 4.999164101207609789e+00 4.998858105440697308e+00 5.001707431531243309e+00 4.998708076451578108e+00 5.002336780167371266e+00 4.997021722592449144e+00 4.998669766718418117e+00 4.998068704341046775e+00 4.999987066712866302e+00 4.994534025638376562e+00 5.000155972457554832e+00 4.998152035442571695e+00 4.999176368207153942e+00 4.997239232238174900e+00 4.997988922288321589e+00 4.971813000249648340e+00 5.001905131624603484e+00 4.997502384207445303e+00 4.981467834992288957e+00 4.998177271996389059e+00 4.996965902878932830e+00 4.995749213905635422e+00 5.003820146200489205e+00 4.998188146698872458e+00 5.001150305887565040e+00 5.000125131525855693e+00 4.997184172401450297e+00 5.002182142858483616e+00 5.002835655520700975e+00 4.996965648812859762e+00 4.997049414658402355e+00 4.998483891590126404e+00 4.997819220863789269e+00 4.998630751317002741e+00 4.989217722025816038e+00 4.999733453195347010e+00 5.002930900201744358e+00 4.985820558330162910e+00 4.999542916472845988e+00 5.001719298284472259e+00 4.997982893498396528e+00 5.002111776132132093e+00 4.996034448648585702e+00 5.001508941744802428e+00 4.996050150919405297e+00 5.002691478646207557e+00 5.000892039361595209e+00 5.000420225475675551e+00 5.001906273753911059e+00 4.998348086923784628e+00 4.996862743962392273e+00 5.002858302520562184e+00 4.996185439922210314e+00 5.002991514093819703e+00 4.997540037579728534e+00 4.997035249419138125e+00 4.996023573648634475e+00 5.002761557500639888e+00 4.995562816742515899e+00
4.997781129388361165e+00 5.003748887677135215e+00 4.998112751570034540e+00 4.996819548310245551e+00 5.002431545450153116e+00 4.998847645036290643e+00 4.998089008886591245e+00 4.997565254950316671e+00 4.996907454501161361e+00 5.002141298468347763e+00 5.001861960004177377e+00 4.996596931112070372e+00 4.998352495864135214e+00 5.001943916486660591e+00 4.999578644147082862e+00 4.998716221458519016e+00 4.997491376860902612e+00 4.998073230761924890e+00 4.998823940535462640e+00 4.996013375686779057e+00 5.002043702889207744e+00 4.999151866509428999e+00 5.002432746477578185e+00 4.997002377607336676e+00 5.001067466908324377e+00 4.995978689893551206e+00 5.002023804942352214e+00 5.003119995588359181e+00 5.002846558406828237e+00 4.961946509838442765e+00 4.997662308773190176e+00 4.993923842747537201e+00 4.997269072774873422e+00 4.996711011800268665e+00 5.003709279928793663e+00 5.002001254402292041e+00 4.997583319109325295e+00 4.998312979973816184e+00 5.001334609724561453e+00 4.997592393344888251e+00 5.000208708919441136e+00 4.995815156618770736e+00 5.003918790844348763e+00 4.997517851254690058e+00 4.990705294874322462e+00 4.998069263403859708e+00 4.997258784474190918e+00 5.002336193987100721e+00 4.995608710051392620e+00 4.995546305732751158e+00 4.996899040709008588e+00 5.000034523791742735e+00 5.002094046464106825e+00 4.999922024038644608e+00 4.998221000618006116e+00 4.998068139077812333e+00 4.981415774408715968e+00 4.995933278541119016e+00 5.002581983970379120e+00 4.996331396736120034e+00 5.001456050496699390e+00 4.996224884402375999e+00 4.991786262318979261e+00 5.002464086647947283e+00 4.998005779374857127e+00 4.997882654139526259e+00 4.997553894651631801e+00 4.999281705950373578e+00 5.001542864359330487e+00 5.001951554246597098e+00 4.997961340578381595e+00 4.997699883054332659e+00 4.998762997942765907e+00 5.000045537501352833e+00 5.003593219707116013e+00 4.999567784668229820e+00 4.996399101892539107e+00 4.998003987689494387e+00 5.002121028061859320e+00 5.001223723537568944e+00 5.002673396820851437e+00 4.998421499215806030e+00 4.994131744837881470e+00 4.991292044333697220e+00 4.994718175978133168e+00 4.996974638498813626e+00 4.998771035373807514e+00 4.996592859901537231e+00 4.971422527919404644e+00 4.996899367743888654e+00 5.003433548149008203e+00 4.997411856386159812e+00 4.996184220054498581e+00 4.999051802726830473e+00 4.998035457645029211e+00 5.001740977157901114e+00 5.000554827436243244e+00 4.998534439258186524e+00 5.002249667601010863e+00 5.000297806792333155e+00 4.997882890330970440e+00 4.995783412621170427e+00 4.998005678506337368e+00 4.997201732423029341e+00 4.998153483348076520e+00 4.997517113746926753e+00 4.997815559544783071e+00 4.999579380005309659e+00 4.997440319618280391e+00 4.998813081475045550e+00 4.998390020467835981e+00 4.997055486056650508e+00 4.997088874871366215e+00 4.996551725377057274e+00 5.003167359256721625e+00 4.995974783132451691e+00 4.996917895080899008e+00 4.995019635575204120e+00 4.997456600500491675e+00
4.998555516720595726e+00 4.954578785196196655e+00 4.998293606844598891e+00 4.996722011974231492e+00 4.996545402937734970e+00 5.002555808458524211e+00 4.997393876112791844e+00 4.999453224635475479e+00 4.998988022640062923e+00 4.997758731743928706e+00 5.000452633918484935e+00 4.997988352394751921e+00 4.998174091524781204e+00 4.998853725848236174e+00 5.002808721229826006e+00 4.997584997404099560e+00 5.002124461438357983e+00 5.002033261790985286e+00 4.999132057442872146e+00 4.999242405443531823e+00 5.000104899123146929e+00 4.999031965428345714e+00 5.000415346016982454e+00 4.983348079657389462e+00 5.002927972102803267e+00 5.002565282883493225e+00 4.974388043659409675e+00 4.997657774338239101e+00 4.996013655370236783e+00 5.002233422384922967e+00 5.003639771276058745e+00 4.997627009582281232e+00 4.998930086197415079e+00 4.995843161796529763e+00 5.003252812441674635e+00 4.984552720645600843e+00 4.998530563786303560e+00 4.996440307512713730e+00 4.999139849750960707e+00 4.998268959869997197e+00 4.998853702762247941e+00 4.997745047157136078e+00 4.998525966733449621e+00 4.997941421851380461e+00 5.003147020032791659e+00 4.997553562783857650e+00 5.001722225600940597e+00 5.001397209235900476e+00 4.997787584140589878e+00 4.997484351522737178e+00 4.996491476265982890e+00 4.998809868794752198e+00 4.995884516755991100e+00 5.000045650309341561e+00 4.997427670512490039e+00 4.996604184684954930e+00 4.937593520221312815e+00 4.996677096189138467e+00 4.999108344171631302e+00 4.997783371323340162e+00 4.996975902480467191e+00 5.002956036374919258e+00 4.997268668464705854e+00 4.996433603136771318e+00 5.002809745002660513e+00 4.997137758599563995e+00 4.999346116513748939e+00 4.999521119310126771e+00 4.998360805503978099e+00 4.997590320311990020e+00 5.001698118159413120e+00 5.000941480173366926e+00 4.999070406470149663e+00 4.995922865611913011e+00 5.002411247085330359e+00 5.003702368103549070e+00 4.995692321654328971e+00 4.995738860839687767e+00 5.003263181808954130e+00 5.000553479087243680e+00 4.996739566994184756e+00 4.997518406449366069e+00 5.002318445508025846e+00 4.996314201514492126e+00 4.998930796894176964e+00 5.003796405482910714e+00 4.957370839729914991e+00 5.003383341606684631e+00 4.995882189783213079e+00 5.003287840556541077e+00 4.998041285066785910e+00 4.972016506445629425e+00 5.002722468735812278e+00 4.998818676449131360e+00 4.998061263627247008e+00 5.001971221698194192e+00 4.997277789117469560e+00 5.002214206600116952e+00 4.996132103439034466e+00 5.002024728795072761e+00 4.996254018043540412e+00 4.999634082346631203e+00 4.997324120532400826e+00 5.001838407858734570e+00 4.990182988966197719e+00 5.003211332892208318e+00 4.997470879274418465e+00 4.997954563901812364e+00 4.996987395789964204e+00 5.000212220404956831e+00 4.997452750976060898e+00 5.000182135978363362e+00 5.001195165770796258e+00 5.002915535934617353e+00 4.996094477489703145e+00 4.998895647343929660e+00 4.999865072296504565e+00 5.002622568691809768e+00 4.998730928266481577e+00
4.998108743296626244e+00 5.002805356650004143e+00 4.997366803425361326e+00 5.001018174684872086e+00 4.985413616753528565e+00 4.998293160139986924e+00 4.998368287951495681e+00 4.997061645994222090e+00 4.998217087397199165e+00 4.997129440528007116e+00 4.996390409748940442e+00 4.996691746386719757e+00 4.995899927260439632e+00 5.001545540533722800e+00 4.996308146848786436e+00 4.995642011502553714e+00 5.002880497418531469e+00 5.000589884609957458e+00 4.996638752347206669e+00 4.997651092844744625e+00 4.998698350131463464e+00 4.996641199778558473e+00 5.002863673497073727e+00 4.995787844143221967e+00 5.003165234491937063e+00 4.989710405996053311e+00 4.998650008757491214e+00 4.998369835222216118e+00 4.998382631591949732e+00 4.995778527196317320e+00 4.996054232782319637e+00 4.997899929666003160e+00 4.998178821119262594e+00 4.997206073142324456e+00 4.997446243966854773e+00 4.995797539428044054e+00 5.003884183192948143e+00 4.996572957544629823e+00 4.998341908103157927e+00 4.998440486670005178e+00 4.995915894390987155e+00 4.998105753008618812e+00 4.996170879396097497e+00 5.003257803602140008e+00 4.997849162238902743e+00 4.998268912225230842e+00 4.997515965589478526e+00 4.998787249669053523e+00 4.998169845410405543e+00 5.001757409675845700e+00 5.000585609527914421e+00 5.000108060339384153e+00 4.998550887066944171e+00 4.997771092249180924e+00 4.996732935136831699e+00 5.001538319951605693e+00 5.004342295049052147e+00 5.002422358461281249e+00 4.996698248788042918e+00 4.998706969083831275e+00 4.998535470392216240e+00 4.997874186109503292e+00 4.998642442813014952e+00 4.998087269328461701e+00 4.997667911276720609e+00 4.999262068390115665e+00 4.996942810375771593e+00 4.996344757753077737e+00 4.997934977864790795e+00 5.000827395067774184e+00 4.995934801672239800e+00 5.002524408033501402e+00 4.999610831573868097e+00 4.998945115719219956e+00 4.996327675711490279e+00 5.003781068852727998e+00 4.996262023768686333e+00 4.999129341166983487e+00 4.996669878883968074e+00 4.997737702781078539e+00 5.000170961239484235e+00 4.997486852095037513e+00 5.001361906257837830e+00 4.997601234334108966e+00 4.995697127393827763e+00 4.997036514498474524e+00 4.998012306035002794e+00 5.002187064384753690e+00 4.998106485495685369e+00 4.999120058152951351e+00 5.002678419819278410e+00 4.996067185995523907e+00 4.996435404623960075e+00 4.997633489229810877e+00 5.002269678762123917e+00 4.998757137961997721e+00 5.000158476768772786e+00 5.000313588820720412e+00 4.997261712015767188e+00 4.997367827282745978e+00 4.998262427004670272e+00 4.997060910252256072e+00 5.001606601266418650e+00 4.997939322375477111e+00 4.997489938512600816e+00 4.998975071111992463e+00 4.986772111764945947e+00 4.997149678986605892e+00 5.002281369400578548e+00 4.996597778930899736e+00 4.998815356215438044e+00 4.990201188664336485e+00 4.995918327124307723e+00 4.996799299673213568e+00 4.997520323789502505e+00 4.998572537370318258e+00 5.001707581355439913e+00 5.000361260381726680e+00 4.997062811963307816e+00
5.003162067261515134e+00 5.002784785905070031e+00 4.997885470182872325e+00 4.997223790661917242e+00 5.003608424216168693e+00 4.995741805066744590e+00 4.997318437082969744e+00 5.000901848714735642e+00 4.997627415472398305e+00 4.996396650889184166e+00 4.995245671410195598e+00 5.000217852056184853e+00 4.998286235526927967e+00 4.997130973612694760e+00 4.997310675579392125e+00 4.998402909709733777e+00 4.997774371070803134e+00 4.997825549945268619e+00 4.997991316397063066e+00 4.996939415865766065e+00 4.996628835213129172e+00 4.997393910693105568e+00 4.996613651609748352e+00 4.998186956274853543e+00 4.996433782218737463e+00 4.998568370467680211e+00 5.001887313448377448e+00 5.002617730000091356e+00 5.002973608336042766e+00 4.996753306106896275e+00 4.997749309794823347e+00 4.997788560112645939e+00 5.000999515096141046e+00 4.999932031823910883e+00 4.996952075957699080e+00 5.002056471776964663e+00 4.998330054546086920e+00 5.003778512057730055e+00 4.996727428544712524e+00 5.000791543276028150e+00 5.002928890239536130e+00 4.996288521387485915e+00 4.999819496015167175e+00 4.998221457247481680e+00 4.983811971425302190e+00 4.998616030268312471e+00 4.997834702435031140e+00 4.997666641776470797e+00 5.001478555256444913e+00 4.998141280604454728e+00 4.996223051613056576e+00 5.002127450082983096e+00 4.995380968163132707e+00 5.002251798800436688e+00 4.996995095388166774e+00 5.001823623211253178e+00 4.998107919677620359e+00 5.004228766140943918e+00 5.002796635352267707e+00 4.996618601599673859e+00 4.999812691997320258e+00 4.998575564834514928e+00 5.002627285671212398e+00 4.998276725238829599e+00 4.998002456513211733e+00 4.998286241461353363e+00 4.997061723889435036e+00 5.002560865923460831e+00 4.997695874073695421e+00 4.998057853517782867e+00 4.997820059353231592e+00 4.996282055087672092e+00 4.999375772833221987e+00 4.997323846086167975e+00 4.998508126920127026e+00 4.977836693591601858e+00 4.998218425273442733e+00 4.997556185537924023e+00 4.998368075942560829e+00 4.999275590626173660e+00 4.998648052863941871e+00 4.997088214459297184e+00 4.997093333403924476e+00 4.996319943804124364e+00 5.003326431317262291e+00 4.997904091831740558e+00 4.995780977260478650e+00 5.002914292327289125e+00 4.996738866934785861e+00 4.997160205834496161e+00 4.997662105804958621e+00 4.997791818828329014e+00 5.002189417273076089e+00 4.997542739903910736e+00 4.999957237095432383e+00 4.997306977699793151e+00 4.998400270177071114e+00 4.997362100621628223e+00 4.996191636712535633e+00 5.002232355162750110e+00 4.996572679126308536e+00 4.995676173611803605e+00 4.996153214586229296e+00 4.997929217499480714e+00 5.000724030413973509e+00 4.998145113969690634e+00 5.004362774032109940e+00 4.997793758236408479e+00 4.999041638908533258e+00 4.998128989528758837e+00 4.998353990330624441e+00 4.999954840314634552e+00 4.998360797179279835e+00 5.000217881567592393e+00 4.998375522496977474e+00 4.996548500511273083e+00 4.994864046894742948e+00 4.999512304476692037e+00 4.997418885926510512e+00
4.995915093108969529e+00 5.002500988739132737e+00 5.003318526731054483e+00 5.003506848913005456e+00 4.998664775311113750e+00 4.996189435218980179e+00 5.002296564581236282e+00 4.998383461917660142e+00 4.995622638111603564e+00 4.997317585368652004e+00 5.003544380931348456e+00 4.995996928297813611e+00 4.998305029850344638e+00 4.997714009982882288e+00 5.002811457641132442e+00 4.996711036026327157e+00 4.997860587238300845e+00 4.997200716292596212e+00 5.001045857249356352e+00 5.001904673574827598e+00 5.002958597180937161e+00 4.997552524373493732e+00 4.997919262229746806e+00 4.999629929221949709e+00 5.001569318135762998e+00 4.998847524242495233e+00 5.001533549552221736e+00 4.997210496601486085e+00 4.998096180001407873e+00 5.003352832778567461e+00 4.999278114543177054e+00 4.996755714120503455e+00 4.999023750503900132e+00 4.999010818221715446e+00 4.991949959941871739e+00 4.997305392066868635e+00 5.002555436212956508e+00 5.003453800703693055e+00 5.001602726078044014e+00 5.002333955569861601e+00 4.995828197566161144e+00 4.997664416931244524e+00 4.996926442142437530e+00 4.998257192385924697e+00 4.970179603169296634e+00 4.987687408060794247e+00 5.001885348690835009e+00 4.997659058378681074e+00 5.000876278421721111e+00 4.995853078182068252e+00 4.999103421784438339e+00 4.996131028019078713e+00 4.997573049249052879e+00 5.002398747150243352e+00 4.999070240260931719e+00 4.996602339767016510e+00 4.999757716934714935e+00 4.994127744738563024e+00 4.998068096783478964e+00 4.998499365738577893e+00 4.994077576967203669e+00 4.995253818023011938e+00 4.974321753535907220e+00 4.998474032522255861e+00 5.000167365459549096e+00 4.997435695622893803e+00 4.999586062127398201e+00 4.994750769560559966e+00 4.999473905616504510e+00 4.997317502254998267e+00 4.997408836859989378e+00 4.995378501427077289e+00 4.998808516596571216e+00 4.997205786004625949e+00 5.001576601230018682e+00 4.996494719652226024e+00 5.003780559619016799e+00 4.995727125938287827e+00 4.982953911235909139e+00 4.999423290830899980e+00 4.997624037856217782e+00 5.003154416620112954e+00 4.996149367429243426e+00 4.998430116973891835e+00 4.997501659554136388e+00 4.999408030152062921e+00 4.997252317787861386e+00 5.002776817759841954e+00 4.995700063048492012e+00 5.001653088333511299e+00 4.999455246786362217e+00 4.997928522858381406e+00 4.999041280855723635e+00 5.001237579056415861e+00 4.996988857585545674e+00 4.998510654514000784e+00 5.001365654866296140e+00 4.999278086135351629e+00 4.996292472868834267e+00 5.002532415240686703e+00 5.001465133852743605e+00 5.002265125550606761e+00 5.001767667781289006e+00 4.999724936317453405e+00 4.997031071468274632e+00 4.998808990260236840e+00 4.997617325564924329e+00 4.994700957272955044e+00 4.997400343430259184e+00 4.998246107997910137e+00 5.001656285064110641e+00 5.000496137951849107e+00 5.001615688272886828e+00 4.998623346997575823e+00 4.998309905540081921e+00 5.002982133957229571e+00 4.996403622294977254e+00 5.002183090544708222e+00 4.995983909017734703e+00
4.993926392062820518e+00 4.997519077670394161e+00 4.996991528495268398e+00 4.996936879807546639e+00 4.997622532758548175e+00 4.994296997666095805e+00 4.997099972456109818e+00 4.998086485175239346e+00 5.003795148027283091e+00 4.995330384248879874e+00 4.998318604047637059e+00 5.003535028524893846e+00 4.987726082642686798e+00 4.999267597892828263e+00 4.997169631823975777e+00 4.999272623350734968e+00 4.997356076631670696e+00 5.001020671721870592e+00 4.999131206277099615e+00 5.002184714998086257e+00 4.997849810320832198e+00 4.996998992156570729e+00 4.996813669466914298e+00 4.997622241069201721e+00 4.999482131790444761e+00 5.001699970923914940e+00 4.998400407429817172e+00 4.998049329816001141e+00 4.998844293016995621e+00 4.995753661831975556e+00 4.996299342388635267e+00 4.999127514488559854e+00 4.997928568984111308e+00 5.000090525211762227e+00 4.997448702472927273e+00 4.998642079163112761e+00 4.998383303438075131e+00 4.998947636936097894e+00 4.967181318899698717e+00 4.998271939004516717e+00 4.997056731827250964e+00 5.002179606469980833e+00 5.000520760691129496e+00 5.003787713854637609e+00 4.997447437522392732e+00 5.000292215934314832e+00 5.003801525828876606e+00 4.998648518793812556e+00 4.997408598030441240e+00 4.998196367838302123e+00 4.998361704320290144e+00 4.996254810573265814e+00 5.002458996258575930e+00 4.998425881012638072e+00 5.000131739498374195e+00 4.997975833583693017e+00 4.997295900005771507e+00 4.971341155543336221e+00 4.967641946991022905e+00 4.995403074061953497e+00 5.004593500676760343e+00 5.002347359307464103e+00 5.003672047914779597e+00 4.997417846089582838e+00 4.997429804865802794e+00 4.997621751000838053e+00 4.996439394312864657e+00 5.002415944879004428e+00 4.998161286290321748e+00 4.999366689404286745e+00 4.998623710996660918e+00 5.003604259906577312e+00 4.996605486462656565e+00 4.997037941902951808e+00 5.002539539458062734e+00 4.997740883706491388e+00 4.996267042944981362e+00 4.992099756220691908e+00 4.996736222894114121e+00 5.003599078408218048e+00 4.996011837866427996e+00 5.002246392969006195e+00 4.997384388053172977e+00 4.996176333056798313e+00 5.001016125083185493e+00 4.998388665979263124e+00 4.998960571517939933e+00 4.996569046642228784e+00 4.998425895805716834e+00 4.996919535805922408e+00 4.999559406592378963e+00 4.997239704143441763e+00 4.998319744183006286e+00 4.998336664774692295e+00 4.999182784767898013e+00 4.998313920809724031e+00 4.997321407708367857e+00 5.001475542214084413e+00 4.995936858892878085e+00 5.002015268326571729e+00 5.001945620168697815e+00 4.999015976773202752e+00 5.002278835807512536e+00 4.998401261675303076e+00 5.002846688004610520e+00 4.997603855594067390e+00 4.999428732255888796e+00 5.003543391015163877e+00 4.999123560073433836e+00 4.998203746822619031e+00 4.998937955231536279e+00 4.999043679125183992e+00 4.996805270913651675e+00 4.997076002083917778e+00 5.002737422093028741e+00 4.997459726425798721e+00 4.997241427549486303e+00 4.997722417889591817e+00 4.997289386945830358e+00
