ncols 119
nrows 32
xllcorner 530
yllcorner 140
cellsize 10.0
2.730700000000000000e+04 2.730800000000000000e+04 8.661900000000000000e+04 2.701100000000000000e+04 2.701200000000000000e+04 8.602900000000000000e+04 2.701400000000000000e+04 8.663000000000000000e+04 2.701600000000000000e+04 8.603700000000000000e+04 2.701800000000000000e+04 8.663800000000000000e+04 2.702000000000000000e+04 8.604500000000000000e+04 2.702200000000000000e+04 2.732200000000000000e+04 8.664700000000000000e+04 2.702400000000000000e+04 2.702500000000000000e+04 2.702600000000000000e+04 2.732700000000000000e+04 2.702800000000000000e+04 2.703000000000000000e+04 2.703100000000000000e+04 2.733100000000000000e+04 8.666500000000000000e+04 2.703300000000000000e+04 2.703500000000000000e+04 2.673600000000000000e+04 2.703700000000000000e+04 2.703800000000000000e+04 8.608100000000000000e+04 2.674000000000000000e+04 2.734000000000000000e+04 2.674200000000000000e+04 8.608600000000000000e+04 2.704300000000000000e+04 8.668900000000000000e+04 2.704500000000000000e+04 2.704600000000000000e+04 8.669500000000000000e+04 2.704800000000000000e+04 2.704900000000000000e+04 2.705100000000000000e+04 8.670400000000000000e+04 2.735200000000000000e+04 2.735300000000000000e+04 2.705500000000000000e+04 2.675600000000000000e+04 2.705600000000000000e+04 2.675800000000000000e+04 8.611800000000000000e+04 2.705900000000000000e+04 2.676100000000000000e+04 8.612400000000000000e+04 2.706200000000000000e+04 8.672700000000000000e+04 2.706400000000000000e+04 2.706500000000000000e+04 8.673300000000000000e+04 2.706800000000000000e+04 2.706900000000000000e+04 2.707000000000000000e+04 8.614500000000000000e+04 2.677200000000000000e+04 2.677300000000000000e+04 2.677400000000000000e+04 2.707500000000000000e+04 2.737500000000000000e+04 2.737600000000000000e+04 8.675600000000000000e+04 2.737800000000000000e+04 2.707900000000000000e+04 2.708100000000000000e+04 8.616700000000000000e+04 2.678300000000000000e+04 2.678400000000000000e+04 8.617000000000000000e+04 2.708500000000000000e+04 8.677300000000000000e+04 2.708700000000000000e+04 2.708800000000000000e+04 2.708900000000000000e+04 2.709000000000000000e+04 2.709100000000000000e+04 2.679300000000000000e+04 2.679400000000000000e+04 8.619000000000000000e+04 2.739500000000000000e+04 2.709700000000000000e+04 2.709800000000000000e+04 8.679800000000000000e+04 2.710000000000000000e+04 8.620500000000000000e+04 2.680200000000000000e+04 2.710200000000000000e+04 2.740300000000000000e+04 2.710500000000000000e+04 2.680600000000000000e+04 2.680700000000000000e+04 8.621600000000000000e+04 2.710800000000000000e+04 2.681000000000000000e+04 8.622200000000000000e+04 2.711100000000000000e+04 2.711200000000000000e+04 2.711300000000000000e+04 2.711400000000000000e+04 2.741500000000000000e+04 2.711700000000000000e+04 8.623900000000000000e+04 2.681900000000000000e+04 2.712000000000000000e+04 8.684200000000000000e+04 2.742100000000000000e+04 8.684500000000000000e+04 2.712300000000000000e+04 2.712500000000000000e+04 8.625500000000000000e+04
2.670800000000000000e+04 2.611000000000000000e+04 2.671000000000000000e+04 2.641200000000000000e+04 2.641300000000000000e+04 2.641400000000000000e+04 8.603000000000000000e+04 2.671500000000000000e+04 2.641700000000000000e+04 2.641800000000000000e+04 8.603800000000000000e+04 2.671900000000000000e+04 8.604200000000000000e+04 2.642200000000000000e+04 8.604600000000000000e+04 2.672300000000000000e+04 2.672400000000000000e+04 2.672500000000000000e+04 2.672600000000000000e+04 2.612800000000000000e+04 2.612900000000000000e+04 2.643000000000000000e+04 8.606200000000000000e+04 2.643200000000000000e+04 2.673200000000000000e+04 2.673300000000000000e+04 2.613500000000000000e+04 2.613600000000000000e+04 8.547400000000000000e+04 2.613800000000000000e+04 2.613900000000000000e+04 2.644000000000000000e+04 2.614100000000000000e+04 2.614200000000000000e+04 8.548600000000000000e+04 2.644300000000000000e+04 2.644400000000000000e+04 2.674500000000000000e+04 2.674600000000000000e+04 8.609500000000000000e+04 2.644800000000000000e+04 2.644900000000000000e+04 8.610100000000000000e+04 2.645100000000000000e+04 2.675200000000000000e+04 2.645300000000000000e+04 2.615500000000000000e+04 2.645600000000000000e+04 8.551700000000000000e+04 2.615800000000000000e+04 2.615900000000000000e+04 2.645900000000000000e+04 8.612100000000000000e+04 2.646100000000000000e+04 2.646200000000000000e+04 2.646400000000000000e+04 2.676400000000000000e+04 8.613100000000000000e+04 2.646600000000000000e+04 2.646700000000000000e+04 2.646800000000000000e+04 2.676900000000000000e+04 2.677000000000000000e+04 2.647200000000000000e+04 8.554900000000000000e+04 2.617400000000000000e+04 8.555000000000000000e+04 2.647500000000000000e+04 2.677600000000000000e+04 2.647800000000000000e+04 2.677800000000000000e+04 2.677900000000000000e+04 2.648100000000000000e+04 8.616400000000000000e+04 2.648300000000000000e+04 2.648400000000000000e+04 8.557300000000000000e+04 2.618600000000000000e+04 2.618700000000000000e+04 2.618800000000000000e+04 2.678800000000000000e+04 2.678900000000000000e+04 2.619100000000000000e+04 2.679100000000000000e+04 2.619300000000000000e+04 8.558800000000000000e+04 2.649400000000000000e+04 2.649500000000000000e+04 2.619700000000000000e+04 8.559600000000000000e+04 2.619900000000000000e+04 2.650000000000000000e+04 8.620200000000000000e+04 2.650200000000000000e+04 2.620300000000000000e+04 2.620400000000000000e+04 8.561000000000000000e+04 2.650600000000000000e+04 2.620700000000000000e+04 8.561600000000000000e+04 2.650800000000000000e+04 8.621900000000000000e+04 2.651000000000000000e+04 2.651100000000000000e+04 2.681200000000000000e+04 2.681300000000000000e+04 2.681400000000000000e+04 2.651600000000000000e+04 2.621700000000000000e+04 2.651700000000000000e+04 2.621900000000000000e+04 2.622000000000000000e+04 2.652100000000000000e+04 2.682100000000000000e+04 2.652300000000000000e+04 2.682300000000000000e+04 8.624900000000000000e+04 2.652500000000000000e+04 2.622700000000000000e+04
2.581000000000000000e+04 8.482500000000000000e+04 2.581200000000000000e+04 8.542600000000000000e+04 2.611300000000000000e+04 2.611400000000000000e+04 2.611500000000000000e+04 2.611600000000000000e+04 2.581700000000000000e+04 2.581900000000000000e+04 2.611900000000000000e+04 2.582000000000000000e+04 2.582200000000000000e+04 8.544600000000000000e+04 2.612300000000000000e+04 8.544900000000000000e+04 2.582500000000000000e+04 2.582700000000000000e+04 2.582800000000000000e+04 2.582900000000000000e+04 2.583000000000000000e+04 8.546200000000000000e+04 2.613100000000000000e+04 2.583300000000000000e+04 2.613300000000000000e+04 2.583400000000000000e+04 8.487200000000000000e+04 2.583600000000000000e+04 2.583700000000000000e+04 8.487800000000000000e+04 2.583900000000000000e+04 2.584000000000000000e+04 2.554200000000000000e+04 8.488600000000000000e+04 2.584300000000000000e+04 2.584400000000000000e+04 8.549100000000000000e+04 2.584700000000000000e+04 8.549600000000000000e+04 2.614800000000000000e+04 2.614900000000000000e+04 8.550100000000000000e+04 2.585100000000000000e+04 2.585200000000000000e+04 2.615300000000000000e+04 2.585400000000000000e+04 8.491500000000000000e+04 2.555700000000000000e+04 2.585800000000000000e+04 8.492100000000000000e+04 2.556000000000000000e+04 2.556100000000000000e+04 2.616100000000000000e+04 2.616200000000000000e+04 2.556400000000000000e+04 8.493300000000000000e+04 2.556600000000000000e+04 2.616600000000000000e+04 2.616700000000000000e+04 8.553700000000000000e+04 2.586900000000000000e+04 2.557100000000000000e+04 2.557200000000000000e+04 8.494600000000000000e+04 2.587400000000000000e+04 8.495300000000000000e+04 2.557600000000000000e+04 8.495400000000000000e+04 2.587800000000000000e+04 8.555800000000000000e+04 2.617900000000000000e+04 8.556100000000000000e+04 8.556400000000000000e+04 2.618200000000000000e+04 2.588400000000000000e+04 8.557000000000000000e+04 2.588600000000000000e+04 2.558700000000000000e+04 8.497600000000000000e+04 2.588800000000000000e+04 2.588900000000000000e+04 2.589100000000000000e+04 8.498700000000000000e+04 2.559300000000000000e+04 2.559400000000000000e+04 2.589400000000000000e+04 2.559600000000000000e+04 2.559700000000000000e+04 8.499600000000000000e+04 2.589800000000000000e+04 2.590000000000000000e+04 8.560200000000000000e+04 2.620100000000000000e+04 2.590300000000000000e+04 8.501100000000000000e+04 2.560500000000000000e+04 2.590500000000000000e+04 2.560700000000000000e+04 8.501600000000000000e+04 2.590800000000000000e+04 8.561900000000000000e+04 2.591000000000000000e+04 2.621100000000000000e+04 2.561300000000000000e+04 2.561400000000000000e+04 2.561500000000000000e+04 8.503200000000000000e+04 2.591700000000000000e+04 8.503900000000000000e+04 2.561900000000000000e+04 8.504000000000000000e+04 2.562100000000000000e+04 2.592200000000000000e+04 2.622200000000000000e+04 8.564800000000000000e+04 2.622400000000000000e+04 2.622500000000000000e+04 8.565300000000000000e+04 2.592700000000000000e+04
2.521100000000000000e+04 2.521200000000000000e+04 8.482600000000000000e+04 2.551300000000000000e+04 2.521500000000000000e+04 2.521600000000000000e+04 2.521700000000000000e+04 8.423900000000000000e+04 2.521900000000000000e+04 8.484000000000000000e+04 2.552000000000000000e+04 2.492200000000000000e+04 2.522300000000000000e+04 2.552300000000000000e+04 8.485000000000000000e+04 2.552500000000000000e+04 8.485300000000000000e+04 2.522700000000000000e+04 2.552800000000000000e+04 2.552900000000000000e+04 2.553000000000000000e+04 2.553100000000000000e+04 2.553200000000000000e+04 2.523400000000000000e+04 2.553400000000000000e+04 8.487100000000000000e+04 2.523600000000000000e+04 2.523700000000000000e+04 8.487700000000000000e+04 2.523900000000000000e+04 2.554000000000000000e+04 2.494200000000000000e+04 8.428600000000000000e+04 2.524300000000000000e+04 2.554400000000000000e+04 2.494600000000000000e+04 2.524700000000000000e+04 8.489600000000000000e+04 2.554800000000000000e+04 2.525000000000000000e+04 8.490200000000000000e+04 2.555100000000000000e+04 8.490500000000000000e+04 2.525300000000000000e+04 2.555400000000000000e+04 2.525500000000000000e+04 8.431400000000000000e+04 2.525800000000000000e+04 8.432100000000000000e+04 2.496000000000000000e+04 2.496100000000000000e+04 8.432400000000000000e+04 2.526200000000000000e+04 2.496400000000000000e+04 8.433000000000000000e+04 2.526600000000000000e+04 2.496700000000000000e+04 2.526700000000000000e+04 2.496900000000000000e+04 2.497000000000000000e+04 2.527100000000000000e+04 8.434700000000000000e+04 2.497300000000000000e+04 2.527300000000000000e+04 8.495000000000000000e+04 2.527600000000000000e+04 8.435700000000000000e+04 2.497800000000000000e+04 2.497900000000000000e+04 2.557900000000000000e+04 8.496200000000000000e+04 2.558100000000000000e+04 2.528200000000000000e+04 2.558300000000000000e+04 2.498500000000000000e+04 2.498600000000000000e+04 2.498700000000000000e+04 8.437600000000000000e+04 2.528800000000000000e+04 2.558900000000000000e+04 2.529100000000000000e+04 2.529200000000000000e+04 2.529300000000000000e+04 8.439100000000000000e+04 2.499500000000000000e+04 2.529500000000000000e+04 2.499700000000000000e+04 8.439600000000000000e+04 2.529800000000000000e+04 2.529900000000000000e+04 8.500200000000000000e+04 2.560100000000000000e+04 2.560200000000000000e+04 2.500400000000000000e+04 2.500500000000000000e+04 2.500600000000000000e+04 2.530600000000000000e+04 2.500800000000000000e+04 2.530800000000000000e+04 8.442300000000000000e+04 2.501100000000000000e+04 2.531200000000000000e+04 2.531300000000000000e+04 2.531400000000000000e+04 2.531500000000000000e+04 8.443500000000000000e+04 2.501700000000000000e+04 2.501800000000000000e+04 2.531900000000000000e+04 8.444300000000000000e+04 2.502100000000000000e+04 8.444400000000000000e+04 2.532200000000000000e+04 2.562300000000000000e+04 2.562400000000000000e+04 8.505100000000000000e+04 2.532700000000000000e+04 2.562700000000000000e+04 2.562800000000000000e+04
2.461200000000000000e+04 8.422600000000000000e+04 2.491300000000000000e+04 2.461500000000000000e+04 8.423200000000000000e+04 2.461700000000000000e+04 2.461800000000000000e+04 2.461900000000000000e+04 8.424000000000000000e+04 2.492000000000000000e+04 8.424300000000000000e+04 2.432300000000000000e+04 2.462400000000000000e+04 8.425000000000000000e+04 2.492500000000000000e+04 8.425400000000000000e+04 2.492700000000000000e+04 2.432900000000000000e+04 8.366000000000000000e+04 2.463000000000000000e+04 2.463100000000000000e+04 2.433300000000000000e+04 2.493300000000000000e+04 8.427000000000000000e+04 2.493500000000000000e+04 2.493600000000000000e+04 8.427500000000000000e+04 2.463800000000000000e+04 2.463900000000000000e+04 2.464000000000000000e+04 2.464100000000000000e+04 2.464200000000000000e+04 2.464300000000000000e+04 2.464500000000000000e+04 2.464600000000000000e+04 8.369700000000000000e+04 2.434800000000000000e+04 2.494800000000000000e+04 8.429900000000000000e+04 2.465100000000000000e+04 2.495100000000000000e+04 2.465200000000000000e+04 2.495300000000000000e+04 2.465500000000000000e+04 2.495500000000000000e+04 8.431300000000000000e+04 2.465700000000000000e+04 2.495800000000000000e+04 2.466000000000000000e+04 8.372500000000000000e+04 2.436200000000000000e+04 2.466200000000000000e+04 2.466400000000000000e+04 8.373300000000000000e+04 2.436600000000000000e+04 2.466700000000000000e+04 2.436800000000000000e+04 2.436900000000000000e+04 8.374000000000000000e+04 2.467000000000000000e+04 2.467100000000000000e+04 2.437300000000000000e+04 8.374800000000000000e+04 2.467400000000000000e+04 2.497500000000000000e+04 2.497600000000000000e+04 2.437800000000000000e+04 8.375800000000000000e+04 2.467900000000000000e+04 2.468000000000000000e+04 2.498100000000000000e+04 2.498200000000000000e+04 2.468300000000000000e+04 8.377300000000000000e+04 2.468600000000000000e+04 2.468700000000000000e+04 8.377900000000000000e+04 2.438900000000000000e+04 2.439000000000000000e+04 2.469100000000000000e+04 8.438400000000000000e+04 2.499200000000000000e+04 2.499300000000000000e+04 2.439500000000000000e+04 8.379200000000000000e+04 2.469600000000000000e+04 8.379600000000000000e+04 2.469800000000000000e+04 2.469900000000000000e+04 8.440100000000000000e+04 2.470100000000000000e+04 2.470300000000000000e+04 2.470400000000000000e+04 2.470500000000000000e+04 2.440600000000000000e+04 2.440700000000000000e+04 2.470700000000000000e+04 8.382100000000000000e+04 2.441000000000000000e+04 2.441100000000000000e+04 8.382400000000000000e+04 2.471200000000000000e+04 2.471400000000000000e+04 8.443000000000000000e+04 2.501500000000000000e+04 2.471700000000000000e+04 2.441800000000000000e+04 8.383800000000000000e+04 2.442000000000000000e+04 2.472100000000000000e+04 2.442200000000000000e+04 2.472200000000000000e+04 2.442400000000000000e+04 8.385000000000000000e+04 8.385500000000000000e+04 2.472700000000000000e+04 8.445600000000000000e+04 2.502800000000000000e+04 8.445900000000000000e+04
2.371300000000000000e+04 2.431300000000000000e+04 2.431400000000000000e+04 2.401500000000000000e+04 2.401700000000000000e+04 2.401800000000000000e+04 8.363800000000000000e+04 2.431900000000000000e+04 2.432000000000000000e+04 2.432100000000000000e+04 2.402300000000000000e+04 8.305100000000000000e+04 2.402500000000000000e+04 2.432500000000000000e+04 2.432600000000000000e+04 2.432700000000000000e+04 8.365700000000000000e+04 2.402900000000000000e+04 2.403000000000000000e+04 8.366300000000000000e+04 2.403200000000000000e+04 2.403300000000000000e+04 2.403400000000000000e+04 2.403600000000000000e+04 8.367400000000000000e+04 2.433700000000000000e+04 2.433800000000000000e+04 2.433900000000000000e+04 2.434000000000000000e+04 2.434100000000000000e+04 2.434200000000000000e+04 2.434300000000000000e+04 8.368900000000000000e+04 2.404500000000000000e+04 2.434600000000000000e+04 2.374800000000000000e+04 8.309800000000000000e+04 2.404900000000000000e+04 2.375100000000000000e+04 2.375200000000000000e+04 2.435200000000000000e+04 2.405400000000000000e+04 8.311300000000000000e+04 2.375600000000000000e+04 2.375700000000000000e+04 2.435700000000000000e+04 8.371700000000000000e+04 2.405900000000000000e+04 2.376100000000000000e+04 2.406200000000000000e+04 2.376300000000000000e+04 2.406300000000000000e+04 8.373000000000000000e+04 2.406600000000000000e+04 8.313700000000000000e+04 2.406800000000000000e+04 8.314100000000000000e+04 2.377000000000000000e+04 2.407000000000000000e+04 2.437100000000000000e+04 2.407300000000000000e+04 2.377400000000000000e+04 2.407400000000000000e+04 8.375100000000000000e+04 8.315700000000000000e+04 2.377800000000000000e+04 8.315800000000000000e+04 2.407900000000000000e+04 2.408000000000000000e+04 2.408100000000000000e+04 2.378300000000000000e+04 2.378400000000000000e+04 2.378500000000000000e+04 2.408600000000000000e+04 2.408700000000000000e+04 8.377600000000000000e+04 2.408900000000000000e+04 2.379000000000000000e+04 8.318200000000000000e+04 2.409100000000000000e+04 2.439200000000000000e+04 2.409300000000000000e+04 2.379500000000000000e+04 8.319200000000000000e+04 2.409600000000000000e+04 2.409700000000000000e+04 2.409800000000000000e+04 8.379900000000000000e+04 2.410000000000000000e+04 2.410100000000000000e+04 8.380500000000000000e+04 2.410300000000000000e+04 2.380500000000000000e+04 2.380600000000000000e+04 2.380700000000000000e+04 2.380800000000000000e+04 2.410800000000000000e+04 2.381000000000000000e+04 8.322200000000000000e+04 2.411100000000000000e+04 2.411200000000000000e+04 8.382700000000000000e+04 8.383000000000000000e+04 2.441500000000000000e+04 2.411700000000000000e+04 2.381800000000000000e+04 8.323800000000000000e+04 2.382000000000000000e+04 8.324200000000000000e+04 2.412200000000000000e+04 8.324900000000000000e+04 2.382400000000000000e+04 2.382500000000000000e+04 2.412500000000000000e+04 2.412700000000000000e+04 8.385600000000000000e+04 2.442800000000000000e+04 2.413000000000000000e+04 2.443000000000000000e+04
2.341400000000000000e+04 8.303000000000000000e+04 2.371500000000000000e+04 2.311700000000000000e+04 2.311800000000000000e+04 2.371800000000000000e+04 2.371900000000000000e+04 8.304100000000000000e+04 2.312200000000000000e+04 2.372200000000000000e+04 8.304800000000000000e+04 2.342500000000000000e+04 8.305200000000000000e+04 2.372600000000000000e+04 8.305500000000000000e+04 2.342800000000000000e+04 2.372900000000000000e+04 2.373000000000000000e+04 8.306300000000000000e+04 2.373200000000000000e+04 2.373300000000000000e+04 8.306900000000000000e+04 2.343500000000000000e+04 8.307400000000000000e+04 2.373700000000000000e+04 2.373800000000000000e+04 8.307900000000000000e+04 2.344000000000000000e+04 8.248400000000000000e+04 2.314300000000000000e+04 2.314400000000000000e+04 2.344500000000000000e+04 2.374500000000000000e+04 2.344600000000000000e+04 2.314800000000000000e+04 8.249800000000000000e+04 2.315000000000000000e+04 2.345100000000000000e+04 2.345200000000000000e+04 2.345300000000000000e+04 8.251100000000000000e+04 2.315500000000000000e+04 2.345600000000000000e+04 8.251700000000000000e+04 2.315800000000000000e+04 2.315900000000000000e+04 2.316000000000000000e+04 2.316100000000000000e+04 2.346200000000000000e+04 2.346300000000000000e+04 8.253100000000000000e+04 2.316500000000000000e+04 2.346600000000000000e+04 8.313400000000000000e+04 2.346800000000000000e+04 8.254100000000000000e+04 2.347000000000000000e+04 8.254500000000000000e+04 2.317200000000000000e+04 2.347300000000000000e+04 2.347400000000000000e+04 8.255300000000000000e+04 2.317600000000000000e+04 2.317700000000000000e+04 2.317800000000000000e+04 8.255800000000000000e+04 2.347900000000000000e+04 2.378000000000000000e+04 8.316300000000000000e+04 2.348200000000000000e+04 2.318400000000000000e+04 8.257000000000000000e+04 2.348500000000000000e+04 2.348600000000000000e+04 8.257900000000000000e+04 2.318900000000000000e+04 2.319000000000000000e+04 2.319100000000000000e+04 2.349100000000000000e+04 8.318500000000000000e+04 2.379300000000000000e+04 2.319500000000000000e+04 8.259200000000000000e+04 2.349600000000000000e+04 8.319500000000000000e+04 2.349800000000000000e+04 8.319900000000000000e+04 2.350000000000000000e+04 2.350100000000000000e+04 8.320500000000000000e+04 2.380300000000000000e+04 2.350500000000000000e+04 2.320600000000000000e+04 2.320700000000000000e+04 2.320800000000000000e+04 8.261800000000000000e+04 2.350900000000000000e+04 2.351000000000000000e+04 2.351100000000000000e+04 2.381200000000000000e+04 8.322700000000000000e+04 2.351400000000000000e+04 2.321600000000000000e+04 2.321700000000000000e+04 2.351800000000000000e+04 8.264100000000000000e+04 2.322000000000000000e+04 2.322100000000000000e+04 2.352100000000000000e+04 8.324600000000000000e+04 2.352400000000000000e+04 8.265300000000000000e+04 2.322600000000000000e+04 2.352600000000000000e+04 2.352800000000000000e+04 2.382800000000000000e+04 2.382900000000000000e+04 8.326200000000000000e+04 2.383100000000000000e+04
2.311400000000000000e+04 2.311500000000000000e+04 2.251700000000000000e+04 8.183600000000000000e+04 2.281800000000000000e+04 2.281900000000000000e+04 8.184500000000000000e+04 2.252200000000000000e+04 8.184600000000000000e+04 2.282300000000000000e+04 8.245000000000000000e+04 2.282600000000000000e+04 2.312600000000000000e+04 2.282800000000000000e+04 2.312800000000000000e+04 2.282900000000000000e+04 2.253100000000000000e+04 8.186400000000000000e+04 2.283200000000000000e+04 8.187100000000000000e+04 2.253500000000000000e+04 2.253600000000000000e+04 2.253700000000000000e+04 2.283800000000000000e+04 2.283900000000000000e+04 8.248000000000000000e+04 2.314000000000000000e+04 8.248300000000000000e+04 2.284200000000000000e+04 2.284400000000000000e+04 8.189300000000000000e+04 2.284600000000000000e+04 2.314600000000000000e+04 8.249500000000000000e+04 2.284800000000000000e+04 2.284900000000000000e+04 2.285100000000000000e+04 2.285200000000000000e+04 8.250600000000000000e+04 2.285400000000000000e+04 2.285500000000000000e+04 8.191500000000000000e+04 2.255700000000000000e+04 2.285800000000000000e+04 2.255900000000000000e+04 8.192000000000000000e+04 8.192500000000000000e+04 2.256200000000000000e+04 2.286200000000000000e+04 2.316300000000000000e+04 2.286500000000000000e+04 2.286600000000000000e+04 2.286700000000000000e+04 2.286800000000000000e+04 8.253800000000000000e+04 2.287000000000000000e+04 8.194500000000000000e+04 2.287200000000000000e+04 2.257300000000000000e+04 2.287300000000000000e+04 2.257500000000000000e+04 2.287600000000000000e+04 2.257700000000000000e+04 2.287800000000000000e+04 2.257900000000000000e+04 2.258000000000000000e+04 2.288000000000000000e+04 2.258200000000000000e+04 2.258300000000000000e+04 2.258400000000000000e+04 8.197000000000000000e+04 2.288500000000000000e+04 8.197700000000000000e+04 2.258800000000000000e+04 2.288900000000000000e+04 2.289000000000000000e+04 8.198500000000000000e+04 2.259200000000000000e+04 2.289200000000000000e+04 8.199100000000000000e+04 2.289500000000000000e+04 8.199500000000000000e+04 2.259700000000000000e+04 2.259800000000000000e+04 2.319800000000000000e+04 2.290000000000000000e+04 2.320000000000000000e+04 2.320100000000000000e+04 2.260300000000000000e+04 8.201100000000000000e+04 2.260500000000000000e+04 2.290600000000000000e+04 8.201700000000000000e+04 2.260800000000000000e+04 2.260900000000000000e+04 2.290900000000000000e+04 8.262100000000000000e+04 2.291100000000000000e+04 2.291200000000000000e+04 2.291400000000000000e+04 8.203300000000000000e+04 2.261600000000000000e+04 8.203400000000000000e+04 2.291700000000000000e+04 2.291800000000000000e+04 2.292000000000000000e+04 2.262100000000000000e+04 8.204400000000000000e+04 2.292200000000000000e+04 2.292300000000000000e+04 8.265000000000000000e+04 2.292600000000000000e+04 2.262700000000000000e+04 2.262800000000000000e+04 2.262900000000000000e+04 8.206000000000000000e+04 2.293000000000000000e+04 2.323100000000000000e+04 2.323200000000000000e+04
8.183100000000000000e+04 2.221600000000000000e+04 8.123600000000000000e+04 2.221800000000000000e+04 2.251900000000000000e+04 8.184100000000000000e+04 2.222200000000000000e+04 8.124900000000000000e+04 2.192400000000000000e+04 2.192500000000000000e+04 2.192600000000000000e+04 2.222700000000000000e+04 2.222800000000000000e+04 8.185800000000000000e+04 2.252900000000000000e+04 2.193100000000000000e+04 2.193200000000000000e+04 2.223200000000000000e+04 2.193400000000000000e+04 2.223500000000000000e+04 2.223600000000000000e+04 2.223700000000000000e+04 2.223800000000000000e+04 2.223900000000000000e+04 8.188000000000000000e+04 2.254000000000000000e+04 2.254100000000000000e+04 2.254200000000000000e+04 2.224300000000000000e+04 2.194500000000000000e+04 2.224600000000000000e+04 8.189400000000000000e+04 2.254700000000000000e+04 2.254800000000000000e+04 2.254900000000000000e+04 2.225000000000000000e+04 2.255100000000000000e+04 2.225300000000000000e+04 2.255300000000000000e+04 2.225400000000000000e+04 2.225600000000000000e+04 2.225700000000000000e+04 2.225800000000000000e+04 2.225900000000000000e+04 8.132300000000000000e+04 2.196100000000000000e+04 2.196200000000000000e+04 8.132600000000000000e+04 2.226300000000000000e+04 2.226500000000000000e+04 2.226600000000000000e+04 8.193400000000000000e+04 2.256700000000000000e+04 2.256800000000000000e+04 2.256900000000000000e+04 2.227100000000000000e+04 2.227200000000000000e+04 2.227300000000000000e+04 8.135100000000000000e+04 2.227500000000000000e+04 8.135500000000000000e+04 2.227700000000000000e+04 8.135900000000000000e+04 2.227900000000000000e+04 2.198000000000000000e+04 8.136200000000000000e+04 2.198200000000000000e+04 8.136600000000000000e+04 2.228300000000000000e+04 2.228400000000000000e+04 2.228500000000000000e+04 2.198700000000000000e+04 2.228800000000000000e+04 2.228900000000000000e+04 8.198000000000000000e+04 2.229100000000000000e+04 2.229200000000000000e+04 8.138900000000000000e+04 2.199400000000000000e+04 2.229500000000000000e+04 2.229600000000000000e+04 2.229700000000000000e+04 2.229800000000000000e+04 8.140100000000000000e+04 2.200000000000000000e+04 2.200100000000000000e+04 2.200200000000000000e+04 2.230300000000000000e+04 2.200400000000000000e+04 2.230500000000000000e+04 2.200600000000000000e+04 2.200700000000000000e+04 2.230800000000000000e+04 8.142100000000000000e+04 2.201000000000000000e+04 2.231000000000000000e+04 2.261100000000000000e+04 2.261200000000000000e+04 8.202700000000000000e+04 2.231400000000000000e+04 2.231600000000000000e+04 2.201700000000000000e+04 2.231700000000000000e+04 2.201900000000000000e+04 2.202000000000000000e+04 2.202100000000000000e+04 8.144400000000000000e+04 2.232200000000000000e+04 2.232300000000000000e+04 2.232400000000000000e+04 8.145500000000000000e+04 2.202700000000000000e+04 2.202800000000000000e+04 8.145800000000000000e+04 2.232900000000000000e+04 2.233000000000000000e+04 2.233200000000000000e+04 8.146900000000000000e+04 2.233400000000000000e+04
2.191600000000000000e+04 8.123500000000000000e+04 2.161800000000000000e+04 2.161900000000000000e+04 8.124200000000000000e+04 2.192100000000000000e+04 2.162300000000000000e+04 2.162400000000000000e+04 2.162500000000000000e+04 2.162600000000000000e+04 2.162700000000000000e+04 8.125600000000000000e+04 2.162900000000000000e+04 2.192900000000000000e+04 2.163000000000000000e+04 2.133200000000000000e+04 8.066600000000000000e+04 2.163300000000000000e+04 8.067000000000000000e+04 2.163600000000000000e+04 8.127400000000000000e+04 2.163800000000000000e+04 8.127800000000000000e+04 2.193900000000000000e+04 2.194000000000000000e+04 2.194100000000000000e+04 8.128500000000000000e+04 2.164300000000000000e+04 2.164400000000000000e+04 8.069200000000000000e+04 2.164600000000000000e+04 2.194700000000000000e+04 8.129800000000000000e+04 2.194900000000000000e+04 8.130100000000000000e+04 2.165100000000000000e+04 8.070900000000000000e+04 8.130800000000000000e+04 2.195400000000000000e+04 8.131100000000000000e+04 2.165700000000000000e+04 8.131600000000000000e+04 2.165900000000000000e+04 8.132000000000000000e+04 2.166100000000000000e+04 2.136200000000000000e+04 8.072600000000000000e+04 2.166300000000000000e+04 2.196400000000000000e+04 2.166600000000000000e+04 2.166700000000000000e+04 8.073900000000000000e+04 2.166900000000000000e+04 8.074300000000000000e+04 2.137100000000000000e+04 2.137200000000000000e+04 2.197200000000000000e+04 2.197300000000000000e+04 2.167500000000000000e+04 8.135200000000000000e+04 2.167700000000000000e+04 2.167800000000000000e+04 2.167900000000000000e+04 2.168000000000000000e+04 8.076500000000000000e+04 2.138200000000000000e+04 8.076600000000000000e+04 2.168300000000000000e+04 2.168400000000000000e+04 2.198500000000000000e+04 2.138700000000000000e+04 2.168800000000000000e+04 8.137800000000000000e+04 2.198900000000000000e+04 2.199000000000000000e+04 2.169200000000000000e+04 8.138600000000000000e+04 2.169400000000000000e+04 2.139500000000000000e+04 2.169500000000000000e+04 2.139700000000000000e+04 2.169800000000000000e+04 2.169900000000000000e+04 2.170000000000000000e+04 8.080500000000000000e+04 2.140200000000000000e+04 8.080600000000000000e+04 2.170400000000000000e+04 8.081300000000000000e+04 2.170600000000000000e+04 8.081700000000000000e+04 2.140800000000000000e+04 2.170900000000000000e+04 2.171000000000000000e+04 8.082500000000000000e+04 2.141200000000000000e+04 2.201200000000000000e+04 2.171400000000000000e+04 2.201400000000000000e+04 8.143100000000000000e+04 2.171700000000000000e+04 2.141800000000000000e+04 2.171800000000000000e+04 2.172000000000000000e+04 2.172100000000000000e+04 8.084700000000000000e+04 2.142300000000000000e+04 2.142400000000000000e+04 2.202400000000000000e+04 2.142600000000000000e+04 2.172700000000000000e+04 2.142800000000000000e+04 2.142900000000000000e+04 2.172900000000000000e+04 2.203000000000000000e+04 2.173200000000000000e+04 2.173300000000000000e+04 2.173400000000000000e+04 8.147000000000000000e+04
2.101800000000000000e+04 2.131800000000000000e+04 2.131900000000000000e+04 8.064100000000000000e+04 2.102100000000000000e+04 2.102300000000000000e+04 2.102400000000000000e+04 8.065000000000000000e+04 2.102600000000000000e+04 2.102700000000000000e+04 8.065600000000000000e+04 2.102900000000000000e+04 8.066000000000000000e+04 2.133000000000000000e+04 2.103100000000000000e+04 2.073300000000000000e+04 2.103300000000000000e+04 8.066900000000000000e+04 2.103500000000000000e+04 8.067400000000000000e+04 2.133700000000000000e+04 2.073900000000000000e+04 2.133900000000000000e+04 2.104100000000000000e+04 8.068400000000000000e+04 2.134200000000000000e+04 2.134300000000000000e+04 2.134400000000000000e+04 8.069100000000000000e+04 2.104600000000000000e+04 2.134700000000000000e+04 8.069700000000000000e+04 2.104900000000000000e+04 8.070200000000000000e+04 2.135100000000000000e+04 2.075300000000000000e+04 2.105400000000000000e+04 2.075500000000000000e+04 2.105600000000000000e+04 2.135600000000000000e+04 2.105700000000000000e+04 2.135800000000000000e+04 2.106000000000000000e+04 2.136000000000000000e+04 2.106200000000000000e+04 2.076300000000000000e+04 2.106300000000000000e+04 2.076500000000000000e+04 2.076600000000000000e+04 2.076700000000000000e+04 2.136700000000000000e+04 2.106900000000000000e+04 8.014300000000000000e+04 2.107100000000000000e+04 2.077200000000000000e+04 8.014600000000000000e+04 2.077400000000000000e+04 2.107400000000000000e+04 2.107600000000000000e+04 8.015700000000000000e+04 2.107800000000000000e+04 8.075800000000000000e+04 2.137900000000000000e+04 2.138000000000000000e+04 2.108200000000000000e+04 8.016900000000000000e+04 2.078400000000000000e+04 2.078500000000000000e+04 8.017200000000000000e+04 2.108700000000000000e+04 8.017900000000000000e+04 2.078900000000000000e+04 2.079000000000000000e+04 2.079100000000000000e+04 2.079200000000000000e+04 2.109200000000000000e+04 2.079400000000000000e+04 2.079500000000000000e+04 8.019200000000000000e+04 2.109600000000000000e+04 2.109700000000000000e+04 2.109800000000000000e+04 2.139900000000000000e+04 2.140000000000000000e+04 2.110200000000000000e+04 2.080300000000000000e+04 2.110300000000000000e+04 8.081000000000000000e+04 2.110600000000000000e+04 8.081400000000000000e+04 2.110800000000000000e+04 8.022100000000000000e+04 2.111000000000000000e+04 8.082200000000000000e+04 2.111200000000000000e+04 8.022900000000000000e+04 2.081400000000000000e+04 2.111500000000000000e+04 2.141500000000000000e+04 2.141600000000000000e+04 2.081800000000000000e+04 8.023800000000000000e+04 2.111900000000000000e+04 2.112100000000000000e+04 2.112200000000000000e+04 2.112300000000000000e+04 8.025100000000000000e+04 2.082500000000000000e+04 2.112600000000000000e+04 8.025700000000000000e+04 2.112800000000000000e+04 2.082900000000000000e+04 8.026000000000000000e+04 2.113000000000000000e+04 2.113200000000000000e+04 2.113300000000000000e+04 8.086800000000000000e+04 2.143400000000000000e+04 2.143500000000000000e+04
2.041900000000000000e+04 2.012000000000000000e+04 2.042000000000000000e+04 2.012200000000000000e+04 2.012300000000000000e+04 2.042400000000000000e+04 8.005000000000000000e+04 2.042600000000000000e+04 2.042700000000000000e+04 8.005600000000000000e+04 2.072800000000000000e+04 2.042900000000000000e+04 2.073000000000000000e+04 2.073100000000000000e+04 2.043200000000000000e+04 7.946800000000000000e+04 2.043400000000000000e+04 2.073500000000000000e+04 8.007300000000000000e+04 7.947900000000000000e+04 2.013900000000000000e+04 7.948000000000000000e+04 2.044000000000000000e+04 8.008400000000000000e+04 2.074200000000000000e+04 2.044400000000000000e+04 2.044500000000000000e+04 8.009200000000000000e+04 2.074600000000000000e+04 2.044800000000000000e+04 8.009800000000000000e+04 2.074900000000000000e+04 2.015100000000000000e+04 2.075100000000000000e+04 2.045300000000000000e+04 7.951100000000000000e+04 2.045500000000000000e+04 2.045600000000000000e+04 8.011400000000000000e+04 2.075700000000000000e+04 8.011700000000000000e+04 2.045900000000000000e+04 7.952500000000000000e+04 2.016200000000000000e+04 2.046300000000000000e+04 2.016400000000000000e+04 2.046400000000000000e+04 7.953500000000000000e+04 2.016700000000000000e+04 2.046700000000000000e+04 2.016900000000000000e+04 2.017000000000000000e+04 2.047100000000000000e+04 2.047200000000000000e+04 7.954900000000000000e+04 2.017400000000000000e+04 7.955000000000000000e+04 2.047600000000000000e+04 8.015400000000000000e+04 2.047800000000000000e+04 8.015800000000000000e+04 2.077900000000000000e+04 2.048100000000000000e+04 7.956700000000000000e+04 2.048300000000000000e+04 2.048400000000000000e+04 7.957300000000000000e+04 2.018600000000000000e+04 2.048600000000000000e+04 2.048800000000000000e+04 2.048900000000000000e+04 2.049000000000000000e+04 7.958500000000000000e+04 2.019200000000000000e+04 7.958600000000000000e+04 2.049400000000000000e+04 2.049500000000000000e+04 7.959500000000000000e+04 2.019700000000000000e+04 2.079700000000000000e+04 2.019900000000000000e+04 2.050000000000000000e+04 2.080000000000000000e+04 2.050100000000000000e+04 2.050300000000000000e+04 2.020400000000000000e+04 2.050400000000000000e+04 2.020600000000000000e+04 8.021400000000000000e+04 2.080700000000000000e+04 2.050900000000000000e+04 2.051000000000000000e+04 8.022200000000000000e+04 2.081100000000000000e+04 2.081200000000000000e+04 2.051400000000000000e+04 7.963300000000000000e+04 2.021600000000000000e+04 2.021700000000000000e+04 2.021800000000000000e+04 7.963800000000000000e+04 2.051900000000000000e+04 2.052000000000000000e+04 2.022200000000000000e+04 2.052300000000000000e+04 8.024800000000000000e+04 2.052500000000000000e+04 7.965500000000000000e+04 2.052700000000000000e+04 2.052800000000000000e+04 2.052900000000000000e+04 7.966300000000000000e+04 2.023100000000000000e+04 2.023200000000000000e+04 2.053300000000000000e+04 8.026800000000000000e+04 2.083400000000000000e+04 8.027100000000000000e+04 2.053600000000000000e+04
1.982000000000000000e+04 7.884500000000000000e+04 1.982200000000000000e+04 1.982300000000000000e+04 1.982400000000000000e+04 7.945000000000000000e+04 2.012500000000000000e+04 1.982700000000000000e+04 7.945600000000000000e+04 2.012800000000000000e+04 2.012900000000000000e+04 1.953100000000000000e+04 1.953200000000000000e+04 2.013200000000000000e+04 7.946700000000000000e+04 1.983400000000000000e+04 7.947100000000000000e+04 7.887700000000000000e+04 1.953800000000000000e+04 1.983900000000000000e+04 1.954000000000000000e+04 1.984000000000000000e+04 1.954200000000000000e+04 1.954300000000000000e+04 1.954400000000000000e+04 1.954500000000000000e+04 2.014500000000000000e+04 2.014600000000000000e+04 7.949500000000000000e+04 1.984800000000000000e+04 2.014900000000000000e+04 7.950100000000000000e+04 1.985100000000000000e+04 1.985200000000000000e+04 1.985400000000000000e+04 1.985500000000000000e+04 1.985600000000000000e+04 7.951400000000000000e+04 2.015700000000000000e+04 2.015800000000000000e+04 2.015900000000000000e+04 1.986000000000000000e+04 1.986200000000000000e+04 7.892900000000000000e+04 1.956400000000000000e+04 7.893000000000000000e+04 1.986500000000000000e+04 1.956700000000000000e+04 7.893600000000000000e+04 1.986800000000000000e+04 7.894000000000000000e+04 1.987000000000000000e+04 1.987100000000000000e+04 1.987300000000000000e+04 1.987400000000000000e+04 7.895300000000000000e+04 1.957600000000000000e+04 7.955400000000000000e+04 1.987800000000000000e+04 7.955800000000000000e+04 2.017900000000000000e+04 1.988100000000000000e+04 7.956400000000000000e+04 1.988300000000000000e+04 7.956800000000000000e+04 2.018400000000000000e+04 1.988600000000000000e+04 7.897700000000000000e+04 1.958800000000000000e+04 1.988900000000000000e+04 7.958000000000000000e+04 2.019000000000000000e+04 1.989200000000000000e+04 1.959300000000000000e+04 1.989300000000000000e+04 2.019400000000000000e+04 1.989600000000000000e+04 1.989700000000000000e+04 7.899900000000000000e+04 1.959900000000000000e+04 7.900000000000000000e+04 1.990000000000000000e+04 2.020100000000000000e+04 1.960300000000000000e+04 1.960400000000000000e+04 7.901000000000000000e+04 1.990500000000000000e+04 1.990600000000000000e+04 1.990700000000000000e+04 7.902100000000000000e+04 1.961000000000000000e+04 1.991100000000000000e+04 2.021100000000000000e+04 1.991200000000000000e+04 1.991400000000000000e+04 7.963000000000000000e+04 1.991600000000000000e+04 7.903700000000000000e+04 1.961800000000000000e+04 7.903800000000000000e+04 1.991900000000000000e+04 1.992000000000000000e+04 1.992200000000000000e+04 1.962300000000000000e+04 1.992400000000000000e+04 2.022400000000000000e+04 1.992500000000000000e+04 1.992700000000000000e+04 1.992800000000000000e+04 1.992900000000000000e+04 7.966000000000000000e+04 1.993100000000000000e+04 1.993200000000000000e+04 7.906900000000000000e+04 1.963400000000000000e+04 1.963500000000000000e+04 1.963600000000000000e+04 2.023600000000000000e+04 7.967500000000000000e+04
1.922100000000000000e+04 1.922200000000000000e+04 7.884600000000000000e+04 1.952300000000000000e+04 1.952400000000000000e+04 1.952500000000000000e+04 7.885300000000000000e+04 1.922700000000000000e+04 1.952800000000000000e+04 7.885900000000000000e+04 1.923000000000000000e+04 1.923100000000000000e+04 1.923200000000000000e+04 1.923400000000000000e+04 1.953400000000000000e+04 1.923500000000000000e+04 1.923600000000000000e+04 1.923800000000000000e+04 7.828100000000000000e+04 1.924000000000000000e+04 1.894100000000000000e+04 1.894200000000000000e+04 7.828600000000000000e+04 1.924400000000000000e+04 7.829300000000000000e+04 1.894600000000000000e+04 1.924600000000000000e+04 7.889600000000000000e+04 1.954800000000000000e+04 7.889900000000000000e+04 1.925100000000000000e+04 1.955100000000000000e+04 1.955200000000000000e+04 1.925400000000000000e+04 1.925500000000000000e+04 7.891200000000000000e+04 1.925700000000000000e+04 1.955700000000000000e+04 1.925900000000000000e+04 1.955900000000000000e+04 1.956000000000000000e+04 7.892300000000000000e+04 7.892600000000000000e+04 1.926400000000000000e+04 7.833300000000000000e+04 1.896600000000000000e+04 1.896700000000000000e+04 7.833600000000000000e+04 1.926800000000000000e+04 1.926900000000000000e+04 1.927000000000000000e+04 1.897200000000000000e+04 1.897300000000000000e+04 1.927400000000000000e+04 1.927500000000000000e+04 1.927600000000000000e+04 7.835700000000000000e+04 1.927800000000000000e+04 7.895800000000000000e+04 1.957900000000000000e+04 7.896100000000000000e+04 1.898200000000000000e+04 1.928300000000000000e+04 7.896800000000000000e+04 1.958400000000000000e+04 1.928600000000000000e+04 7.897400000000000000e+04 1.928800000000000000e+04 1.928900000000000000e+04 7.898000000000000000e+04 1.959000000000000000e+04 1.899200000000000000e+04 1.929300000000000000e+04 1.899400000000000000e+04 1.929400000000000000e+04 1.929600000000000000e+04 1.929700000000000000e+04 7.899600000000000000e+04 1.929900000000000000e+04 7.840300000000000000e+04 1.900100000000000000e+04 1.900200000000000000e+04 1.930300000000000000e+04 1.900400000000000000e+04 7.841000000000000000e+04 1.930500000000000000e+04 1.930600000000000000e+04 1.930700000000000000e+04 7.901700000000000000e+04 1.931000000000000000e+04 1.931100000000000000e+04 7.902400000000000000e+04 1.961200000000000000e+04 1.901400000000000000e+04 1.901500000000000000e+04 1.961500000000000000e+04 1.961600000000000000e+04 1.901800000000000000e+04 7.843800000000000000e+04 1.902000000000000000e+04 1.962000000000000000e+04 1.932200000000000000e+04 1.932300000000000000e+04 7.845100000000000000e+04 1.902500000000000000e+04 1.962500000000000000e+04 7.905300000000000000e+04 1.932700000000000000e+04 1.962800000000000000e+04 1.962900000000000000e+04 1.963000000000000000e+04 1.933200000000000000e+04 7.906600000000000000e+04 1.933400000000000000e+04 7.847300000000000000e+04 1.903600000000000000e+04 1.933600000000000000e+04 1.933700000000000000e+04 1.963800000000000000e+04
1.862200000000000000e+04 7.824600000000000000e+04 1.892300000000000000e+04 1.862500000000000000e+04 1.862600000000000000e+04 7.765700000000000000e+04 1.832800000000000000e+04 1.832900000000000000e+04 7.826000000000000000e+04 1.893000000000000000e+04 7.826300000000000000e+04 1.863200000000000000e+04 1.863300000000000000e+04 7.827000000000000000e+04 1.893500000000000000e+04 1.893600000000000000e+04 1.833800000000000000e+04 7.768100000000000000e+04 1.834000000000000000e+04 1.834100000000000000e+04 1.834200000000000000e+04 7.768600000000000000e+04 1.864300000000000000e+04 1.894400000000000000e+04 1.864600000000000000e+04 1.834700000000000000e+04 1.864700000000000000e+04 1.894800000000000000e+04 1.864900000000000000e+04 1.835100000000000000e+04 1.865200000000000000e+04 1.895200000000000000e+04 7.830700000000000000e+04 1.835500000000000000e+04 1.895500000000000000e+04 1.895600000000000000e+04 1.865800000000000000e+04 1.895800000000000000e+04 7.832000000000000000e+04 1.896000000000000000e+04 7.832300000000000000e+04 1.866200000000000000e+04 7.832700000000000000e+04 1.866500000000000000e+04 1.836600000000000000e+04 7.773400000000000000e+04 1.866700000000000000e+04 1.866800000000000000e+04 1.896900000000000000e+04 1.897000000000000000e+04 1.867200000000000000e+04 1.867300000000000000e+04 1.867400000000000000e+04 7.835000000000000000e+04 1.867600000000000000e+04 7.835400000000000000e+04 1.867800000000000000e+04 7.835800000000000000e+04 1.897900000000000000e+04 7.836100000000000000e+04 1.868200000000000000e+04 7.776900000000000000e+04 1.838400000000000000e+04 1.898400000000000000e+04 1.898500000000000000e+04 1.898600000000000000e+04 1.898700000000000000e+04 1.838900000000000000e+04 1.898900000000000000e+04 1.839100000000000000e+04 1.869200000000000000e+04 7.778900000000000000e+04 1.869400000000000000e+04 7.779300000000000000e+04 1.839600000000000000e+04 1.869700000000000000e+04 7.779900000000000000e+04 1.839900000000000000e+04 1.870000000000000000e+04 1.870100000000000000e+04 7.780700000000000000e+04 1.840300000000000000e+04 1.870400000000000000e+04 1.840500000000000000e+04 1.840600000000000000e+04 1.840700000000000000e+04 7.781900000000000000e+04 1.840900000000000000e+04 7.782000000000000000e+04 1.871100000000000000e+04 7.842400000000000000e+04 1.901200000000000000e+04 1.871400000000000000e+04 1.871500000000000000e+04 7.783500000000000000e+04 1.841700000000000000e+04 1.871800000000000000e+04 1.841900000000000000e+04 1.872000000000000000e+04 1.842100000000000000e+04 1.872100000000000000e+04 1.872200000000000000e+04 1.902300000000000000e+04 1.872500000000000000e+04 7.785500000000000000e+04 1.842700000000000000e+04 1.902700000000000000e+04 1.842900000000000000e+04 1.843000000000000000e+04 7.786200000000000000e+04 1.873100000000000000e+04 7.846600000000000000e+04 1.903300000000000000e+04 1.843500000000000000e+04 1.843600000000000000e+04 7.787400000000000000e+04 1.873700000000000000e+04 1.873900000000000000e+04 1.903900000000000000e+04
1.802300000000000000e+04 1.832300000000000000e+04 1.802400000000000000e+04 1.772600000000000000e+04 1.832600000000000000e+04 1.802800000000000000e+04 7.706100000000000000e+04 1.773000000000000000e+04 1.803000000000000000e+04 1.803200000000000000e+04 1.833200000000000000e+04 7.766700000000000000e+04 1.803400000000000000e+04 1.803500000000000000e+04 7.707400000000000000e+04 1.803700000000000000e+04 1.803900000000000000e+04 1.804000000000000000e+04 1.774100000000000000e+04 1.774200000000000000e+04 7.708600000000000000e+04 1.804300000000000000e+04 7.768900000000000000e+04 1.804600000000000000e+04 1.804700000000000000e+04 1.774800000000000000e+04 1.804800000000000000e+04 1.834900000000000000e+04 1.775100000000000000e+04 1.775200000000000000e+04 1.805300000000000000e+04 7.711100000000000000e+04 1.775500000000000000e+04 7.711200000000000000e+04 1.805600000000000000e+04 7.771600000000000000e+04 7.771800000000000000e+04 1.835900000000000000e+04 1.776100000000000000e+04 1.776200000000000000e+04 1.776300000000000000e+04 7.713100000000000000e+04 1.776500000000000000e+04 1.806600000000000000e+04 7.713700000000000000e+04 1.776800000000000000e+04 1.836800000000000000e+04 7.773900000000000000e+04 1.807100000000000000e+04 1.777200000000000000e+04 1.807300000000000000e+04 7.774800000000000000e+04 1.807500000000000000e+04 1.807600000000000000e+04 7.775400000000000000e+04 1.807800000000000000e+04 7.775800000000000000e+04 1.837900000000000000e+04 7.776100000000000000e+04 1.808100000000000000e+04 7.776600000000000000e+04 1.808400000000000000e+04 7.717300000000000000e+04 1.778600000000000000e+04 1.808600000000000000e+04 1.778800000000000000e+04 1.778900000000000000e+04 7.718000000000000000e+04 1.809100000000000000e+04 1.809200000000000000e+04 7.778600000000000000e+04 1.809400000000000000e+04 1.809500000000000000e+04 1.809600000000000000e+04 7.719700000000000000e+04 1.779800000000000000e+04 1.809900000000000000e+04 1.810000000000000000e+04 1.810100000000000000e+04 7.720700000000000000e+04 1.810300000000000000e+04 1.780400000000000000e+04 1.810500000000000000e+04 1.780600000000000000e+04 1.780700000000000000e+04 7.721600000000000000e+04 1.810900000000000000e+04 7.722300000000000000e+04 1.781100000000000000e+04 1.811200000000000000e+04 1.841200000000000000e+04 1.781400000000000000e+04 1.781500000000000000e+04 1.841500000000000000e+04 1.811700000000000000e+04 1.811800000000000000e+04 1.811900000000000000e+04 7.724300000000000000e+04 1.782100000000000000e+04 7.724400000000000000e+04 1.812200000000000000e+04 7.784700000000000000e+04 1.782500000000000000e+04 1.782600000000000000e+04 1.812700000000000000e+04 7.725900000000000000e+04 1.782900000000000000e+04 1.812900000000000000e+04 1.813000000000000000e+04 1.813100000000000000e+04 1.813200000000000000e+04 1.813300000000000000e+04 1.783500000000000000e+04 1.813600000000000000e+04 7.727700000000000000e+04 1.783800000000000000e+04 1.813800000000000000e+04 7.788000000000000000e+04 1.844000000000000000e+04
7.704800000000000000e+04 1.772400000000000000e+04 7.705100000000000000e+04 1.742600000000000000e+04 1.742800000000000000e+04 7.705800000000000000e+04 1.743000000000000000e+04 1.713100000000000000e+04 1.743200000000000000e+04 7.706600000000000000e+04 1.773300000000000000e+04 1.773400000000000000e+04 7.707100000000000000e+04 1.743600000000000000e+04 1.743700000000000000e+04 1.743800000000000000e+04 1.714000000000000000e+04 1.744100000000000000e+04 1.714200000000000000e+04 1.714300000000000000e+04 1.744300000000000000e+04 7.708900000000000000e+04 1.744500000000000000e+04 7.649700000000000000e+04 1.714800000000000000e+04 1.714900000000000000e+04 1.744900000000000000e+04 1.745100000000000000e+04 1.745200000000000000e+04 1.745300000000000000e+04 1.745400000000000000e+04 1.745500000000000000e+04 7.651500000000000000e+04 1.715700000000000000e+04 1.745700000000000000e+04 1.775800000000000000e+04 7.711900000000000000e+04 1.746100000000000000e+04 1.746200000000000000e+04 7.652900000000000000e+04 1.716400000000000000e+04 1.746500000000000000e+04 1.716600000000000000e+04 1.746700000000000000e+04 1.746800000000000000e+04 7.654100000000000000e+04 1.717000000000000000e+04 1.717100000000000000e+04 1.747200000000000000e+04 7.654900000000000000e+04 1.717400000000000000e+04 1.777400000000000000e+04 1.747600000000000000e+04 7.715400000000000000e+04 1.777700000000000000e+04 1.747900000000000000e+04 1.777900000000000000e+04 1.778000000000000000e+04 1.778100000000000000e+04 1.748300000000000000e+04 1.778300000000000000e+04 1.748400000000000000e+04 1.748600000000000000e+04 1.718700000000000000e+04 1.748700000000000000e+04 1.718900000000000000e+04 7.658000000000000000e+04 1.749000000000000000e+04 7.718400000000000000e+04 1.779200000000000000e+04 1.749400000000000000e+04 1.749500000000000000e+04 7.719200000000000000e+04 1.779600000000000000e+04 1.749800000000000000e+04 7.660100000000000000e+04 1.720000000000000000e+04 1.750100000000000000e+04 7.720400000000000000e+04 1.750300000000000000e+04 1.750400000000000000e+04 7.661300000000000000e+04 1.750600000000000000e+04 1.720700000000000000e+04 7.661600000000000000e+04 1.750800000000000000e+04 1.721000000000000000e+04 1.721100000000000000e+04 7.662400000000000000e+04 1.751200000000000000e+04 1.721400000000000000e+04 7.663000000000000000e+04 1.751500000000000000e+04 1.751600000000000000e+04 1.751700000000000000e+04 1.781800000000000000e+04 1.781900000000000000e+04 1.752100000000000000e+04 7.664700000000000000e+04 1.722300000000000000e+04 7.664800000000000000e+04 1.752500000000000000e+04 1.752600000000000000e+04 7.665700000000000000e+04 1.722800000000000000e+04 7.665800000000000000e+04 1.723000000000000000e+04 1.753000000000000000e+04 1.783100000000000000e+04 1.783200000000000000e+04 1.783300000000000000e+04 7.726900000000000000e+04 1.723600000000000000e+04 1.753700000000000000e+04 1.753800000000000000e+04 7.668100000000000000e+04 1.724000000000000000e+04 7.668200000000000000e+04 1.754200000000000000e+04
1.712400000000000000e+04 1.682500000000000000e+04 1.712600000000000000e+04 1.712700000000000000e+04 1.652900000000000000e+04 1.712900000000000000e+04 1.683100000000000000e+04 7.586700000000000000e+04 1.683300000000000000e+04 1.713300000000000000e+04 1.713400000000000000e+04 1.713500000000000000e+04 1.713600000000000000e+04 1.683700000000000000e+04 1.713800000000000000e+04 7.647900000000000000e+04 1.684000000000000000e+04 1.684200000000000000e+04 7.588900000000000000e+04 1.654400000000000000e+04 1.684400000000000000e+04 1.714500000000000000e+04 1.684600000000000000e+04 1.684800000000000000e+04 1.654900000000000000e+04 7.590000000000000000e+04 1.685000000000000000e+04 1.685200000000000000e+04 7.650600000000000000e+04 1.715300000000000000e+04 1.685500000000000000e+04 7.651200000000000000e+04 1.685700000000000000e+04 7.591900000000000000e+04 1.655900000000000000e+04 1.656000000000000000e+04 1.656100000000000000e+04 1.686200000000000000e+04 7.652600000000000000e+04 1.686400000000000000e+04 7.593300000000000000e+04 1.686600000000000000e+04 7.593700000000000000e+04 1.686800000000000000e+04 7.653800000000000000e+04 1.687000000000000000e+04 1.687100000000000000e+04 1.687200000000000000e+04 1.687300000000000000e+04 1.687400000000000000e+04 7.595300000000000000e+04 1.687600000000000000e+04 7.655400000000000000e+04 1.717700000000000000e+04 7.655700000000000000e+04 1.687900000000000000e+04 1.718000000000000000e+04 7.656300000000000000e+04 1.688200000000000000e+04 1.688300000000000000e+04 1.718400000000000000e+04 1.658600000000000000e+04 1.688700000000000000e+04 1.658800000000000000e+04 1.688800000000000000e+04 7.598000000000000000e+04 1.689000000000000000e+04 1.719100000000000000e+04 1.689300000000000000e+04 7.658800000000000000e+04 1.689500000000000000e+04 7.659200000000000000e+04 1.719600000000000000e+04 1.659800000000000000e+04 1.689900000000000000e+04 1.690000000000000000e+04 7.600500000000000000e+04 1.690200000000000000e+04 7.600900000000000000e+04 1.690400000000000000e+04 7.661000000000000000e+04 1.690600000000000000e+04 1.690700000000000000e+04 7.601900000000000000e+04 1.660900000000000000e+04 7.602300000000000000e+04 1.691100000000000000e+04 7.602700000000000000e+04 1.661300000000000000e+04 1.661400000000000000e+04 7.603000000000000000e+04 1.691500000000000000e+04 1.721600000000000000e+04 1.721700000000000000e+04 1.691900000000000000e+04 1.662000000000000000e+04 1.692100000000000000e+04 7.604700000000000000e+04 1.692300000000000000e+04 1.662400000000000000e+04 1.692400000000000000e+04 1.662600000000000000e+04 7.605700000000000000e+04 1.662800000000000000e+04 1.662900000000000000e+04 1.692900000000000000e+04 7.606200000000000000e+04 1.693100000000000000e+04 7.666500000000000000e+04 1.693300000000000000e+04 1.693400000000000000e+04 1.693500000000000000e+04 7.607700000000000000e+04 1.663800000000000000e+04 1.723800000000000000e+04 1.694000000000000000e+04 7.608500000000000000e+04 1.664200000000000000e+04 1.664300000000000000e+04
1.652500000000000000e+04 1.622600000000000000e+04 1.592800000000000000e+04 1.622900000000000000e+04 7.526300000000000000e+04 1.593100000000000000e+04 1.623200000000000000e+04 1.623300000000000000e+04 7.586800000000000000e+04 1.653400000000000000e+04 1.623600000000000000e+04 7.587400000000000000e+04 1.653700000000000000e+04 7.587700000000000000e+04 1.623900000000000000e+04 1.654000000000000000e+04 1.594200000000000000e+04 7.588600000000000000e+04 1.624400000000000000e+04 7.529300000000000000e+04 1.594600000000000000e+04 1.594700000000000000e+04 7.529600000000000000e+04 1.624900000000000000e+04 1.595000000000000000e+04 1.625000000000000000e+04 7.590300000000000000e+04 1.625200000000000000e+04 1.655300000000000000e+04 7.590900000000000000e+04 1.595600000000000000e+04 1.655600000000000000e+04 1.625800000000000000e+04 1.625900000000000000e+04 7.532300000000000000e+04 1.596100000000000000e+04 7.532700000000000000e+04 1.626300000000000000e+04 1.656300000000000000e+04 1.626400000000000000e+04 1.626600000000000000e+04 7.593400000000000000e+04 1.626800000000000000e+04 1.626900000000000000e+04 1.627000000000000000e+04 7.594200000000000000e+04 1.657100000000000000e+04 1.657200000000000000e+04 1.627400000000000000e+04 7.595000000000000000e+04 1.627600000000000000e+04 7.595400000000000000e+04 1.657700000000000000e+04 1.657800000000000000e+04 1.657900000000000000e+04 1.628100000000000000e+04 7.596400000000000000e+04 1.658200000000000000e+04 7.596700000000000000e+04 1.628400000000000000e+04 1.628500000000000000e+04 7.537400000000000000e+04 1.628700000000000000e+04 7.537800000000000000e+04 1.628900000000000000e+04 1.629000000000000000e+04 1.629100000000000000e+04 1.629300000000000000e+04 7.598800000000000000e+04 1.659400000000000000e+04 1.629600000000000000e+04 1.659600000000000000e+04 1.629700000000000000e+04 7.539800000000000000e+04 1.629900000000000000e+04 1.630100000000000000e+04 1.630200000000000000e+04 7.600600000000000000e+04 1.630400000000000000e+04 7.601000000000000000e+04 1.660500000000000000e+04 1.630600000000000000e+04 1.660700000000000000e+04 1.630900000000000000e+04 7.542300000000000000e+04 1.631100000000000000e+04 7.542700000000000000e+04 1.631300000000000000e+04 1.601400000000000000e+04 1.601500000000000000e+04 1.631500000000000000e+04 7.603300000000000000e+04 1.601800000000000000e+04 1.631800000000000000e+04 1.632000000000000000e+04 1.602100000000000000e+04 1.632200000000000000e+04 1.632300000000000000e+04 1.632400000000000000e+04 7.545300000000000000e+04 1.602600000000000000e+04 1.602700000000000000e+04 1.632800000000000000e+04 7.546100000000000000e+04 1.603000000000000000e+04 1.633000000000000000e+04 1.633100000000000000e+04 7.606500000000000000e+04 1.663300000000000000e+04 7.606900000000000000e+04 1.633500000000000000e+04 1.633600000000000000e+04 1.633800000000000000e+04 1.633900000000000000e+04 1.634000000000000000e+04 7.608200000000000000e+04 1.634200000000000000e+04 1.634300000000000000e+04 7.549100000000000000e+04
1.532700000000000000e+04 1.532800000000000000e+04 7.465800000000000000e+04 1.563000000000000000e+04 1.563100000000000000e+04 7.466700000000000000e+04 1.563300000000000000e+04 7.526800000000000000e+04 1.593400000000000000e+04 7.527100000000000000e+04 7.527400000000000000e+04 1.593700000000000000e+04 1.563900000000000000e+04 1.593900000000000000e+04 1.564000000000000000e+04 1.564200000000000000e+04 1.534300000000000000e+04 1.564400000000000000e+04 1.564500000000000000e+04 1.564600000000000000e+04 1.564700000000000000e+04 7.469900000000000000e+04 1.534900000000000000e+04 1.535000000000000000e+04 1.535100000000000000e+04 1.565100000000000000e+04 1.535300000000000000e+04 7.470800000000000000e+04 1.565400000000000000e+04 1.535600000000000000e+04 1.535700000000000000e+04 1.535800000000000000e+04 1.565900000000000000e+04 1.566000000000000000e+04 1.566100000000000000e+04 7.472700000000000000e+04 1.566300000000000000e+04 7.532800000000000000e+04 1.596400000000000000e+04 7.533100000000000000e+04 1.566700000000000000e+04 1.596700000000000000e+04 1.566800000000000000e+04 1.567000000000000000e+04 7.534200000000000000e+04 1.597100000000000000e+04 7.534500000000000000e+04 7.534700000000000000e+04 1.567500000000000000e+04 1.597500000000000000e+04 1.567600000000000000e+04 1.597700000000000000e+04 1.597800000000000000e+04 1.597900000000000000e+04 1.598000000000000000e+04 1.568100000000000000e+04 1.598200000000000000e+04 1.598300000000000000e+04 1.598400000000000000e+04 1.598500000000000000e+04 7.537300000000000000e+04 1.568700000000000000e+04 1.568800000000000000e+04 1.568900000000000000e+04 1.599000000000000000e+04 1.539200000000000000e+04 1.539300000000000000e+04 1.569400000000000000e+04 1.599400000000000000e+04 1.569500000000000000e+04 1.569700000000000000e+04 1.599700000000000000e+04 7.539700000000000000e+04 1.569900000000000000e+04 1.570100000000000000e+04 7.540400000000000000e+04 1.600200000000000000e+04 1.600300000000000000e+04 1.570500000000000000e+04 1.600500000000000000e+04 1.570600000000000000e+04 1.570700000000000000e+04 7.541800000000000000e+04 1.600900000000000000e+04 1.541100000000000000e+04 1.541200000000000000e+04 1.571300000000000000e+04 1.571400000000000000e+04 7.483300000000000000e+04 1.541600000000000000e+04 1.571600000000000000e+04 1.571800000000000000e+04 1.541900000000000000e+04 1.542000000000000000e+04 1.572100000000000000e+04 1.542200000000000000e+04 1.572200000000000000e+04 1.572400000000000000e+04 7.545000000000000000e+04 1.572600000000000000e+04 1.542700000000000000e+04 7.485600000000000000e+04 1.572900000000000000e+04 1.573000000000000000e+04 7.486500000000000000e+04 1.543200000000000000e+04 1.573300000000000000e+04 1.573400000000000000e+04 7.547000000000000000e+04 1.603500000000000000e+04 7.547300000000000000e+04 1.573700000000000000e+04 1.543900000000000000e+04 1.574000000000000000e+04 7.548200000000000000e+04 1.604100000000000000e+04 1.544300000000000000e+04 1.604300000000000000e+04 1.574500000000000000e+04
1.472800000000000000e+04 1.472900000000000000e+04 1.502900000000000000e+04 1.503100000000000000e+04 1.503200000000000000e+04 1.503300000000000000e+04 7.466800000000000000e+04 1.533400000000000000e+04 7.467200000000000000e+04 1.533600000000000000e+04 1.533700000000000000e+04 1.503900000000000000e+04 7.468000000000000000e+04 1.534000000000000000e+04 1.534100000000000000e+04 1.474300000000000000e+04 7.408800000000000000e+04 1.504400000000000000e+04 1.504600000000000000e+04 1.504700000000000000e+04 7.469600000000000000e+04 1.504900000000000000e+04 7.410300000000000000e+04 1.475100000000000000e+04 1.475200000000000000e+04 1.475300000000000000e+04 7.410800000000000000e+04 1.505400000000000000e+04 7.411200000000000000e+04 1.475700000000000000e+04 1.475800000000000000e+04 1.475900000000000000e+04 1.505900000000000000e+04 1.536000000000000000e+04 1.536100000000000000e+04 1.506300000000000000e+04 7.472800000000000000e+04 1.536400000000000000e+04 7.473200000000000000e+04 1.536600000000000000e+04 1.476800000000000000e+04 1.536800000000000000e+04 7.473900000000000000e+04 1.507100000000000000e+04 1.537100000000000000e+04 1.507200000000000000e+04 1.477400000000000000e+04 1.537400000000000000e+04 1.477600000000000000e+04 1.537600000000000000e+04 1.477800000000000000e+04 1.477900000000000000e+04 7.476000000000000000e+04 1.538000000000000000e+04 1.538100000000000000e+04 1.508200000000000000e+04 1.538300000000000000e+04 7.476900000000000000e+04 7.477200000000000000e+04 1.538600000000000000e+04 1.538700000000000000e+04 7.477700000000000000e+04 1.508900000000000000e+04 7.478100000000000000e+04 1.509100000000000000e+04 7.418900000000000000e+04 1.479400000000000000e+04 1.509400000000000000e+04 1.539500000000000000e+04 1.509600000000000000e+04 7.479600000000000000e+04 1.539800000000000000e+04 1.539900000000000000e+04 7.480100000000000000e+04 7.480400000000000000e+04 1.540200000000000000e+04 1.510400000000000000e+04 7.421300000000000000e+04 1.510600000000000000e+04 1.540600000000000000e+04 1.510700000000000000e+04 7.422100000000000000e+04 1.481000000000000000e+04 1.511100000000000000e+04 1.511200000000000000e+04 1.511300000000000000e+04 1.511400000000000000e+04 7.483000000000000000e+04 1.511600000000000000e+04 1.481700000000000000e+04 1.511700000000000000e+04 1.511900000000000000e+04 7.424300000000000000e+04 1.482100000000000000e+04 1.482200000000000000e+04 7.424600000000000000e+04 7.425100000000000000e+04 1.482500000000000000e+04 1.542500000000000000e+04 1.482700000000000000e+04 7.425600000000000000e+04 1.512800000000000000e+04 1.542900000000000000e+04 1.543000000000000000e+04 1.513200000000000000e+04 1.483300000000000000e+04 1.513300000000000000e+04 7.487000000000000000e+04 1.543500000000000000e+04 1.513700000000000000e+04 7.427900000000000000e+04 1.483900000000000000e+04 7.428000000000000000e+04 1.514000000000000000e+04 1.544100000000000000e+04 1.484300000000000000e+04 7.428800000000000000e+04 1.514400000000000000e+04 1.514600000000000000e+04
1.412900000000000000e+04 1.413000000000000000e+04 1.443000000000000000e+04 1.443100000000000000e+04 1.473200000000000000e+04 1.473300000000000000e+04 1.473400000000000000e+04 1.473500000000000000e+04 1.473600000000000000e+04 1.473700000000000000e+04 1.443800000000000000e+04 7.408000000000000000e+04 1.474000000000000000e+04 1.414200000000000000e+04 1.444300000000000000e+04 1.414400000000000000e+04 1.414500000000000000e+04 7.349200000000000000e+04 1.444700000000000000e+04 7.409600000000000000e+04 1.444900000000000000e+04 7.410000000000000000e+04 1.445100000000000000e+04 1.415200000000000000e+04 1.415300000000000000e+04 7.350800000000000000e+04 1.445400000000000000e+04 7.411100000000000000e+04 1.445600000000000000e+04 7.351900000000000000e+04 1.415900000000000000e+04 7.352000000000000000e+04 1.446000000000000000e+04 1.446100000000000000e+04 1.446300000000000000e+04 7.412800000000000000e+04 1.476400000000000000e+04 1.476500000000000000e+04 1.476600000000000000e+04 1.446700000000000000e+04 7.353800000000000000e+04 1.446900000000000000e+04 1.417100000000000000e+04 1.447200000000000000e+04 1.477200000000000000e+04 1.447300000000000000e+04 1.417500000000000000e+04 1.447500000000000000e+04 1.447700000000000000e+04 7.355900000000000000e+04 1.417900000000000000e+04 1.447900000000000000e+04 1.448100000000000000e+04 1.418200000000000000e+04 1.448200000000000000e+04 7.416700000000000000e+04 1.478400000000000000e+04 1.478500000000000000e+04 7.357700000000000000e+04 1.418800000000000000e+04 1.418900000000000000e+04 1.478900000000000000e+04 1.449100000000000000e+04 1.479100000000000000e+04 1.419300000000000000e+04 1.419400000000000000e+04 7.359000000000000000e+04 1.449500000000000000e+04 1.449600000000000000e+04 7.359600000000000000e+04 1.449900000000000000e+04 7.360300000000000000e+04 1.420100000000000000e+04 1.450100000000000000e+04 1.450300000000000000e+04 7.361100000000000000e+04 1.420500000000000000e+04 1.450600000000000000e+04 7.421400000000000000e+04 1.480700000000000000e+04 1.450800000000000000e+04 1.451000000000000000e+04 7.362500000000000000e+04 1.451200000000000000e+04 7.422600000000000000e+04 1.451400000000000000e+04 7.423000000000000000e+04 1.481500000000000000e+04 1.451700000000000000e+04 7.363900000000000000e+04 1.421900000000000000e+04 7.364000000000000000e+04 1.422100000000000000e+04 7.364400000000000000e+04 1.452200000000000000e+04 1.452300000000000000e+04 1.452500000000000000e+04 7.365500000000000000e+04 1.452700000000000000e+04 1.422800000000000000e+04 1.422900000000000000e+04 1.452900000000000000e+04 1.423100000000000000e+04 1.423200000000000000e+04 1.453300000000000000e+04 1.423400000000000000e+04 1.423500000000000000e+04 7.367200000000000000e+04 1.453600000000000000e+04 7.427600000000000000e+04 1.453900000000000000e+04 7.368300000000000000e+04 1.424100000000000000e+04 1.454200000000000000e+04 7.368900000000000000e+04 1.424400000000000000e+04 1.454400000000000000e+04 1.424600000000000000e+04 1.424700000000000000e+04
1.353000000000000000e+04 1.353100000000000000e+04 1.353200000000000000e+04 1.383300000000000000e+04 7.287100000000000000e+04 1.353500000000000000e+04 1.383600000000000000e+04 1.383700000000000000e+04 7.347600000000000000e+04 1.413800000000000000e+04 1.383900000000000000e+04 7.288500000000000000e+04 1.384200000000000000e+04 7.288900000000000000e+04 1.354400000000000000e+04 7.289000000000000000e+04 1.354600000000000000e+04 1.384600000000000000e+04 7.349600000000000000e+04 1.414800000000000000e+04 7.350000000000000000e+04 1.415000000000000000e+04 1.385200000000000000e+04 7.290900000000000000e+04 1.355400000000000000e+04 1.385400000000000000e+04 7.351100000000000000e+04 1.415600000000000000e+04 7.351500000000000000e+04 1.385900000000000000e+04 1.356000000000000000e+04 1.386000000000000000e+04 1.356200000000000000e+04 1.386300000000000000e+04 7.352800000000000000e+04 1.416400000000000000e+04 1.386600000000000000e+04 1.416600000000000000e+04 1.416700000000000000e+04 1.386800000000000000e+04 1.357000000000000000e+04 7.294200000000000000e+04 1.387100000000000000e+04 1.387200000000000000e+04 1.417300000000000000e+04 1.357500000000000000e+04 7.295200000000000000e+04 1.387600000000000000e+04 1.417700000000000000e+04 1.387900000000000000e+04 7.296300000000000000e+04 1.358100000000000000e+04 1.388200000000000000e+04 1.358300000000000000e+04 1.358400000000000000e+04 1.388400000000000000e+04 1.358600000000000000e+04 1.358700000000000000e+04 1.358800000000000000e+04 7.297800000000000000e+04 1.388900000000000000e+04 1.389000000000000000e+04 7.298700000000000000e+04 1.389300000000000000e+04 1.389400000000000000e+04 7.299300000000000000e+04 1.359600000000000000e+04 1.419600000000000000e+04 1.359800000000000000e+04 1.359900000000000000e+04 1.390000000000000000e+04 1.390100000000000000e+04 1.360200000000000000e+04 1.390200000000000000e+04 7.300800000000000000e+04 1.390500000000000000e+04 7.301500000000000000e+04 1.360700000000000000e+04 1.420700000000000000e+04 1.420800000000000000e+04 1.390900000000000000e+04 1.391000000000000000e+04 1.391200000000000000e+04 7.362600000000000000e+04 1.421300000000000000e+04 1.391500000000000000e+04 1.421500000000000000e+04 1.391600000000000000e+04 1.361800000000000000e+04 1.391900000000000000e+04 7.304300000000000000e+04 1.362100000000000000e+04 7.304400000000000000e+04 1.392200000000000000e+04 1.422300000000000000e+04 7.364900000000000000e+04 1.392600000000000000e+04 1.392700000000000000e+04 1.392800000000000000e+04 7.306100000000000000e+04 1.363000000000000000e+04 1.393100000000000000e+04 1.393200000000000000e+04 1.393300000000000000e+04 1.393400000000000000e+04 7.307300000000000000e+04 1.363600000000000000e+04 1.393600000000000000e+04 1.363800000000000000e+04 1.423800000000000000e+04 1.364000000000000000e+04 1.364100000000000000e+04 7.308400000000000000e+04 1.394200000000000000e+04 1.394400000000000000e+04 1.364500000000000000e+04 1.394600000000000000e+04 7.309700000000000000e+04 1.364800000000000000e+04
7.226500000000000000e+04 1.293200000000000000e+04 7.226600000000000000e+04 1.323300000000000000e+04 1.323500000000000000e+04 1.323600000000000000e+04 7.287400000000000000e+04 1.323800000000000000e+04 1.353800000000000000e+04 1.323900000000000000e+04 7.288100000000000000e+04 1.324200000000000000e+04 7.288600000000000000e+04 1.324400000000000000e+04 7.229300000000000000e+04 1.294600000000000000e+04 7.229400000000000000e+04 1.324700000000000000e+04 1.354800000000000000e+04 1.295000000000000000e+04 1.355000000000000000e+04 7.290300000000000000e+04 1.325300000000000000e+04 1.295400000000000000e+04 7.231000000000000000e+04 1.325500000000000000e+04 1.355600000000000000e+04 7.291500000000000000e+04 1.325800000000000000e+04 1.326000000000000000e+04 1.296100000000000000e+04 1.326100000000000000e+04 7.232600000000000000e+04 1.326300000000000000e+04 1.356400000000000000e+04 1.356500000000000000e+04 1.326700000000000000e+04 1.356700000000000000e+04 1.356800000000000000e+04 7.293900000000000000e+04 1.327000000000000000e+04 1.327100000000000000e+04 7.294500000000000000e+04 1.327300000000000000e+04 1.297500000000000000e+04 7.235200000000000000e+04 1.327600000000000000e+04 1.327700000000000000e+04 1.327900000000000000e+04 7.296000000000000000e+04 1.328100000000000000e+04 1.298200000000000000e+04 1.298300000000000000e+04 1.298400000000000000e+04 7.237000000000000000e+04 1.328500000000000000e+04 1.298700000000000000e+04 1.298800000000000000e+04 7.237800000000000000e+04 1.328900000000000000e+04 7.298100000000000000e+04 1.329100000000000000e+04 1.329300000000000000e+04 1.329400000000000000e+04 7.299000000000000000e+04 1.329600000000000000e+04 7.239700000000000000e+04 1.299800000000000000e+04 7.239800000000000000e+04 1.329900000000000000e+04 1.330100000000000000e+04 1.330200000000000000e+04 7.240900000000000000e+04 1.300400000000000000e+04 7.241000000000000000e+04 7.301200000000000000e+04 1.330700000000000000e+04 7.241900000000000000e+04 1.300900000000000000e+04 7.242300000000000000e+04 1.301100000000000000e+04 1.331200000000000000e+04 7.302600000000000000e+04 1.361300000000000000e+04 1.331500000000000000e+04 7.303200000000000000e+04 1.361600000000000000e+04 1.301800000000000000e+04 1.301900000000000000e+04 1.331900000000000000e+04 1.302100000000000000e+04 7.244400000000000000e+04 1.332200000000000000e+04 1.302400000000000000e+04 7.245000000000000000e+04 1.332500000000000000e+04 1.302700000000000000e+04 1.302800000000000000e+04 1.332900000000000000e+04 1.333000000000000000e+04 7.246500000000000000e+04 1.333200000000000000e+04 1.333300000000000000e+04 1.333400000000000000e+04 1.333500000000000000e+04 1.333600000000000000e+04 7.247700000000000000e+04 1.333800000000000000e+04 7.248100000000000000e+04 1.334000000000000000e+04 1.304100000000000000e+04 1.334100000000000000e+04 1.334200000000000000e+04 1.364300000000000000e+04 1.334500000000000000e+04 1.334600000000000000e+04 7.309400000000000000e+04 1.334800000000000000e+04 7.250100000000000000e+04
1.263200000000000000e+04 7.166900000000000000e+04 1.233400000000000000e+04 7.167300000000000000e+04 1.233600000000000000e+04 1.233700000000000000e+04 1.233800000000000000e+04 7.167800000000000000e+04 1.293900000000000000e+04 1.264000000000000000e+04 1.294100000000000000e+04 7.228600000000000000e+04 1.294300000000000000e+04 1.294400000000000000e+04 1.264600000000000000e+04 1.234700000000000000e+04 1.234800000000000000e+04 1.234900000000000000e+04 7.170000000000000000e+04 1.265000000000000000e+04 1.265100000000000000e+04 7.170900000000000000e+04 1.235400000000000000e+04 7.171000000000000000e+04 1.265500000000000000e+04 1.265600000000000000e+04 7.231600000000000000e+04 1.295800000000000000e+04 1.265900000000000000e+04 1.266000000000000000e+04 7.172400000000000000e+04 1.266200000000000000e+04 1.266300000000000000e+04 1.236500000000000000e+04 7.173200000000000000e+04 1.266600000000000000e+04 1.266800000000000000e+04 1.296800000000000000e+04 1.267000000000000000e+04 1.297000000000000000e+04 7.234300000000000000e+04 1.267200000000000000e+04 7.175100000000000000e+04 1.237500000000000000e+04 7.175200000000000000e+04 1.267600000000000000e+04 7.235500000000000000e+04 1.267800000000000000e+04 1.268000000000000000e+04 1.298000000000000000e+04 1.268200000000000000e+04 7.176900000000000000e+04 1.238400000000000000e+04 7.177000000000000000e+04 1.268500000000000000e+04 7.237300000000000000e+04 1.238800000000000000e+04 1.238900000000000000e+04 1.268900000000000000e+04 1.239100000000000000e+04 1.299100000000000000e+04 1.269300000000000000e+04 7.238800000000000000e+04 1.269500000000000000e+04 1.299500000000000000e+04 1.269600000000000000e+04 1.269800000000000000e+04 1.239900000000000000e+04 1.269900000000000000e+04 7.240100000000000000e+04 1.270100000000000000e+04 1.300200000000000000e+04 1.270400000000000000e+04 7.181300000000000000e+04 1.240600000000000000e+04 7.181400000000000000e+04 1.270800000000000000e+04 1.270900000000000000e+04 7.182300000000000000e+04 1.271100000000000000e+04 1.271200000000000000e+04 7.242600000000000000e+04 1.301300000000000000e+04 7.242900000000000000e+04 1.271500000000000000e+04 1.301600000000000000e+04 1.271800000000000000e+04 1.271900000000000000e+04 7.184300000000000000e+04 1.242100000000000000e+04 7.184400000000000000e+04 1.272200000000000000e+04 1.272400000000000000e+04 1.242500000000000000e+04 1.272500000000000000e+04 1.272700000000000000e+04 1.272800000000000000e+04 1.272900000000000000e+04 1.273000000000000000e+04 7.246200000000000000e+04 1.273200000000000000e+04 1.273300000000000000e+04 7.246800000000000000e+04 1.303400000000000000e+04 1.303500000000000000e+04 1.273700000000000000e+04 1.273800000000000000e+04 7.247800000000000000e+04 1.274000000000000000e+04 1.274100000000000000e+04 7.188700000000000000e+04 1.244300000000000000e+04 1.244400000000000000e+04 1.244500000000000000e+04 1.274600000000000000e+04 7.249400000000000000e+04 1.274800000000000000e+04 1.274900000000000000e+04 1.275000000000000000e+04
7.166600000000000000e+04 1.203400000000000000e+04 7.107300000000000000e+04 1.203600000000000000e+04 1.203700000000000000e+04 1.203800000000000000e+04 7.108100000000000000e+04 1.174000000000000000e+04 1.234000000000000000e+04 7.168300000000000000e+04 7.108600000000000000e+04 1.204300000000000000e+04 7.169000000000000000e+04 1.204600000000000000e+04 1.204700000000000000e+04 1.174800000000000000e+04 1.174900000000000000e+04 1.175000000000000000e+04 1.205000000000000000e+04 7.170300000000000000e+04 1.205200000000000000e+04 1.205400000000000000e+04 1.175500000000000000e+04 1.205500000000000000e+04 1.235600000000000000e+04 7.171500000000000000e+04 1.175900000000000000e+04 1.235900000000000000e+04 1.236000000000000000e+04 7.172300000000000000e+04 1.206200000000000000e+04 7.172700000000000000e+04 1.206400000000000000e+04 7.113200000000000000e+04 1.206600000000000000e+04 7.173500000000000000e+04 1.206800000000000000e+04 1.236900000000000000e+04 1.207100000000000000e+04 1.237100000000000000e+04 1.237200000000000000e+04 7.174700000000000000e+04 1.177500000000000000e+04 7.115200000000000000e+04 1.207600000000000000e+04 1.207800000000000000e+04 1.237800000000000000e+04 1.207900000000000000e+04 1.208100000000000000e+04 1.238100000000000000e+04 7.116900000000000000e+04 1.178400000000000000e+04 7.117000000000000000e+04 1.208500000000000000e+04 7.177300000000000000e+04 1.208800000000000000e+04 7.118100000000000000e+04 1.179000000000000000e+04 1.209100000000000000e+04 7.118700000000000000e+04 1.179300000000000000e+04 1.179400000000000000e+04 1.239400000000000000e+04 1.209600000000000000e+04 1.239600000000000000e+04 1.209700000000000000e+04 1.209900000000000000e+04 1.180000000000000000e+04 1.210000000000000000e+04 1.240100000000000000e+04 1.210200000000000000e+04 1.240300000000000000e+04 1.210500000000000000e+04 1.210600000000000000e+04 7.121700000000000000e+04 1.180800000000000000e+04 1.180900000000000000e+04 1.211000000000000000e+04 1.211100000000000000e+04 1.211200000000000000e+04 7.182600000000000000e+04 1.241300000000000000e+04 7.183000000000000000e+04 1.241500000000000000e+04 1.211700000000000000e+04 7.123900000000000000e+04 1.181900000000000000e+04 1.241900000000000000e+04 1.212100000000000000e+04 7.124700000000000000e+04 1.182300000000000000e+04 1.182400000000000000e+04 1.212500000000000000e+04 1.182600000000000000e+04 1.212600000000000000e+04 1.212800000000000000e+04 7.185800000000000000e+04 1.213000000000000000e+04 7.186200000000000000e+04 1.243100000000000000e+04 1.213300000000000000e+04 7.186800000000000000e+04 1.243400000000000000e+04 7.187100000000000000e+04 7.127700000000000000e+04 1.213800000000000000e+04 7.187800000000000000e+04 1.243900000000000000e+04 1.214000000000000000e+04 1.244100000000000000e+04 1.184300000000000000e+04 7.128800000000000000e+04 1.184500000000000000e+04 7.129200000000000000e+04 1.214600000000000000e+04 1.244700000000000000e+04 1.184900000000000000e+04 1.244900000000000000e+04 1.245000000000000000e+04
7.047100000000000000e+04 1.143500000000000000e+04 1.143600000000000000e+04 7.107400000000000000e+04 1.173700000000000000e+04 1.173800000000000000e+04 1.144000000000000000e+04 7.048500000000000000e+04 1.114200000000000000e+04 1.114300000000000000e+04 1.114400000000000000e+04 1.114500000000000000e+04 1.114600000000000000e+04 1.144700000000000000e+04 1.144800000000000000e+04 7.050100000000000000e+04 1.115000000000000000e+04 7.050200000000000000e+04 1.145100000000000000e+04 1.175200000000000000e+04 1.115400000000000000e+04 1.115500000000000000e+04 7.051200000000000000e+04 1.145600000000000000e+04 1.145700000000000000e+04 1.115900000000000000e+04 7.052000000000000000e+04 1.146000000000000000e+04 7.112400000000000000e+04 1.176200000000000000e+04 7.112700000000000000e+04 1.146400000000000000e+04 1.146500000000000000e+04 1.146600000000000000e+04 1.146800000000000000e+04 1.176800000000000000e+04 7.113900000000000000e+04 1.147000000000000000e+04 7.114400000000000000e+04 1.177200000000000000e+04 7.114700000000000000e+04 1.147400000000000000e+04 7.055200000000000000e+04 1.147600000000000000e+04 1.147700000000000000e+04 1.147800000000000000e+04 1.177900000000000000e+04 7.116100000000000000e+04 1.118200000000000000e+04 1.118300000000000000e+04 1.118400000000000000e+04 7.057000000000000000e+04 1.148500000000000000e+04 7.117300000000000000e+04 1.148700000000000000e+04 1.118900000000000000e+04 1.119000000000000000e+04 7.058200000000000000e+04 1.119200000000000000e+04 1.149300000000000000e+04 1.119400000000000000e+04 7.059000000000000000e+04 1.149600000000000000e+04 7.119400000000000000e+04 1.179700000000000000e+04 1.149900000000000000e+04 1.150000000000000000e+04 7.060500000000000000e+04 1.120200000000000000e+04 1.120300000000000000e+04 1.120400000000000000e+04 1.120500000000000000e+04 1.150600000000000000e+04 7.121400000000000000e+04 1.150800000000000000e+04 1.150900000000000000e+04 1.151000000000000000e+04 1.151100000000000000e+04 7.122400000000000000e+04 1.181200000000000000e+04 1.181300000000000000e+04 1.151400000000000000e+04 1.181500000000000000e+04 1.151700000000000000e+04 7.123600000000000000e+04 1.151900000000000000e+04 7.064300000000000000e+04 1.122100000000000000e+04 1.152200000000000000e+04 1.152300000000000000e+04 1.152400000000000000e+04 7.065300000000000000e+04 1.152600000000000000e+04 7.065700000000000000e+04 1.122800000000000000e+04 1.152900000000000000e+04 1.153000000000000000e+04 1.153100000000000000e+04 1.153200000000000000e+04 1.153300000000000000e+04 7.126800000000000000e+04 1.183400000000000000e+04 1.153500000000000000e+04 1.123700000000000000e+04 1.153800000000000000e+04 7.127800000000000000e+04 1.183900000000000000e+04 1.184000000000000000e+04 7.128300000000000000e+04 1.154300000000000000e+04 7.069100000000000000e+04 1.124500000000000000e+04 7.069200000000000000e+04 1.154600000000000000e+04 7.129500000000000000e+04 1.154900000000000000e+04 7.070300000000000000e+04 1.155100000000000000e+04 7.070700000000000000e+04
1.083500000000000000e+04 1.083600000000000000e+04 7.047400000000000000e+04 1.113700000000000000e+04 7.047700000000000000e+04 1.083900000000000000e+04 7.048200000000000000e+04 1.084200000000000000e+04 6.988900000000000000e+04 1.054400000000000000e+04 1.084400000000000000e+04 1.054600000000000000e+04 6.989700000000000000e+04 1.054800000000000000e+04 1.054900000000000000e+04 1.055000000000000000e+04 6.990200000000000000e+04 1.085100000000000000e+04 1.055300000000000000e+04 1.055400000000000000e+04 6.991000000000000000e+04 1.085500000000000000e+04 1.085600000000000000e+04 1.085700000000000000e+04 7.051700000000000000e+04 1.085900000000000000e+04 1.086000000000000000e+04 1.056200000000000000e+04 1.056300000000000000e+04 7.052800000000000000e+04 1.116400000000000000e+04 1.116500000000000000e+04 1.116600000000000000e+04 7.053500000000000000e+04 1.056900000000000000e+04 1.116900000000000000e+04 1.117000000000000000e+04 1.087100000000000000e+04 6.994900000000000000e+04 1.057400000000000000e+04 1.117400000000000000e+04 7.055100000000000000e+04 1.087600000000000000e+04 1.087700000000000000e+04 1.087800000000000000e+04 7.055900000000000000e+04 1.058100000000000000e+04 1.058200000000000000e+04 6.996600000000000000e+04 1.088300000000000000e+04 1.088400000000000000e+04 1.088500000000000000e+04 1.058700000000000000e+04 1.118700000000000000e+04 1.088900000000000000e+04 1.089000000000000000e+04 1.059100000000000000e+04 1.089100000000000000e+04 1.059300000000000000e+04 1.089300000000000000e+04 1.059500000000000000e+04 1.059600000000000000e+04 7.059400000000000000e+04 1.119700000000000000e+04 1.059900000000000000e+04 1.090000000000000000e+04 1.090100000000000000e+04 1.090200000000000000e+04 1.090300000000000000e+04 1.090400000000000000e+04 1.090500000000000000e+04 7.001500000000000000e+04 1.090700000000000000e+04 1.120700000000000000e+04 1.090800000000000000e+04 1.120900000000000000e+04 1.091100000000000000e+04 7.062400000000000000e+04 1.121200000000000000e+04 7.062700000000000000e+04 1.091400000000000000e+04 7.063100000000000000e+04 1.091700000000000000e+04 7.063600000000000000e+04 1.091900000000000000e+04 7.064000000000000000e+04 1.092100000000000000e+04 1.062200000000000000e+04 1.092300000000000000e+04 7.064800000000000000e+04 1.122400000000000000e+04 1.092600000000000000e+04 7.065400000000000000e+04 1.092800000000000000e+04 7.006100000000000000e+04 1.093000000000000000e+04 7.066200000000000000e+04 1.123100000000000000e+04 1.093300000000000000e+04 7.066800000000000000e+04 1.123400000000000000e+04 1.123500000000000000e+04 7.067300000000000000e+04 7.007900000000000000e+04 1.093900000000000000e+04 1.123900000000000000e+04 7.068100000000000000e+04 1.094100000000000000e+04 1.124200000000000000e+04 1.094300000000000000e+04 1.094500000000000000e+04 1.064600000000000000e+04 1.094600000000000000e+04 7.069500000000000000e+04 1.064900000000000000e+04 7.070000000000000000e+04 1.095100000000000000e+04 1.095200000000000000e+04 1.095300000000000000e+04
1.023600000000000000e+04 6.987400000000000000e+04 1.053700000000000000e+04 1.053800000000000000e+04 1.053900000000000000e+04 1.024000000000000000e+04 1.024200000000000000e+04 9.943000000000000000e+03 1.024400000000000000e+04 6.929300000000000000e+04 9.946000000000000000e+03 6.929700000000000000e+04 1.024800000000000000e+04 6.930100000000000000e+04 9.950000000000000000e+03 6.930200000000000000e+04 1.025100000000000000e+04 9.953000000000000000e+03 6.930800000000000000e+04 1.025400000000000000e+04 1.025500000000000000e+04 1.055600000000000000e+04 1.055700000000000000e+04 9.959000000000000000e+03 1.055900000000000000e+04 6.992100000000000000e+04 1.026100000000000000e+04 1.026300000000000000e+04 6.933100000000000000e+04 9.965000000000000000e+03 6.933500000000000000e+04 9.967000000000000000e+03 9.968000000000000000e+03 1.026900000000000000e+04 6.934300000000000000e+04 9.971000000000000000e+03 1.057100000000000000e+04 6.994500000000000000e+04 1.027400000000000000e+04 1.027500000000000000e+04 6.995200000000000000e+04 1.057600000000000000e+04 6.995500000000000000e+04 1.027800000000000000e+04 6.995900000000000000e+04 1.028000000000000000e+04 6.936400000000000000e+04 1.028200000000000000e+04 1.028300000000000000e+04 1.058400000000000000e+04 6.997100000000000000e+04 1.028600000000000000e+04 9.988000000000000000e+03 1.028800000000000000e+04 9.990000000000000000e+03 1.029100000000000000e+04 9.992000000000000000e+03 1.029200000000000000e+04 9.994000000000000000e+03 1.029400000000000000e+04 9.996000000000000000e+03 6.939400000000000000e+04 1.029800000000000000e+04 1.029900000000000000e+04 1.030000000000000000e+04 1.030100000000000000e+04 7.000400000000000000e+04 1.060200000000000000e+04 1.030400000000000000e+04 7.001000000000000000e+04 1.030600000000000000e+04 1.030700000000000000e+04 7.001600000000000000e+04 1.060800000000000000e+04 1.030900000000000000e+04 1.031100000000000000e+04 7.002400000000000000e+04 1.061200000000000000e+04 1.031300000000000000e+04 1.061400000000000000e+04 1.031600000000000000e+04 1.061600000000000000e+04 1.031800000000000000e+04 1.061800000000000000e+04 1.031900000000000000e+04 1.002100000000000000e+04 1.032200000000000000e+04 1.002300000000000000e+04 1.032300000000000000e+04 1.062400000000000000e+04 1.032600000000000000e+04 7.005400000000000000e+04 1.062700000000000000e+04 7.005800000000000000e+04 1.033000000000000000e+04 7.006200000000000000e+04 1.033200000000000000e+04 1.033300000000000000e+04 7.006800000000000000e+04 1.063400000000000000e+04 1.033500000000000000e+04 6.947700000000000000e+04 1.003800000000000000e+04 6.948100000000000000e+04 1.034000000000000000e+04 7.008200000000000000e+04 1.064100000000000000e+04 1.034200000000000000e+04 1.004400000000000000e+04 6.949000000000000000e+04 1.034600000000000000e+04 6.949700000000000000e+04 1.004800000000000000e+04 6.949800000000000000e+04 1.005000000000000000e+04 6.950200000000000000e+04 1.035200000000000000e+04 7.010600000000000000e+04 1.065300000000000000e+04
9.936000000000000000e+03 9.937000000000000000e+03 9.938000000000000000e+03 9.939000000000000000e+03 9.940000000000000000e+03 6.928300000000000000e+04 9.643000000000000000e+03 6.869100000000000000e+04 9.345000000000000000e+03 9.646000000000000000e+03 6.869700000000000000e+04 9.648000000000000000e+03 6.870100000000000000e+04 9.650000000000000000e+03 9.351000000000000000e+03 9.352000000000000000e+03 9.353000000000000000e+03 6.870800000000000000e+04 9.654000000000000000e+03 9.955000000000000000e+03 6.931300000000000000e+04 9.658000000000000000e+03 9.659000000000000000e+03 9.660000000000000000e+03 9.661000000000000000e+03 9.961000000000000000e+03 9.662000000000000000e+03 9.664000000000000000e+03 9.665000000000000000e+03 6.873500000000000000e+04 9.667000000000000000e+03 9.668000000000000000e+03 9.669000000000000000e+03 9.670000000000000000e+03 9.671000000000000000e+03 9.672000000000000000e+03 6.934600000000000000e+04 9.973000000000000000e+03 9.675000000000000000e+03 6.935200000000000000e+04 9.976000000000000000e+03 9.677000000000000000e+03 9.978000000000000000e+03 6.935900000000000000e+04 9.680000000000000000e+03 6.936300000000000000e+04 9.682000000000000000e+03 6.936700000000000000e+04 9.684000000000000000e+03 9.685000000000000000e+03 9.986000000000000000e+03 9.388000000000000000e+03 6.877800000000000000e+04 9.689000000000000000e+03 6.878200000000000000e+04 9.691000000000000000e+03 6.878600000000000000e+04 9.693000000000000000e+03 9.395000000000000000e+03 9.695000000000000000e+03 9.397000000000000000e+03 9.398000000000000000e+03 9.399000000000000000e+03 9.400000000000000000e+03 1.000000000000000000e+04 9.702000000000000000e+03 1.000200000000000000e+04 9.703000000000000000e+03 9.405000000000000000e+03 1.000500000000000000e+04 9.707000000000000000e+03 1.000700000000000000e+04 1.000800000000000000e+04 1.000900000000000000e+04 9.710000000000000000e+03 9.712000000000000000e+03 1.001200000000000000e+04 1.001300000000000000e+04 9.415000000000000000e+03 9.716000000000000000e+03 6.943400000000000000e+04 1.001700000000000000e+04 9.419000000000000000e+03 9.420000000000000000e+03 9.721000000000000000e+03 6.884700000000000000e+04 9.423000000000000000e+03 9.424000000000000000e+03 9.425000000000000000e+03 9.426000000000000000e+03 9.427000000000000000e+03 1.002700000000000000e+04 6.945700000000000000e+04 9.729000000000000000e+03 6.946200000000000000e+04 9.732000000000000000e+03 9.733000000000000000e+03 6.946800000000000000e+04 1.003400000000000000e+04 6.947100000000000000e+04 9.736000000000000000e+03 9.738000000000000000e+03 6.888100000000000000e+04 9.740000000000000000e+03 6.948200000000000000e+04 1.004100000000000000e+04 1.004200000000000000e+04 6.948700000000000000e+04 9.744000000000000000e+03 9.745000000000000000e+03 9.746000000000000000e+03 9.748000000000000000e+03 9.449000000000000000e+03 9.749000000000000000e+03 6.890200000000000000e+04 9.751000000000000000e+03 9.453000000000000000e+03 9.454000000000000000e+03 6.891300000000000000e+04
9.337000000000000000e+03 9.039000000000000000e+03 9.040000000000000000e+03 6.868200000000000000e+04 9.341000000000000000e+03 9.342000000000000000e+03 9.044000000000000000e+03 9.045000000000000000e+03 6.809500000000000000e+04 9.047000000000000000e+03 9.048000000000000000e+03 6.869800000000000000e+04 9.050000000000000000e+03 9.051000000000000000e+03 6.810700000000000000e+04 8.753000000000000000e+03 6.810800000000000000e+04 9.054000000000000000e+03 9.055000000000000000e+03 6.811700000000000000e+04 8.758000000000000000e+03 6.871800000000000000e+04 9.359000000000000000e+03 9.360000000000000000e+03 9.062000000000000000e+03 9.362000000000000000e+03 9.063000000000000000e+03 9.065000000000000000e+03 9.066000000000000000e+03 9.067000000000000000e+03 9.068000000000000000e+03 9.069000000000000000e+03 6.874000000000000000e+04 9.370000000000000000e+03 9.072000000000000000e+03 6.874600000000000000e+04 9.373000000000000000e+03 9.374000000000000000e+03 9.076000000000000000e+03 9.376000000000000000e+03 9.377000000000000000e+03 9.079000000000000000e+03 6.876000000000000000e+04 9.380000000000000000e+03 6.876300000000000000e+04 9.382000000000000000e+03 9.084000000000000000e+03 9.384000000000000000e+03 9.385000000000000000e+03 9.087000000000000000e+03 8.788000000000000000e+03 6.817800000000000000e+04 9.089000000000000000e+03 6.878100000000000000e+04 9.091000000000000000e+03 6.878500000000000000e+04 9.093000000000000000e+03 9.095000000000000000e+03 6.819500000000000000e+04 9.097000000000000000e+03 9.098000000000000000e+03 9.099000000000000000e+03 9.100000000000000000e+03 6.820500000000000000e+04 9.102000000000000000e+03 6.880600000000000000e+04 9.403000000000000000e+03 6.880900000000000000e+04 9.105000000000000000e+03 9.106000000000000000e+03 6.881600000000000000e+04 9.109000000000000000e+03 6.882000000000000000e+04 9.410000000000000000e+03 6.882300000000000000e+04 9.113000000000000000e+03 9.413000000000000000e+03 9.114000000000000000e+03 6.823500000000000000e+04 8.817000000000000000e+03 9.417000000000000000e+03 9.119000000000000000e+03 9.120000000000000000e+03 6.824500000000000000e+04 8.822000000000000000e+03 9.123000000000000000e+03 6.825100000000000000e+04 8.825000000000000000e+03 6.825200000000000000e+04 9.126000000000000000e+03 9.127000000000000000e+03 9.128000000000000000e+03 6.826000000000000000e+04 6.826500000000000000e+04 9.132000000000000000e+03 6.886600000000000000e+04 9.433000000000000000e+03 9.434000000000000000e+03 9.435000000000000000e+03 9.436000000000000000e+03 9.137000000000000000e+03 6.887800000000000000e+04 9.140000000000000000e+03 6.888200000000000000e+04 9.142000000000000000e+03 6.888600000000000000e+04 9.443000000000000000e+03 9.444000000000000000e+03 6.889100000000000000e+04 9.146000000000000000e+03 8.848000000000000000e+03 9.149000000000000000e+03 8.850000000000000000e+03 9.150000000000000000e+03 9.151000000000000000e+03 9.153000000000000000e+03 9.154000000000000000e+03 6.831300000000000000e+04 9.156000000000000000e+03
8.439000000000000000e+03 6.808000000000000000e+04 8.740000000000000000e+03 8.741000000000000000e+03 8.143000000000000000e+03 8.144000000000000000e+03 8.145000000000000000e+03 8.446000000000000000e+03 8.447000000000000000e+03 8.448000000000000000e+03 6.809800000000000000e+04 8.749000000000000000e+03 8.450000000000000000e+03 8.152000000000000000e+03 8.153000000000000000e+03 6.750800000000000000e+04 8.454000000000000000e+03 8.455000000000000000e+03 8.756000000000000000e+03 8.458000000000000000e+03 8.159000000000000000e+03 8.459000000000000000e+03 8.161000000000000000e+03 8.462000000000000000e+03 6.812600000000000000e+04 8.763000000000000000e+03 8.465000000000000000e+03 8.466000000000000000e+03 8.467000000000000000e+03 8.468000000000000000e+03 8.469000000000000000e+03 6.814000000000000000e+04 8.770000000000000000e+03 8.172000000000000000e+03 8.173000000000000000e+03 8.773000000000000000e+03 8.774000000000000000e+03 8.476000000000000000e+03 6.815400000000000000e+04 8.777000000000000000e+03 8.778000000000000000e+03 6.816000000000000000e+04 8.780000000000000000e+03 6.816300000000000000e+04 8.482000000000000000e+03 8.184000000000000000e+03 8.485000000000000000e+03 8.785000000000000000e+03 8.486000000000000000e+03 8.188000000000000000e+03 6.757800000000000000e+04 8.489000000000000000e+03 8.490000000000000000e+03 8.791000000000000000e+03 8.493000000000000000e+03 8.793000000000000000e+03 8.494000000000000000e+03 8.496000000000000000e+03 8.497000000000000000e+03 6.819600000000000000e+04 8.798000000000000000e+03 8.799000000000000000e+03 8.800000000000000000e+03 8.502000000000000000e+03 6.820600000000000000e+04 8.803000000000000000e+03 6.821000000000000000e+04 8.805000000000000000e+03 8.806000000000000000e+03 6.821500000000000000e+04 6.821800000000000000e+04 6.822000000000000000e+04 8.810000000000000000e+03 6.822400000000000000e+04 8.812000000000000000e+03 6.822800000000000000e+04 8.814000000000000000e+03 8.216000000000000000e+03 8.217000000000000000e+03 6.763600000000000000e+04 8.518000000000000000e+03 8.520000000000000000e+03 6.824200000000000000e+04 8.522000000000000000e+03 6.764900000000000000e+04 8.224000000000000000e+03 8.525000000000000000e+03 8.226000000000000000e+03 8.227000000000000000e+03 8.228000000000000000e+03 8.828000000000000000e+03 6.825900000000000000e+04 8.530000000000000000e+03 8.532000000000000000e+03 6.826600000000000000e+04 8.833000000000000000e+03 8.235000000000000000e+03 8.236000000000000000e+03 8.537000000000000000e+03 8.837000000000000000e+03 8.538000000000000000e+03 8.540000000000000000e+03 6.828200000000000000e+04 8.841000000000000000e+03 8.543000000000000000e+03 8.843000000000000000e+03 8.545000000000000000e+03 8.845000000000000000e+03 8.846000000000000000e+03 8.548000000000000000e+03 6.770100000000000000e+04 8.250000000000000000e+03 8.251000000000000000e+03 8.551000000000000000e+03 6.830500000000000000e+04 8.553000000000000000e+03 8.854000000000000000e+03 8.556000000000000000e+03 6.831400000000000000e+04
