ncols        136
nrows        32
xllcorner    853
yllcorner    143
cellsize     1.000000000000
3.6759476661682128906 3.5849082469940185547 3.4977447986602783203 3.4161756038665771484 3.343021392822265625 3.2814753055572509766 3.2326710224151611328 3.1929640769958496094 3.2953176498413085938 3.4145765304565429688 3.5529932975769042969 3.7029523849487304688 3.8572106361389160156 4.0127820968627929688 4.1660585403442382812 4.3217558860778808594 4.4765210151672363281 4.6296901702880859375 4.7659320831298828125 4.8908782005310058594 4.9767932891845703125 5.0026946067810058594 4.9660696983337402344 4.8971791267395019531 4.8170542716979980469 4.73525238037109375 4.7710099220275878906 4.8244686126708984375 4.8894848823547363281 4.9644675254821777344 5.0470781326293945312 5.1340060234069824219 5.2197356224060058594 5.291534423828125 5.3354253768920898438 5.3208856582641601562 5.2410588264465332031 5.1160821914672851562 4.9645051956176757812 4.8011655807495117188 4.6363177299499511719 4.4761142730712890625 4.3236360549926757812 4.1799712181091308594 4.04511260986328125 3.9185969829559326172 3.7998914718627929688 3.6885290145874023438 3.5839874744415283203 3.4853904247283935547 3.3915624618530273438 3.3041229248046875 3.2419207096099853516 3.3155317306518554688 3.4160904884338378906 3.5240800380706787109 3.6385989189147949219 3.761165618896484375 3.8927273750305175781 4.0336403846740722656 4.1837053298950195312 4.3417344093322753906 4.50457000732421875 4.6656231880187988281 4.8131246566772460938 4.9286351203918457031 4.9860615730285644531 4.9679918289184570312 4.8891873359680175781 4.7813434600830078125 4.6471638679504394531 4.4934639930725097656 4.331878662109375 4.16725921630859375 4.0022525787353515625 3.8405358791351318359 3.7029049396514892578 3.8291497230529785156 3.9821600914001464844 4.1421933174133300781 4.3069314956665039062 4.4712915420532226562 4.6239166259765625 4.7452940940856933594 4.8075823783874511719 4.7769942283630371094 4.6696729660034179688 4.5192575454711914062 4.350795745849609375 4.1805925369262695312 4.0177698135375976562 3.8664395809173583984 3.7276139259338378906 3.6006035804748535156 3.4839062690734863281 3.3756837844848632812 3.2739961147308349609 3.1719214916229248047 3.3151347637176513672 3.4236369132995605469 3.5129325389862060547 3.5970265865325927734 3.6768746376037597656 3.7538013458251953125 3.8273794651031494141 3.9050517082214355469 3.9856350421905517578 4.068569183349609375 4.1535940170288085938 4.2403306961059570312 4.3279519081115722656 4.4146375656127929688 4.5077376365661621094 4.6064991950988769531 4.7107720375061035156 4.8199191093444824219 4.932804107666015625 5.0469670295715332031 5.1681265830993652344 5.2926654815673828125 5.4345188140869140625 5.5800728797912597656 5.7761979103088378906 5.9850640296936035156 6.1919527053833007812 6.3725085258483886719 6.4939718246459960938 6.5201830863952636719 6.4490275382995605469 6.3214297294616699219 6.1660962104797363281 6.0012183189392089844 5.8371634483337402344 5.6793837547302246094 5.5304551124572753906 5.3909978866577148438
3.673187255859375 3.581264495849609375 3.4933333396911621094 3.4109184741973876953 3.3364098072052001953 3.2722823619842529297 3.2185804843902587891 3.1712734699249267578 3.2812304496765136719 3.3981211185455322266 3.52635955810546875 3.6615648269653320312 3.7987539768218994141 3.9314196109771728516 4.0774593353271484375 4.2316412925720214844 4.3700571060180664062 4.5370602607727050781 4.7011122703552246094 4.8446035385131835938 4.9441380500793457031 4.9770154953002929688 4.9436125755310058594 4.8747205734252929688 4.7909140586853027344 4.6971096992492675781 4.7072148323059082031 4.7620191574096679688 4.829006195068359375 4.9035177230834960938 4.9850134849548339844 5.0724201202392578125 5.1598558425903320312 5.2410645484924316406 5.2956876754760742188 5.295513153076171875 5.22711181640625 5.109691619873046875 4.9621844291687011719 4.80037689208984375 4.6354718208312988281 4.4743499755859375 4.3205752372741699219 4.1755261421203613281 4.0393466949462890625 3.9116413593292236328 3.7918965816497802734 3.6796412467956542969 3.5743372440338134766 3.4750819206237792969 3.3806581497192382812 3.2926316261291503906 3.2297692298889160156 3.3035290241241455078 3.404438018798828125 3.5131046772003173828 3.6285078525543212891 3.7521197795867919922 3.8848440647125244141 4.0269322395324707031 4.1779618263244628906 4.3363294601440429688 4.498195648193359375 4.6559786796569824219 4.7967014312744140625 4.9009366035461425781 4.9436473846435546875 4.910999298095703125 4.8231081962585449219 4.7060933113098144531 4.5809564590454101562 4.4484844207763671875 4.3037390708923339844 4.1508088111877441406 3.9882485866546630859 3.82588958740234375 3.6866047382354736328 3.8219282627105712891 3.9836745262145996094 4.1497321128845214844 4.3180856704711914062 4.4837770462036132812 4.6350979804992675781 4.75179290771484375 4.8055124282836914062 4.764705657958984375 4.6515965461730957031 4.4986724853515625 4.3297305107116699219 4.1601004600524902344 3.9982504844665527344 3.8478937149047851562 3.7098276615142822266 3.5832910537719726562 3.4668681621551513672 3.359081268310546875 3.2592244148254394531 3.1525692939758300781 3.2685055732727050781 3.3478798866271972656 3.4214892387390136719 3.4927530288696289062 3.5627450942993164062 3.6300728321075439453 3.7009530067443847656 3.7746481895446777344 3.850948333740234375 3.9296972751617431641 4.0107831954956054688 4.0937428474426269531 4.1762151718139648438 4.2640528678894042969 4.3567914962768554688 4.4547677040100097656 4.5581531524658203125 4.6667537689208984375 4.7784848213195800781 4.8988504409790039062 5.0238242149353027344 5.13697052001953125 5.3085579872131347656 5.5263648033142089844 5.7402558326721191406 5.9549384117126464844 6.1611623764038085938 6.339717864990234375 6.4627156257629394531 6.4973578453063964844 6.4345326423645019531 6.3129935264587402344 6.1614933013916015625 5.9985942840576171875 5.8350701332092285156 5.6767182350158691406 5.5263686180114746094 5.3847985267639160156
3.6724007129669189453 3.5794904232025146484 3.4909224510192871094 3.4082343578338623047 3.3336992263793945312 3.2690918445587158203 3.2092344760894775391 3.1474404335021972656 3.2405149936676025391 3.3280484676361083984 3.4376583099365234375 3.5609109401702880859 3.6868619918823242188 3.7951724529266357422 3.9527094364166259766 4.1239190101623535156 4.3199677467346191406 4.5033359527587890625 4.6728878021240234375 4.8166432380676269531 4.9163532257080078125 4.9541831016540527344 4.9244799613952636719 4.8575453758239746094 4.7781310081481933594 4.7016353607177734375 4.6401925086975097656 4.707794189453125 4.7740769386291503906 4.8461399078369140625 4.9260911941528320312 5.0128712654113769531 5.1058497428894042969 5.1933560371398925781 5.2573194503784179688 5.2703566551208496094 5.213420867919921875 5.1036138534545898438 4.9601874351501464844 4.7999181747436523438 4.6349616050720214844 4.4729199409484863281 4.317840576171875 4.1713924407958984375 4.0338749885559082031 3.9049646854400634766 3.7841711044311523438 3.6710190773010253906 3.5649516582489013672 3.4650294780731201172 3.3699784278869628906 3.2813084125518798828 3.2177650928497314453 3.2932248115539550781 3.3956899642944335938 3.5057764053344726562 3.6227011680603027344 3.7480363845825195312 3.8826730251312255859 4.0267472267150878906 4.1795668601989746094 4.339000701904296875 4.5002942085266113281 4.6544589996337890625 4.7866306304931640625 4.8753008842468261719 4.8924236297607421875 4.83840179443359375 4.7421488761901855469 4.6176080703735351562 4.4835629463195800781 4.3535594940185546875 4.2212538719177246094 4.0775179862976074219 3.92844390869140625 3.7736985683441162109 3.6700346469879150391 3.8276243209838867188 3.9978377819061279297 4.1683459281921386719 4.3392701148986816406 4.5056567192077636719 4.6547307968139648438 4.7643413543701171875 4.8021664619445800781 4.7458362579345703125 4.6256861686706542969 4.4703021049499511719 4.3014388084411621094 4.1330866813659667969 3.9728999137878417969 3.8241322040557861328 3.6873500347137451172 3.5616810321807861328 3.4456136226654052734 3.33742523193359375 3.2353222370147705078 3.1345195770263671875 3.18329620361328125 3.2383291721343994141 3.2975795269012451172 3.3597121238708496094 3.4239735603332519531 3.490062713623046875 3.5583467483520507812 3.6290774345397949219 3.7023923397064208984 3.7784135341644287109 3.8572468757629394531 3.9389371871948242188 4.023651123046875 4.1121006011962890625 4.2049856185913085938 4.3029837608337402344 4.4067854881286621094 4.5171442031860351562 4.635406494140625 4.7642164230346679688 4.9099078178405761719 5.1044683456420898438 5.2969775199890136719 5.5027475357055664062 5.7164196968078613281 5.9315361976623535156 6.1368627548217773438 6.3137578964233398438 6.4361767768859863281 6.4736890792846679688 6.4198794364929199219 6.3044981956481933594 6.1576108932495117188 5.9974880218505859375 5.8350067138671875 5.6761837005615234375 5.5241122245788574219 5.3798694610595703125
3.6740047931671142578 3.5788760185241699219 3.4880990982055664062 3.4034848213195800781 3.32769775390625 3.2808220386505126953 3.2191936969757080078 3.1237154006958007812 3.1810176372528076172 3.2312641143798828125 3.3221893310546875 3.4369080066680908203 3.573726654052734375 3.7501399517059326172 3.9260175228118896484 4.1079659461975097656 4.2960190773010253906 4.4804263114929199219 4.6514596939086914062 4.795597076416015625 4.8950610160827636719 4.93294525146484375 4.9030523300170898438 4.8360357284545898438 4.7561016082763671875 4.6764330863952636719 4.6005811691284179688 4.6619572639465332031 4.7237982749938964844 4.7918496131896972656 4.8691058158874511719 4.9591455459594726562 5.0556135177612304688 5.14858245849609375 5.2207593917846679688 5.2462644577026367188 5.2030115127563476562 5.1008324623107910156 4.9611706733703613281 4.8021092414855957031 4.636814117431640625 4.4736089706420898438 4.3170156478881835938 4.1689867973327636719 4.0299749374389648438 3.8997235298156738281 3.7777652740478515625 3.6636245250701904297 3.5567243099212646484 3.4560692310333251953 3.3602516651153564453 3.2705557346343994141 3.2057631015777587891 3.2825806140899658203 3.3864839076995849609 3.4980540275573730469 3.6165795326232910156 3.7436847686767578125 3.8802421092987060547 4.0262541770935058594 4.1807026863098144531 4.3408174514770507812 4.5007443428039550781 4.6498265266418457031 4.7710556983947753906 4.8411960601806640625 4.833942413330078125 4.7609376907348632812 4.6488919258117675781 4.5195879936218261719 4.3801546096801757812 4.2425222396850585938 4.1130452156066894531 3.9787619113922119141 3.8192474842071533203 3.6376230716705322266 3.7277915477752685547 3.8690552711486816406 4.0265989303588867188 4.1924562454223632812 4.3617382049560546875 4.5262846946716308594 4.6713075637817382812 4.7729687690734863281 4.7976694107055664062 4.7306118011474609375 4.6041631698608398438 4.4460453987121582031 4.2767000198364257812 4.1090550422668457031 3.9500524997711181641 3.8025331497192382812 3.6668620109558105469 3.5421056747436523438 3.4267935752868652344 3.3193647861480712891 3.218486785888671875 3.1201298236846923828 3.1834480762481689453 3.2404093742370605469 3.2996156215667724609 3.3609955310821533203 3.4244897365570068359 3.4901027679443359375 3.5580093860626220703 3.6283881664276123047 3.7014298439025878906 3.7773408889770507812 3.856334686279296875 3.9386334419250488281 4.0245237350463867188 4.1145181655883789062 4.2092318534851074219 4.3093867301940917969 4.4158406257629394531 4.5296826362609863281 4.6524758338928222656 4.7867560386657714844 4.9367423057556152344 5.1081790924072265625 5.2954864501953125 5.49665069580078125 5.7071561813354492188 5.9195146560668945312 6.1212520599365234375 6.2933182716369628906 6.410228729248046875 6.4426517486572265625 6.3877263069152832031 6.2787737846374511719 6.1396384239196777344 5.9856266975402832031 5.8271431922912597656 5.6701617240905761719 5.5178823471069335938 5.3716616630554199219
3.6789031028747558594 3.5797989368438720703 3.4836220741271972656 3.3916068077087402344 3.3058674335479736328 3.2277495861053466797 3.1868720054626464844 3.1009294986724853516 3.1392202377319335938 3.2133913040161132812 3.3127248287200927734 3.4358284473419189453 3.5788686275482177734 3.740940093994140625 3.9149634838104248047 4.0972342491149902344 4.2839155197143554688 4.467708587646484375 4.6383676528930664062 4.78143310546875 4.8788313865661621094 4.911823272705078125 4.8784236907958984375 4.8097481727600097656 4.7277507781982421875 4.6447925567626953125 4.5638375282287597656 4.6191453933715820312 4.6762328147888183594 4.7340421676635742188 4.81476593017578125 4.9070219993591308594 5.0070314407348632812 5.1054825782775878906 5.1853499412536621094 5.2215795516967773438 5.1878347396850585938 5.0919079780578613281 4.9558205604553222656 4.7983679771423339844 4.6333689689636230469 4.4696760177612304688 4.3121967315673828125 4.1631340980529785156 4.0230879783630371094 3.8918814659118652344 3.7690834999084472656 3.6542305946350097656 3.5467374324798583984 3.4455745220184326172 3.3492715358734130859 3.2590563297271728516 3.1937339305877685547 3.272670745849609375 3.3785414695739746094 3.4918515682220458984 3.6121656894683837891 3.7412500381469726562 3.8799791336059570312 4.02820587158203125 4.1845259666442871094 4.3454022407531738281 4.5036468505859375 4.6465277671813964844 4.7541666030883789062 4.7984709739685058594 4.7682056427001953125 4.678707122802734375 4.5544300079345703125 4.4144105911254882812 4.2730345726013183594 4.1322679519653320312 3.9999954700469970703 3.87700653076171875 3.7441713809967041016 3.6113965511322021484 3.7366147041320800781 3.8898730278015136719 4.0506787300109863281 4.2170515060424804688 4.3854045867919921875 4.5474076271057128906 4.6874074935913085938 4.7806277275085449219 4.7930464744567871094 4.7166771888732910156 4.5845365524291992188 4.4237637519836425781 4.2538022994995117188 4.0866842269897460938 3.9287166595458984375 3.7823603153228759766 3.647792816162109375 3.52402496337890625 3.4096121788024902344 3.3030679225921630859 3.2031431198120117188 3.1057572364807128906 3.1713666915893554688 3.2300620079040527344 3.2904355525970458984 3.3524906635284423828 3.4163684844970703125 3.4822342395782470703 3.5502927303314208984 3.6207745075225830078 3.6939337253570556641 3.7700440883636474609 3.8493974208831787109 3.9323139190673828125 4.0191707611083984375 4.1104559898376464844 4.2067780494689941406 4.3088879585266113281 4.417720794677734375 4.5344672203063964844 4.6606988906860351562 4.79850006103515625 4.9504694938659667969 5.1190395355224609375 5.3033809661865234375 5.5014729499816894531 5.7088084220886230469 5.9171442985534667969 6.1129708290100097656 6.2764787673950195312 6.3822984695434570312 6.4024367332458496094 6.3437957763671875 6.247226715087890625 6.1218409538269042969 5.976779937744140625 5.824962615966796875 5.6720433235168457031 5.52098846435546875 5.3730425834655761719
3.694461822509765625 3.5922746658325195312 3.4914414882659912109 3.3926279544830322266 3.2978105545043945312 3.2108893394470214844 3.1336979866027832031 3.0810031890869140625 3.1360321044921875 3.2113039493560791016 3.3133554458618164062 3.4381844997406005859 3.5813386440277099609 3.7400617599487304688 3.91103363037109375 4.0910882949829101562 4.2757782936096191406 4.4579815864562988281 4.6269288063049316406 4.7676348686218261719 4.8617906570434570312 4.8906183242797851562 4.8539776802062988281 4.7826585769653320312 4.6981806755065917969 4.6126208305358886719 4.5283083915710449219 4.5710349082946777344 4.6317601203918457031 4.7126827239990234375 4.7964954376220703125 4.8875074386596679688 4.9841341972351074219 5.0792789459228515625 5.1587052345275878906 5.1995892524719238281 5.1722803115844726562 5.0812754631042480469 4.9483437538146972656 4.7925252914428710938 4.6280460357666015625 4.464160919189453125 4.3060946464538574219 4.1562695503234863281 4.01541900634765625 3.8834407329559326172 3.7599408626556396484 3.6444706916809082031 3.5364408493041992188 3.4347965717315673828 3.3380298614501953125 3.2473578453063964844 3.1816873550415039062 3.2616572380065917969 3.3687112331390380859 3.4832143783569335938 3.6048014163970947266 3.7353227138519287109 3.8756456375122070312 4.0254454612731933594 4.1828713417053222656 4.3435297012329101562 4.4988145828247070312 4.6339464187622070312 4.72662353515625 4.7467088699340820312 4.6921968460083007812 4.5916185379028320312 4.4584956169128417969 4.3116917610168457031 4.1631684303283691406 4.0213742256164550781 3.8862888813018798828 3.7708902359008789062 3.6656899452209472656 3.5954444408416748047 3.7470738887786865234 3.9120576381683349609 4.0772824287414550781 4.2442831993103027344 4.4111423492431640625 4.5696883201599121094 4.7037577629089355469 4.7880053520202636719 4.7883524894714355469 4.703281402587890625 4.5658841133117675781 4.4026608467102050781 4.2321443557739257812 4.0655527114868164062 3.9086024761199951172 3.7633907794952392578 3.6299090385437011719 3.5070984363555908203 3.3935108184814453125 3.2876758575439453125 3.1883370876312255859 3.0913901329040527344 3.1546189785003662109 3.2158999443054199219 3.2780420780181884766 3.3413882255554199219 3.4062383174896240234 3.4728686809539794922 3.5415563583374023438 3.6125926971435546875 3.6862862110137939453 3.7629654407501220703 3.8429820537567138672 3.9267227649688720703 4.0146279335021972656 4.1072239875793457031 4.205150604248046875 4.3091931343078613281 4.42032623291015625 4.5397624969482421875 4.6690020561218261719 4.8098244667053222656 4.964115142822265625 5.1333260536193847656 5.3174023628234863281 5.5143742561340332031 5.7193493843078613281 5.9231629371643066406 6.1110157966613769531 6.2618470191955566406 6.3499965667724609375 6.3502521514892578125 6.2791476249694824219 6.1714463233947753906 6.0533857345581054688 5.9284634590148925781 5.7932939529418945312 5.6535854339599609375 5.5116071701049804688 5.3678026199340820312
3.7272715568542480469 3.6260783672332763672 3.5256972312927246094 3.4253222942352294922 3.3234791755676269531 3.2270095348358154297 3.1416165828704833984 3.0649628639221191406 3.1271991729736328125 3.2085254192352294922 3.3140039443969726562 3.4403746128082275391 3.5835957527160644531 3.7409048080444335938 3.9100651741027832031 4.0883564949035644531 4.2713503837585449219 4.4517426490783691406 4.6183767318725585938 4.7558841705322265625 4.84574127197265625 4.8691616058349609375 4.8283972740173339844 4.7540960311889648438 4.6673760414123535156 4.580142974853515625 4.4944000244140625 4.5559415817260742188 4.6228837966918945312 4.6968035697937011719 4.7767806053161621094 4.8655133247375488281 4.9604954719543457031 5.0547618865966796875 5.1350002288818359375 5.1792707443237304688 5.1571903228759765625 5.0704107284545898438 4.9403424263000488281 4.7861156463623046875 4.6222562789916992188 4.4583487510681152344 4.2998929023742675781 4.1495013236999511719 4.0080213546752929688 3.8754098415374755859 3.7512972354888916016 3.6352379322052001953 3.5266296863555908203 3.4243938922882080078 3.3270092010498046875 3.2357518672943115234 3.1698017120361328125 3.2503671646118164062 3.3582034111022949219 3.4734492301940917969 3.5958640575408935547 3.7274367809295654297 3.8690421581268310547 4.0201482772827148438 4.1783900260925292969 4.3384242057800292969 4.4901213645935058594 4.61658477783203125 4.6933956146240234375 4.6906018257141113281 4.6162209510803222656 4.4986367225646972656 4.3609676361083984375 4.2105464935302734375 4.0588769912719726562 3.9112093448638916016 3.7714903354644775391 3.6410460472106933594 3.5671625137329101562 3.6614246368408203125 3.7982401847839355469 3.9553744792938232422 4.1143484115600585938 4.2770352363586425781 4.4398427009582519531 4.5933651924133300781 4.7204098701477050781 4.7949805259704589844 4.7831101417541503906 4.6896367073059082031 4.5473527908325195312 4.3819780349731445312 4.2111210823059082031 4.0452051162719726562 3.889373779296875 3.745361328125 3.6129651069641113281 3.4910509586334228516 3.3781676292419433594 3.2728722095489501953 3.1739366054534912109 3.0772776603698730469 3.1406869888305664062 3.2026312351226806641 3.2656688690185546875 3.3299534320831298828 3.3957147598266601562 3.4632096290588378906 3.5327217578887939453 3.6045610904693603516 3.6790635585784912109 3.756591796875 3.8375396728515625 3.9223411083221435547 4.0114879608154296875 4.1055536270141601562 4.2052235603332519531 4.3113284111022949219 4.4248805046081542969 4.5471067428588867188 4.6794576644897460938 4.8235430717468261719 4.980915069580078125 5.1526150703430175781 5.3384194374084472656 5.5359673500061035156 5.7395477294921875 5.9386458396911621094 6.1166148185729980469 6.2502431869506835938 6.3104624748229980469 6.2859225273132324219 6.1994905471801757812 6.0805978775024414062 5.950679779052734375 5.8257784843444824219 5.7014780044555664062 5.5710263252258300781 5.4365124702453613281 5.2971796989440917969
3.6676247119903564453 3.5683126449584960938 3.4713120460510253906 3.3772263526916503906 3.289516448974609375 3.2035651206970214844 3.1264870166778564453 3.0479292869567871094 3.1165566444396972656 3.2014443874359130859 3.3100988864898681641 3.4385781288146972656 3.5828456878662109375 3.7403101921081542969 3.9090876579284667969 4.0866541862487792969 4.2685723304748535156 4.4473409652709960938 4.6114850044250488281 4.7453217506408691406 4.830188751220703125 4.8474278450012207031 4.8020186424255371094 4.7245578765869140625 4.6356401443481445312 4.5468201637268066406 4.4600744247436523438 4.5416646003723144531 4.6122288703918457031 4.6829562187194824219 4.7524309158325195312 4.8401570320129394531 4.9350180625915527344 5.0298495292663574219 5.111785888671875 5.1594905853271484375 5.1423830986022949219 5.0595669746398925781 4.9322252273559570312 4.7795839309692382812 4.6164369583129882812 4.4526677131652832031 4.2940239906311035156 4.1432862281799316406 4.0013957023620605469 3.8683457374572753906 3.7437653541564941406 3.6271805763244628906 3.5179440975189208984 3.4149327278137207031 3.3166306018829345703 3.2244780063629150391 3.1582274436950683594 3.2394325733184814453 3.3478925228118896484 3.4634308815002441406 3.5863111019134521484 3.7187998294830322266 3.8617682456970214844 4.0144076347351074219 4.1737456321716308594 4.3333740234375 4.4814634323120117188 4.5986356735229492188 4.6560072898864746094 4.6317453384399414062 4.5398130416870117188 4.4085569381713867188 4.2601675987243652344 4.1098785400390625 3.9584224224090576172 3.8112604618072509766 3.6677427291870117188 3.5327732563018798828 3.6320481300354003906 3.7595839500427246094 3.887348175048828125 4.0080714225769042969 4.1565303802490234375 4.3125929832458496094 4.4700827598571777344 4.617671966552734375 4.7367954254150390625 4.800762176513671875 4.7762150764465332031 4.6744661331176757812 4.5276637077331542969 4.3605542182922363281 4.189746856689453125 4.0248532295227050781 3.8704311847686767578 3.7278339862823486328 3.5966405868530273438 3.4756300449371337891 3.36336517333984375 3.2584679126739501953 3.1597828865051269531 3.0632770061492919922 3.1268329620361328125 3.1891341209411621094 3.2527034282684326172 3.3176386356353759766 3.3841223716735839844 3.452381134033203125 3.5226829051971435547 3.5953354835510253906 3.6706826686859130859 3.7491040229797363281 3.8310186862945556641 3.9168927669525146484 4.0072565078735351562 4.1027240753173828125 4.2040247917175292969 4.3120312690734863281 4.4277896881103515625 4.5525403022766113281 4.6876978874206542969 4.834758758544921875 4.9950590133666992188 5.1693158149719238281 5.3568863868713378906 5.5547242164611816406 5.7560148239135742188 5.9486560821533203125 6.1140561103820800781 6.2272038459777832031 6.2580161094665527344 6.2066693305969238281 6.1084356307983398438 5.9799571037292480469 5.84143829345703125 5.7050967216491699219 5.5794777870178222656 5.4567847251892089844 5.3289785385131835938 5.1961913108825683594
3.5469737052917480469 3.4496064186096191406 3.3567037582397460938 3.2698981761932373047 3.1916027069091796875 3.1243982315063476562 3.0710725784301757812 3.0304009914398193359 3.100372314453125 3.1900041103363037109 3.3021509647369384766 3.4331946372985839844 3.5792665481567382812 3.7379069328308105469 3.9073321819305419922 4.085033416748046875 4.2664656639099121094 4.443889617919921875 4.6055078506469726562 4.7353687286376953125 4.8148026466369628906 4.8255000114440917969 4.7753038406372070312 4.69466400146484375 4.6034374237060546875 4.5126323699951171875 4.4236001968383789062 4.5046925544738769531 4.5731253623962402344 4.6371283531188964844 4.7176327705383300781 4.8097620010375976562 4.9070668220520019531 5.0038018226623535156 5.0881853103637695312 5.1396684646606445312 5.1275496482849121094 5.0486054420471191406 4.9239401817321777344 4.7729120254516601562 4.610584259033203125 4.4471302032470703125 4.2885327339172363281 4.1377272605895996094 3.9957342147827148438 3.8625621795654296875 3.7378077507019042969 3.6209208965301513672 3.5111434459686279297 3.4072318077087402344 3.3076214790344238281 3.2139716148376464844 3.1471078395843505859 3.2264611721038818359 3.3336184024810791016 3.447917938232421875 3.5703794956207275391 3.7032651901245117188 3.8472065925598144531 4.0009646415710449219 4.1608858108520507812 4.3195095062255859375 4.4634838104248046875 4.5715565681457519531 4.6121859550476074219 4.5669422149658203125 4.4628915786743164062 4.3193445205688476562 4.1626048088073730469 4.0071778297424316406 3.8590786457061767578 3.7149214744567871094 3.5866620540618896484 3.5116326808929443359 3.6358907222747802734 3.7720408439636230469 3.9079668521881103516 4.0458550453186035156 4.1924228668212890625 4.3457655906677246094 4.4995198249816894531 4.6415562629699707031 4.7521033287048339844 4.8037858009338378906 4.7657146453857421875 4.6557149887084960938 4.5048241615295410156 4.3365650177001953125 4.166431427001953125 4.0031790733337402344 3.8507571220397949219 3.7100958824157714844 3.5804913043975830078 3.4605791568756103516 3.3489515781402587891 3.2443633079528808594 3.1458094120025634766 3.0493631362915039062 3.113178253173828125 3.1758642196655273438 3.2399308681488037109 3.3054592609405517578 3.3726129531860351562 3.4416017532348632812 3.5126821994781494141 3.5861568450927734375 3.6623721122741699219 3.741718292236328125 3.8246316909790039062 3.9116044044494628906 4.0031981468200683594 4.1000652313232421875 4.2029771804809570312 4.3128485679626464844 4.4307656288146972656 4.5579891204833984375 4.695919036865234375 4.84597015380859375 5.0092988014221191406 5.1862998008728027344 5.3757891654968261719 5.5738396644592285156 5.7722826004028320312 5.9571485519409179688 6.107677459716796875 6.1974158287048339844 6.1984648704528808594 6.1241822242736816406 6.0077109336853027344 5.8738393783569335938 5.7300620079040527344 5.5879521369934082031 5.4531207084655761719 5.3295502662658691406 5.2082815170288085938 5.0807776451110839844
3.5321624279022216797 3.4350669384002685547 3.3423240184783935547 3.255519866943359375 3.177288055419921875 3.1108567714691162109 3.0585348606109619141 3.0154850482940673828 3.0866858959197998047 3.1784625053405761719 3.2929625511169433594 3.4262361526489257812 3.5742862224578857422 3.7345659732818603516 3.9052052497863769531 4.0835680961608886719 4.2648954391479492188 4.441131591796875 4.6001124382019042969 4.7256526947021484375 4.7992701530456542969 4.8033504486083984375 4.7487740516662597656 4.6653265953063964844 4.5718364715576171875 4.4787449836730957031 4.3866391181945800781 4.4595403671264648438 4.5198054313659667969 4.5904440879821777344 4.6823835372924804688 4.7785067558288574219 4.8784356117248535156 4.977344512939453125 5.0643477439880371094 5.1197023391723632812 5.1124835014343261719 5.0373010635375976562 4.9152598381042480469 4.76586151123046875 4.6044445037841796875 4.4414730072021484375 4.2831625938415527344 4.1326007843017578125 3.9908852577209472656 3.8580410480499267578 3.733623504638671875 3.6169810295104980469 3.5071794986724853516 3.402721405029296875 3.3017404079437255859 3.2057802677154541016 3.1369588375091552734 3.2120771408081054688 3.3165018558502197266 3.4279079437255859375 3.5504631996154785156 3.6849215030670166016 3.8310151100158691406 3.9869272708892822266 4.1483139991760253906 4.306674957275390625 4.4470534324645996094 4.5458350181579589844 4.5692739486694335938 4.505645751953125 4.3827710151672363281 4.2302188873291015625 4.0644068717956542969 3.9063038825988769531 3.760166168212890625 3.6190009117126464844 3.4870541095733642578 3.559009552001953125 3.6750142574310302734 3.8022577762603759766 3.9359815120697021484 4.0761213302612304688 4.2237482070922851562 4.376781463623046875 4.5285334587097167969 4.6657805442810058594 4.766815185546875 4.8004860877990722656 4.7485628128051757812 4.6304140090942382812 4.4760456085205078125 4.3074469566345214844 4.1388683319091796875 3.9781858921051025391 3.8287472724914550781 3.6910266876220703125 3.5639047622680664062 3.4456489086151123047 3.3348653316497802734 3.2305462360382080078 3.1319909095764160156 3.0355222225189208984 3.1000680923461914062 3.1633915901184082031 3.2281196117401123047 3.2943549156188964844 3.3622620105743408203 3.43204498291015625 3.5039572715759277344 3.5783011913299560547 3.6554300785064697266 3.7357463836669921875 3.8197062015533447266 3.9078280925750732422 4.0007066726684570312 4.0990357398986816406 4.2036299705505371094 4.3154554367065429688 4.4356451034545898438 4.5654954910278320312 4.7064104080200195312 4.8597478866577148438 5.0265011787414550781 5.206722259521484375 5.3986043930053710938 5.5971722602844238281 5.79264068603515625 5.9687633514404296875 6.1019163131713867188 6.1613678932189941406 6.1329722404479980469 6.0386786460876464844 5.9081406593322753906 5.7632393836975097656 5.618801116943359375 5.4752864837646484375 5.3379120826721191406 5.2076940536499023438 5.0858464241027832031 4.9645376205444335938
3.5160303115844726562 3.4194555282592773438 3.3272862434387207031 3.2410237789154052734 3.1632220745086669922 3.0970704555511474609 3.0446693897247314453 3.0011615753173828125 3.073833465576171875 3.1674315929412841797 3.2839572429656982422 3.4193289279937744141 3.5694167613983154297 3.7315323352813720703 3.9036467075347900391 4.0829143524169921875 4.2642736434936523438 4.439258575439453125 4.595256805419921875 4.7158312797546386719 4.7828836441040039062 4.7801189422607421875 4.7220716476440429688 4.6368551254272460938 4.5416412353515625 4.4461512565612792969 4.3505015373229980469 4.4040064811706542969 4.4732685089111328125 4.5596098899841308594 4.6511006355285644531 4.7482914924621582031 4.8495340347290039062 4.9500174522399902344 5.0393052101135253906 5.0997142791748046875 5.09703826904296875 5.0253725051879882812 4.9058332443237304688 4.7580189704895019531 4.5975437164306640625 4.4351644515991210938 4.2773251533508300781 4.1272668838500976562 3.9861800670623779297 3.8541419506072998047 3.7307305335998535156 3.6152849197387695312 3.5068063735961914062 3.4035933017730712891 3.3031892776489257812 3.2055361270904541016 3.1277415752410888672 3.189182281494140625 3.2946295738220214844 3.3933594226837158203 3.5216128826141357422 3.6607530117034912109 3.8106820583343505859 3.9696254730224609375 4.1329894065856933594 4.2916011810302734375 4.4293541908264160156 4.5210375785827636719 4.5312948226928710938 4.4517168998718261719 4.3096699714660644531 4.1384897232055664062 3.9620385169982910156 3.7934155464172363281 3.6642332077026367188 3.5393548011779785156 3.4697697162628173828 3.5723857879638671875 3.6949841976165771484 3.82189178466796875 3.9547455310821533203 4.095066070556640625 4.2429747581481933594 4.3956317901611328125 4.5455040931701660156 4.6781830787658691406 4.77028656005859375 4.7885565757751464844 4.7200284004211425781 4.5941162109375 4.4372897148132324219 4.269496917724609375 4.1036128997802734375 3.9466862678527832031 3.8016040325164794922 3.6685156822204589844 3.5457882881164550781 3.4304563999176025391 3.3210709095001220703 3.2170152664184570312 3.1181309223175048828 3.0217275619506835938 3.0867452621459960938 3.1507127285003662109 3.2161841392517089844 3.2832083702087402344 3.3519175052642822266 3.4225001335144042969 3.4952051639556884766 3.5703406333923339844 3.6482706069946289062 3.7294158935546875 3.8142554759979248047 3.9033362865447998047 3.9972863197326660156 4.0968365669250488281 4.2028441429138183594 4.3163180351257324219 4.4384303092956542969 4.57050323486328125 4.7139348983764648438 4.8700137138366699219 5.0395483970642089844 5.2222170829772949219 5.4155426025390625 5.6134538650512695312 5.8045396804809570312 5.9704031944274902344 6.0850391387939453125 6.1155900955200195312 6.0584621429443359375 5.9500284194946289062 5.8086872100830078125 5.6565198898315429688 5.5067191123962402344 5.36644744873046875 5.2313189506530761719 5.1017818450927734375 4.9748129844665527344 4.8522500991821289062
3.5045766830444335938 3.4079601764678955078 3.315876007080078125 3.2298107147216796875 3.1521761417388916016 3.0858170986175537109 3.0321445465087890625 2.9867913722991943359 3.0616011619567871094 3.1575171947479248047 3.2763917446136474609 3.4140536785125732422 3.5663061141967773438 3.7303659915924072266 3.9040541648864746094 4.0842823982238769531 4.2656121253967285156 4.4390535354614257812 4.5913858413696289062 4.7057161331176757812 4.7643079757690429688 4.7536177635192871094 4.6931905746459960938 4.6084265708923339844 4.5132050514221191406 4.4157004356384277344 4.3161816596984863281 4.3835740089416503906 4.454608917236328125 4.5357050895690917969 4.6256451606750488281 4.7229413986206054688 4.8253002166748046875 4.9274911880493164062 5.0187230110168457031 5.0799398422241210938 5.0808887481689453125 5.01248931884765625 4.8952426910400390625 4.7488532066345214844 4.5892467498779296875 4.427463531494140625 4.2701525688171386719 4.1206898689270019531 3.9803647994995117188 3.8493540287017822266 3.7273805141448974609 3.6140282154083251953 3.5087170600891113281 3.4104216098785400391 3.3174452781677246094 3.2280147075653076172 3.1481730937957763672 3.1072924137115478516 3.2110383510589599609 3.3476376533508300781 3.4879574775695800781 3.6342897415161132812 3.7888505458831787109 3.9509954452514648438 4.1163630485534667969 4.2754983901977539062 4.4116740226745605469 4.4989094734191894531 4.5012354850769042969 4.4123883247375488281 4.2714443206787109375 4.1034426689147949219 3.9257185459136962891 3.7469751834869384766 3.568492889404296875 3.4521191120147705078 3.5015523433685302734 3.6008629798889160156 3.7130606174468994141 3.83382415771484375 3.9638741016387939453 4.1034197807312011719 4.2513813972473144531 4.4038839340209960938 4.5524020195007324219 4.6814045906066894531 4.7662110328674316406 4.7720842361450195312 4.6903462409973144531 4.5580186843872070312 4.3989386558532714844 4.231536865234375 4.0676693916320800781 3.9138786792755126953 3.7730333805084228516 3.6457238197326660156 3.5306375026702880859 3.4202470779418945312 3.312976837158203125 3.2087845802307128906 3.1076271533966064453 3.0079755783081054688 3.0738215446472167969 3.1387839317321777344 3.2052786350250244141 3.2732670307159423828 3.3428549766540527344 3.4142346382141113281 3.4876699447631835938 3.5634894371032714844 3.64208221435546875 3.7238965034484863281 3.8094427585601806641 3.8993022441864013672 3.9941396713256835938 4.0947246551513671875 4.2019548416137695312 4.3168783187866210938 4.4407019615173339844 4.5747685432434082031 4.720462799072265625 4.8789944648742675781 5.0509767532348632812 5.2356967926025390625 5.4299840927124023438 5.6266531944274902344 5.812679290771484375 5.967662811279296875 6.0637683868408203125 6.0675082206726074219 5.986606597900390625 5.8576135635375976562 5.7090673446655273438 5.5514678955078125 5.3991069793701171875 5.2583408355712890625 5.1299109458923339844 5.0060105323791503906 4.8842272758483886719 4.7573957443237304688
3.4964454174041748047 3.3988959789276123047 3.3060126304626464844 3.2195801734924316406 3.1423866748809814453 3.0772206783294677734 3.0210673809051513672 2.9721860885620117188 3.0508821010589599609 3.1504640579223632812 3.2726106643676757812 3.4130909442901611328 3.5677900314331054688 3.7339725494384765625 3.9093799591064453125 4.0906696319580078125 4.271938323974609375 4.4435000419616699219 4.591228485107421875 4.6972017288208007812 4.7420735359191894531 4.7210440635681152344 4.6582894325256347656 4.5803408622741699219 4.4898657798767089844 4.3905358314514160156 4.2813496589660644531 4.3636007308959960938 4.4353418350219726562 4.507587432861328125 4.5981416702270507812 4.6960935592651367188 4.799472808837890625 4.9030332565307617188 4.9960165023803710938 5.0594315528869628906 5.0638194084167480469 4.9983301162719726562 4.8830242156982421875 4.7377643585205078125 4.5788397789001464844 4.4175486564636230469 4.260684967041015625 4.1116948127746582031 3.9719052314758300781 3.8415482044219970703 3.7204840183258056641 3.6085863113403320312 3.5057637691497802734 3.411724090576171875 3.3251235485076904297 3.2382264137268066406 3.1522240638732910156 3.0886948108673095703 3.1893153190612792969 3.3231558799743652344 3.4650409221649169922 3.6137642860412597656 3.7706408500671386719 3.9346902370452880859 4.1013336181640625 4.2608499526977539062 4.3962230682373046875 4.4814095497131347656 4.4813327789306640625 4.3941144943237304688 4.25397491455078125 4.0868921279907226562 3.9100213050842285156 3.7329254150390625 3.5617423057556152344 3.4417276382446289062 3.5002260208129882812 3.6006636619567871094 3.7119600772857666016 3.8299443721771240234 3.9593651294708251953 4.0996999740600585938 4.2488722801208496094 4.4021921157836914062 4.55036163330078125 4.6770462989807128906 4.7569036483764648438 4.7553343772888183594 4.6700119972229003906 4.5335559844970703125 4.3716859817504882812 4.2027173042297363281 4.0381360054016113281 3.8842597007751464844 3.7441744804382324219 3.6193327903747558594 3.5255312919616699219 3.4240539073944091797 3.3211233615875244141 3.2186942100524902344 3.1127572059631347656 2.9940524101257324219 3.0622563362121582031 3.1290788650512695312 3.1969978809356689453 3.26604461669921875 3.3364419937133789062 3.4084687232971191406 3.48244476318359375 3.5587391853332519531 3.6377778053283691406 3.7200469970703125 3.8060972690582275391 3.8965506553649902344 3.9921123981475830078 4.0935912132263183594 4.201923370361328125 4.3181934356689453125 4.4436383247375488281 4.5796151161193847656 4.7274909019470214844 4.8883929252624511719 5.0627346038818359375 5.2494082450866699219 5.4445447921752929688 5.6398291587829589844 5.8205952644348144531 5.9643950462341308594 6.0417680740356445312 6.0205454826354980469 5.9182076454162597656 5.7717084884643554688 5.6084628105163574219 5.4472374916076660156 5.291988372802734375 5.1533570289611816406 5.0291695594787597656 4.9133358001708984375 4.8018178939819335938 4.6934633255004882812
3.4924216270446777344 3.3926160335540771484 3.2969090938568115234 3.2074306011199951172 3.1275892257690429688 3.0782797336578369141 3.0234100818634033203 2.9571249485015869141 3.0409553050994873047 3.1448380947113037109 3.2701029777526855469 3.4127001762390136719 3.5689046382904052734 3.7362005710601806641 3.9122955799102783203 4.09357452392578125 4.2736363410949707031 4.4420957565307617188 4.583995819091796875 4.680606842041015625 4.7118878364562988281 4.6785993576049804688 4.6124777793884277344 4.529720306396484375 4.4447836875915527344 4.3551025390625 4.2442264556884765625 4.3242707252502441406 4.38761138916015625 4.4768805503845214844 4.5698695182800292969 4.669483184814453125 4.7742390632629394531 4.8791141510009765625 4.9735140800476074219 5.0386385917663574219 5.0453577041625976562 4.9820156097412109375 4.8679513931274414062 4.7234148979187011719 4.56497955322265625 4.4041128158569335938 4.2476601600646972656 4.0990304946899414062 3.9594457149505615234 3.8290052413940429688 3.707492828369140625 3.5948975086212158203 3.491550445556640625 3.3979015350341796875 3.3328261375427246094 3.2534976005554199219 3.1614351272583007812 3.0772621631622314453 3.1774106025695800781 3.3106739521026611328 3.4523122310638427734 3.6011810302734375 3.7584271430969238281 3.92287445068359375 4.0897498130798339844 4.249149322509765625 4.383945465087890625 4.4682283401489257812 4.4676222801208496094 4.3813338279724121094 4.2428712844848632812 4.0781064033508300781 3.9041817188262939453 3.7303917407989501953 3.5617609024047851562 3.4393751621246337891 3.4709041118621826172 3.5834176540374755859 3.6977198123931884766 3.8050088882446289062 3.9392948150634765625 4.0837531089782714844 4.236209869384765625 4.3917279243469238281 4.5406975746154785156 4.6663885116577148438 4.7431650161743164062 4.7365565299987792969 4.6473188400268554688 4.5076284408569335938 4.3432478904724121094 4.1722240447998046875 4.0055432319641113281 3.8488342761993408203 3.7041268348693847656 3.5710980892181396484 3.4536535739898681641 3.3627541065216064453 3.2614839076995849609 3.16226959228515625 3.0749075412750244141 2.979278564453125 3.0552990436553955078 3.1250069141387939453 3.1940150260925292969 3.2635331153869628906 3.3342061042785644531 3.4064393043518066406 3.4805817604064941406 3.5570197105407714844 3.6362102031707763672 3.7186825275421142578 3.8050343990325927734 3.8959338665008544922 3.9921283721923828125 4.0944643020629882812 4.2039122581481933594 4.3215870857238769531 4.4487528800964355469 4.5867791175842285156 4.7370147705078125 4.9005064964294433594 5.0774750709533691406 5.2664251327514648438 5.4627943038940429688 5.657123565673828125 5.832988739013671875 5.9654636383056640625 6.0210256576538085938 5.9772119522094726562 5.8543729782104492188 5.6907606124877929688 5.5142979621887207031 5.3419933319091796875 5.1824731826782226562 5.0382533073425292969 4.9328908920288085938 4.8184256553649902344 4.7140216827392578125 4.6204357147216796875
3.4960353374481201172 3.3934242725372314453 3.2928252220153808594 3.1953730583190917969 3.1040706634521484375 3.0245299339294433594 2.9840536117553710938 2.9404802322387695312 3.0353083610534667969 3.1443994045257568359 3.2721211910247802734 3.4157588481903076172 3.5724039077758789062 3.7398946285247802734 3.9158947467803955078 4.0964426994323730469 4.2745490074157714844 4.4390459060668945312 4.5741515159606933594 4.660549163818359375 4.6780486106872558594 4.6336016654968261719 4.5583848953247070312 4.4739894866943359375 4.3876714706420898438 4.3045878410339355469 4.2075495719909667969 4.273632049560546875 4.3595142364501953125 4.4482159614562988281 4.5430402755737304688 4.6443285942077636719 4.7504405975341796875 4.8564372062683105469 4.9517536163330078125 5.0175275802612304688 5.0247621536254882812 4.9644131660461425781 4.850467681884765625 4.7059216499328613281 4.54763031005859375 4.3870739936828613281 4.2310719490051269531 4.0829291343688964844 3.9436192512512207031 3.8127906322479248047 3.6895859241485595703 3.5734703540802001953 3.4639570713043212891 3.3599102497100830078 3.2668671607971191406 3.2006247043609619141 3.1184854507446289062 3.0647776126861572266 3.1760737895965576172 3.3096873760223388672 3.4495434761047363281 3.5966789722442626953 3.7526266574859619141 3.9161138534545898438 4.0822048187255859375 4.2408728599548339844 4.374958038330078125 4.4587154388427734375 4.4582743644714355469 4.3731980323791503906 4.2368445396423339844 4.075260162353515625 3.9062700271606445312 3.7410781383514404297 3.586650848388671875 3.4488496780395507812 3.3978323936462402344 3.4866223335266113281 3.6169316768646240234 3.7613759040832519531 3.9073326587677001953 4.0590891838073730469 4.2162890434265136719 4.3748083114624023438 4.5252423286437988281 4.6508340835571289062 4.7259540557861328125 4.7163310050964355469 4.6244945526123046875 4.4825754165649414062 4.3162355422973632812 4.1432924270629882812 3.9743762016296386719 3.8146185874938964844 3.6652796268463134766 3.5248277187347412109 3.3883810043334960938 3.2685298919677734375 3.1607389450073242188 3.0582184791564941406 2.9569935798645019531 3.0124959945678710938 3.0689997673034667969 3.1311430931091308594 3.1966145038604736328 3.2645001411437988281 3.3343987464904785156 3.4061822891235351562 3.4799435138702392578 3.5560069084167480469 3.6348583698272705078 3.7170855998992919922 3.8033442497253417969 3.8943445682525634766 3.9908628463745117188 4.0937623977661132812 4.2040228843688964844 4.3227634429931640625 4.4512434005737304688 4.5908141136169433594 4.7427754402160644531 4.9080710411071777344 5.0867199897766113281 5.276874542236328125 5.4733948707580566406 5.6659412384033203125 5.8368477821350097656 5.9596505165100097656 5.9993681907653808594 5.9380316734313964844 5.811614990234375 5.6518373489379882812 5.4812989234924316406 5.3132386207580566406 5.1532163619995117188 5.0005331039428710938 4.8454914093017578125 4.7235517501831054688 4.6186976432800292969 4.5461649894714355469
3.5178425312042236328 3.4157073497772216797 3.3139863014221191406 3.2110025882720947266 3.1031415462493896484 2.9905722141265869141 2.913837432861328125 2.9695692062377929688 3.0481483936309814453 3.1530976295471191406 3.2793400287628173828 3.4221472740173339844 3.5782070159912109375 3.7452611923217773438 3.9207296371459960938 4.1001849174499511719 4.2759447097778320312 4.4359612464904785156 4.563568115234375 4.6390228271484375 4.6425604820251464844 4.5871186256408691406 4.5033698081970214844 4.4121127128601074219 4.3268990516662597656 4.2521300315856933594 4.1729998588562011719 4.2513461112976074219 4.3338303565979003906 4.4230446815490722656 4.5189690589904785156 4.6213655471801757812 4.7284531593322753906 4.8352122306823730469 4.9309573173522949219 4.9965715408325195312 5.002124786376953125 4.935016632080078125 4.819793701171875 4.6753888130187988281 4.5178842544555664062 4.3585233688354492188 4.2040686607360839844 4.0578145980834960938 3.9206151962280273438 3.7915842533111572266 3.6683070659637451172 3.5497651100158691406 3.4351341724395751953 3.3226442337036132812 3.2089569568634033203 3.1105899810791015625 3.0391716957092285156 3.0982842445373535156 3.2029209136962890625 3.3242654800415039062 3.4561722278594970703 3.5988285541534423828 3.7520384788513183594 3.9136121273040771484 4.0782132148742675781 4.2356648445129394531 4.368804931640625 4.4520368576049804688 4.4518322944641113281 4.3677983283996582031 4.2330780029296875 4.0735640525817871094 3.9068956375122070312 3.7436580657958984375 3.5897817611694335938 3.4488537311553955078 3.3513576984405517578 3.4494800567626953125 3.5848789215087890625 3.7281885147094726562 3.8777086734771728516 4.0333547592163085938 4.19377899169921875 4.3545293807983398438 4.5060915946960449219 4.6317420005798339844 4.7060918807983398438 4.6953897476196289062 4.6026644706726074219 4.4598674774169921875 4.2925734519958496094 4.1185717582702636719 3.9485137462615966797 3.7876741886138916016 3.6377978324890136719 3.4987170696258544922 3.3699214458465576172 3.2521727085113525391 3.1431725025177001953 3.0404922962188720703 2.9394478797912597656 3.0066518783569335938 3.0675189495086669922 3.1313033103942871094 3.1975502967834472656 3.2658622264862060547 3.335887908935546875 3.4074029922485351562 3.4804871082305908203 3.5557036399841308594 3.6337571144104003906 3.7153763771057128906 3.801288604736328125 3.8922300338745117188 3.9889736175537109375 4.0923657417297363281 4.2033629417419433594 4.3230581283569335938 4.4526805877685546875 4.5935382843017578125 4.7468600273132324219 4.9134707450866699219 5.0931935310363769531 5.2838740348815917969 5.4799218177795410156 5.6703882217407226562 5.8368825912475585938 5.9522452354431152344 5.9809298515319824219 5.9085760116577148438 5.7791447639465332031 5.6205816268920898438 5.4528117179870605469 5.2875719070434570312 5.1304869651794433594 4.9831981658935546875 4.8458395004272460938 4.7205905914306640625 4.604831695556640625 4.5188231468200683594
3.450992584228515625 3.3511278629302978516 3.2535028457641601562 3.1584849357604980469 3.0690405368804931641 2.9818818569183349609 2.8953120708465576172 2.9650576114654541016 3.0494697093963623047 3.1572058200836181641 3.2846353054046630859 3.4277513027191162109 3.5837900638580322266 3.7507174015045166016 3.9258296489715576172 4.1042833328247070312 4.2777099609375 4.4331340789794921875 4.552913665771484375 4.6170330047607421875 4.606868743896484375 4.5408449172973632812 4.4484467506408691406 4.3500585556030273438 4.2577586174011230469 4.1831760406494140625 4.1407485008239746094 4.2267880439758300781 4.3114752769470214844 4.4013414382934570312 4.4977107048034667969 4.600612640380859375 4.7082114219665527344 4.8153195381164550781 4.9110279083251953125 4.9760136604309082031 4.9807963371276855469 4.9175958633422851562 4.8015470504760742188 4.6558246612548828125 4.4971194267272949219 4.3369231224060058594 4.1823105812072753906 4.037090301513671875 3.9029593467712402344 3.7797250747680664062 3.6598162651062011719 3.5422751903533935547 3.4276752471923828125 3.3157904148101806641 3.2059082984924316406 3.1012637615203857422 3.0225913524627685547 3.1021678447723388672 3.2121617794036865234 3.3324353694915771484 3.4621365070343017578 3.6026184558868408203 3.7538545131683349609 3.9136307239532470703 4.076610565185546875 4.2326588630676269531 4.3647017478942871094 4.4472942352294921875 4.4471335411071777344 4.3637633323669433594 4.2299723625183105469 4.0712819099426269531 3.904872894287109375 3.7406048774719238281 3.5831778049468994141 3.4353673458099365234 3.3298621177673339844 3.4230661392211914062 3.5574223995208740234 3.7012705802917480469 3.8523399829864501953 4.0097994804382324219 4.1716847419738769531 4.3332157135009765625 4.4847955703735351562 4.6098871231079101562 4.6836833953857421875 4.6739950180053710938 4.5824718475341796875 4.4404387474060058594 4.273406982421875 4.0993275642395019531 3.9290814399719238281 3.7681984901428222656 3.6187162399291992188 3.4807338714599609375 3.3535363674163818359 3.2361924648284912109 3.1271045207977294922 3.0248484611511230469 2.9253809452056884766 2.9938080310821533203 3.0609428882598876953 3.1292219161987304688 3.1985566616058349609 3.2687737941741943359 3.3395400047302246094 3.4105007648468017578 3.4818773269653320312 3.5553884506225585938 3.6321439743041992188 3.7129719257354736328 3.7985687255859375 3.8895993232727050781 3.9867599010467529297 4.0908298492431640625 4.2027072906494140625 4.3234372138977050781 4.4541978836059570312 4.5962371826171875 4.7507014274597167969 4.9182868003845214844 5.0986309051513671875 5.2893161773681640625 5.4844107627868652344 5.6725759506225585938 5.8350811004638671875 5.9447455406188964844 5.9669241905212402344 5.89316558837890625 5.7625689506530761719 5.6040987968444824219 5.4371218681335449219 5.27294921875 5.1172232627868652344 4.9718766212463378906 4.8363986015319824219 4.7091183662414550781 4.5892338752746582031 4.4995226860046386719
3.3271079063415527344 3.2303225994110107422 3.1389958858489990234 3.0553798675537109375 2.9825119972229003906 2.9231901168823242188 2.878635406494140625 2.9517786502838134766 3.0430166721343994141 3.1552457809448242188 3.2853586673736572266 3.4299886226654052734 3.5869207382202148438 3.7543733119964599609 3.9295847415924072266 4.1073775291442871094 4.2787714004516601562 4.4298892021179199219 4.5420737266540527344 4.5949587821960449219 4.5723071098327636719 4.4972319602966308594 4.3952617645263671875 4.2891907691955566406 4.1895437240600585938 4.0954694747924804688 4.1487879753112792969 4.2170076370239257812 4.2958278656005859375 4.3833131790161132812 4.4788570404052734375 4.5816292762756347656 4.6893239021301269531 4.7964115142822265625 4.8916683197021484375 4.9554371833801269531 4.9575262069702148438 4.8888096809387207031 4.7707796096801757812 4.623783111572265625 4.4640126228332519531 4.3028192520141601562 4.1473593711853027344 4.0019292831420898438 3.8692355155944824219 3.7689652442932128906 3.6586866378784179688 3.546176910400390625 3.435070037841796875 3.3267037868499755859 3.2191746234893798828 3.1065056324005126953 3.0117173194885253906 3.0984704494476318359 3.2137095928192138672 3.3363482952117919922 3.4664809703826904297 3.6063370704650878906 3.7563867568969726562 3.9147169589996337891 4.0761995315551757812 4.2308611869812011719 4.3617706298828125 4.4436368942260742188 4.4433236122131347656 4.3603363037109375 4.2270960807800292969 4.0687632560729980469 3.9021351337432861328 3.7366054058074951172 3.5762336254119873047 3.423175811767578125 3.31334686279296875 3.4008610248565673828 3.5343804359436035156 3.6798043251037597656 3.8322658538818359375 3.9903764724731445312 4.1520843505859375 4.3126325607299804688 4.4625716209411621094 4.585895538330078125 4.6569042205810546875 4.6517438888549804688 4.5641865730285644531 4.424831390380859375 4.2593102455139160156 4.0859851837158203125 3.9161329269409179688 3.7555723190307617188 3.6064970493316650391 3.4689989089965820312 3.3421370983123779297 3.2245640754699707031 3.1148266792297363281 3.01183319091796875 2.9117150306701660156 2.9869837760925292969 3.0603232383728027344 3.1331088542938232422 3.2054455280303955078 3.2772619724273681641 3.3478655815124511719 3.4160664081573486328 3.4822490215301513672 3.5527324676513671875 3.6281538009643554688 3.7086937427520751953 3.7946457862854003906 3.8864238262176513672 3.9845705032348632812 4.0897679328918457031 4.2028517723083496094 4.3248171806335449219 4.4567937850952148438 4.5999684333801269531 4.7553954124450683594 4.9236440658569335938 5.1041722297668457031 5.2943358421325683594 5.4879479408264160156 5.6734385490417480469 5.8319811820983886719 5.9366221427917480469 5.9534516334533691406 5.8770842552185058594 5.7454395294189453125 5.5869565010070800781 5.4204945564270019531 5.2570042610168457031 5.1019496917724609375 4.9571218490600585938 4.8216552734375 4.6931810379028320312 4.5715231895446777344 4.4801006317138671875
3.3083860874176025391 3.2124283313751220703 3.1220870018005371094 3.0398709774017333984 2.9691350460052490234 2.9125540256500244141 2.8648965358734130859 2.9403064250946044922 3.0347974300384521484 3.1501629352569580078 3.2827825546264648438 3.42931365966796875 3.5877058506011962891 3.75624847412109375 3.9320797920227050781 4.1097202301025390625 4.27965545654296875 4.4272022247314453125 4.5325040817260742188 4.5727992057800292969 4.5400662422180175781 4.4579782485961914062 4.3581981658935546875 4.2553439140319824219 4.1573204994201660156 4.0597662925720214844 4.1265268325805664062 4.198024749755859375 4.2773795127868652344 4.3649201393127441406 4.4605665206909179688 4.5635027885437011719 4.6712660789489746094 4.7781124114990234375 4.8725752830505371094 4.934688568115234375 4.9336533546447753906 4.8594331741333007812 4.7388887405395507812 4.5900516510009765625 4.4283795356750488281 4.2647380828857421875 4.1057348251342773438 3.9547669887542724609 3.8129794597625732422 3.6877934932708740234 3.5893199443817138672 3.4788031578063964844 3.3696455955505371094 3.2638759613037109375 3.1619250774383544922 3.0664410591125488281 2.9995648860931396484 3.0993483066558837891 3.2179028987884521484 3.3411300182342529297 3.4709041118621826172 3.6099331378936767578 3.7588467597961425781 3.9158594608306884766 4.0759758949279785156 4.2293500900268554688 4.3591761589050292969 4.4402995109558105469 4.439731597900390625 4.357021331787109375 4.2243337631225585938 4.0666489601135253906 3.9006636142730712891 3.7356541156768798828 3.5751848220825195312 3.4203310012817382812 3.3026745319366455078 3.3643143177032470703 3.5101981163024902344 3.6594839096069335938 3.8124740123748779297 3.9679367542266845703 4.1253204345703125 4.2803406715393066406 4.4241170883178710938 4.5413575172424316406 4.6221337318420410156 4.6279702186584472656 4.5481042861938476562 4.413555145263671875 4.2507061958312988281 4.0787472724914550781 3.9095926284790039062 3.7494525909423828125 3.6006901264190673828 3.4633808135986328125 3.3364171981811523438 3.2181947231292724609 3.1070299148559570312 3.0016229152679443359 2.8977222442626953125 3.0020284652709960938 3.0812451839447021484 3.1552376747131347656 3.2278454303741455078 3.2990331649780273438 3.3665690422058105469 3.4261798858642578125 3.4708423614501953125 3.5419404506683349609 3.6189289093017578125 3.7014701366424560547 3.7894837856292724609 3.8832390308380126953 3.9832308292388916016 4.0901317596435546875 4.2047777175903320312 4.328155517578125 4.4613714218139648438 4.6055574417114257812 4.7616801261901855469 4.9301748275756835938 5.1103262901306152344 5.2992906570434570312 5.490692138671875 5.6728563308715820312 5.8270812034606933594 5.9269275665283203125 5.9392180442810058594 5.860675811767578125 5.7282629013061523438 5.5697579383850097656 5.4035658836364746094 5.2403736114501953125 5.0854949951171875 4.9406151771545410156 4.8047637939453125 4.6755280494689941406 4.5529398918151855469 4.4604372978210449219
3.2923414707183837891 3.1972234249114990234 3.1076803207397460938 3.0261530876159667969 2.9559617042541503906 2.8996407985687255859 2.8513197898864746094 2.9277536869049072266 3.0237030982971191406 3.1406550407409667969 3.2747511863708496094 3.4225573539733886719 3.5819826126098632812 3.7512481212615966797 3.9273502826690673828 4.1045660972595214844 4.2730245590209960938 4.4175992012023925781 4.5179643630981445312 4.5508065223693847656 4.5098819732666015625 4.4269165992736816406 4.3268332481384277344 4.2240681648254394531 4.1258482933044433594 4.0278987884521484375 4.0999765396118164062 4.175018310546875 4.2568259239196777344 4.346019744873046875 4.4427614212036132812 4.5463104248046875 4.6541728973388671875 4.7605228424072265625 4.8537507057189941406 4.9137110710144042969 4.9107837677001953125 4.8373270034790039062 4.7154407501220703125 4.5647187232971191406 4.4006361961364746094 4.2338614463806152344 4.0706810951232910156 3.9138453006744384766 3.763233184814453125 3.6148266792297363281 3.4850008487701416016 3.3684411048889160156 3.2580215930938720703 3.1522953510284423828 3.0533347129821777344 2.9750344753265380859 3.0293576717376708984 3.123958587646484375 3.2322797775268554688 3.3491997718811035156 3.4757397174835205078 3.6128919124603271484 3.7604017257690429688 3.9161481857299804688 4.0750584602355957031 4.2273130416870117188 4.3561778068542480469 4.4366006851196289062 4.4357285499572753906 4.3532357215881347656 4.2211556434631347656 4.0645041465759277344 3.9002957344055175781 3.7386448383331298828 3.5851981639862060547 3.4432952404022216797 3.3169577121734619141 3.2655112743377685547 3.4171924591064453125 3.5756306648254394531 3.7279417514801025391 3.8834018707275390625 4.0421223640441894531 4.2006506919860839844 4.3492784500122070312 4.4861674308776855469 4.5820145606994628906 4.6035947799682617188 4.5352010726928710938 4.4074730873107910156 4.248180389404296875 4.0778975486755371094 3.9094965457916259766 3.7497496604919433594 3.6012938022613525391 3.4642860889434814453 3.3375627994537353516 3.2193057537078857422 3.1072299480438232422 2.9982390403747558594 2.8823640346527099609 2.9629635810852050781 3.0324008464813232422 3.1053028106689453125 3.1784217357635498047 3.2510633468627929688 3.3195219039916992188 3.3671879768371582031 3.440013885498046875 3.5212628841400146484 3.6054205894470214844 3.6931610107421875 3.7851045131683349609 3.8819298744201660156 3.9843831062316894531 4.0932946205139160156 4.2095942497253417969 4.3343114852905273438 4.4685487747192382812 4.6133890151977539062 4.7696995735168457031 4.9377703666687011719 5.1167092323303222656 5.3034906387329101562 5.4916143417358398438 5.6694436073303222656 5.8186626434326171875 5.9138770103454589844 5.9229092597961425781 5.8433165550231933594 5.710811614990234375 5.5525040626525878906 5.3865022659301757812 5.2233819961547851562 5.0684227943420410156 4.9232954978942871094 4.7870311737060546875 4.6572484970092773438 4.5340485572814941406 4.4407205581665039062
3.2783486843109130859 3.1837360858917236328 3.0945904254913330078 3.0132691860198974609 2.9430584907531738281 2.88652801513671875 2.8377511501312255859 2.9148066043853759766 3.0115427970886230469 3.129413604736328125 3.2644796371459960938 3.4132320880889892578 3.5735020637512207031 3.7434070110321044922 3.9197907447814941406 4.096714019775390625 4.2640314102172851562 4.4063181877136230469 4.5030093193054199219 4.5306367874145507812 4.4850406646728515625 4.3997378349304199219 4.2982454299926757812 4.1943836212158203125 4.0951681137084960938 3.9962546825408935547 4.0733923912048339844 4.1524152755737304688 4.237552642822265625 4.3292608261108398438 4.4276204109191894531 4.5318880081176757812 4.6395821571350097656 4.7449183464050292969 4.8362951278686523438 4.891895294189453125 4.8886847496032714844 4.8160843849182128906 4.6944289207458496094 4.5430936813354492188 4.3776888847351074219 4.2091302871704101562 4.0440621376037597656 3.8859336376190185547 3.7362794876098632812 3.5961842536926269531 3.4679348468780517578 3.3497762680053710938 3.2390017509460449219 3.1331827640533447266 3.0329182147979736328 2.9574763774871826172 3.0303196907043457031 3.1293916702270507812 3.2366633415222167969 3.351902008056640625 3.4770765304565429688 3.6131689548492431641 3.7597613334655761719 3.9146306514739990234 4.0726718902587890625 4.2240781784057617188 4.3521637916564941406 4.4319601058959960938 4.4307198524475097656 4.3482699394226074219 4.2165226936340332031 4.0604696273803710938 3.8972015380859375 3.7369050979614257812 3.5849556922912597656 3.4439766407012939453 3.3143084049224853516 3.2189013957977294922 3.3199527263641357422 3.4589095115661621094 3.6090416908264160156 3.7669699192047119141 3.9319388866424560547 4.101856231689453125 4.2727146148681640625 4.4289112091064453125 4.5399336814880371094 4.5791478157043457031 4.5281462669372558594 4.4088411331176757812 4.2533726692199707031 4.0845184326171875 3.9164826869964599609 3.7567870616912841797 3.6084675788879394531 3.4719140529632568359 3.3462092876434326172 3.2300496101379394531 3.1224544048309326172 3.0236113071441650391 2.9370877742767333984 2.8575963973999023438 2.9347066879272460938 3.0061781406402587891 3.0812132358551025391 3.1584866046905517578 3.2371020317077636719 3.3216698169708251953 3.4159703254699707031 3.5069699287414550781 3.5979170799255371094 3.6905314922332763672 3.7860825061798095703 3.8856353759765625 3.9901773929595947266 4.1006879806518554688 4.2181797027587890625 4.3437089920043945312 4.4783530235290527344 4.62311553955078125 4.7787318229675292969 4.9453167915344238281 5.1217808723449707031 5.3049421310424804688 5.4882903099060058594 5.6604089736938476562 5.8035693168640136719 5.8945574760437011719 5.9029388427734375 5.8244509696960449219 5.6930789947509765625 5.5354633331298828125 5.3697214126586914062 5.2065553665161132812 5.05135345458984375 4.9058585166931152344 4.7691440582275390625 4.638858795166015625 4.515117645263671875 4.4210476875305175781
3.2657628059387207031 3.1712572574615478516 3.0821211338043212891 3.0006649494171142578 2.9301807880401611328 2.8733429908752441406 2.8242175579071044922 2.9016950130462646484 2.9989178180694580078 3.1173741817474365234 3.2531080245971679688 3.4025697708129882812 3.5635247230529785156 3.7339920997619628906 3.9106762409210205078 4.0874524116516113281 4.2539534568786621094 4.3945341110229492188 4.4884409904479980469 4.5119738578796386719 4.4608664512634277344 4.3728709220886230469 4.2694835662841796875 4.1640138626098632812 4.063518524169921875 3.9642746448516845703 4.0464534759521484375 4.1298251152038574219 4.2181754112243652344 4.3117036819458007812 4.4101352691650390625 4.5129070281982421875 4.61775970458984375 4.7193598747253417969 4.8074932098388671875 4.8650636672973632812 4.8659381866455078125 4.7972249984741210938 4.6781072616577148438 4.52776336669921875 4.3622293472290039062 4.19295501708984375 4.0270943641662597656 3.8685796260833740234 3.7193400859832763672 3.5802967548370361328 3.4518313407897949219 3.3330090045928955078 3.2220373153686523438 3.1168246269226074219 3.0184161663055419922 2.9472110271453857422 3.0224473476409912109 3.1242365837097167969 3.2328550815582275391 3.3485403060913085938 3.4737727642059326172 3.6097581386566162109 3.7561407089233398438 3.9107007980346679688 4.0683221817016601562 4.2192049026489257812 4.346710205078125 4.4259533882141113281 4.4242706298828125 4.3416361808776855469 4.2097997665405273438 4.0536322593688964844 3.8901236057281494141 3.7292633056640625 3.5758800506591796875 3.4314899444580078125 3.2967576980590820312 3.1959376335144042969 3.2928328514099121094 3.4271748065948486328 3.5718057155609130859 3.7250194549560546875 3.8861446380615234375 4.0528554916381835938 4.2194142341613769531 4.373565673828125 4.4958896636962890625 4.5525507926940917969 4.5155668258666992188 4.4044146537780761719 4.2533507347106933594 4.0867757797241210938 3.9199719429016113281 3.7611048221588134766 3.6135575771331787109 3.47788238525390625 3.3531916141510009766 3.2380499839782714844 3.1309781074523925781 3.0306448936462402344 2.9357399940490722656 2.8410084247589111328 2.9181394577026367188 2.9978399276733398438 3.081089019775390625 3.16533660888671875 3.2498042583465576172 3.3355360031127929688 3.4240429401397705078 3.5141255855560302734 3.60573577880859375 3.6994647979736328125 3.7961308956146240234 3.8966310024261474609 4.0018911361694335938 4.1128602027893066406 4.2305154800415039062 4.3558545112609863281 4.4898586273193359375 4.6333894729614257812 4.7869915962219238281 4.9505476951599121094 5.12273406982421875 5.3002610206604003906 5.47679901123046875 5.6413774490356445312 5.7790021896362304688 5.8646883964538574219 5.8779392242431640625 5.8041691780090332031 5.6757864952087402344 5.5195703506469726562 5.3542013168334960938 5.1908469200134277344 5.0351862907409667969 4.8891124725341796875 4.7517681121826171875 4.6208186149597167969 4.4963812828063964844 4.4014782905578613281
3.2544353008270263672 3.1597113609313964844 3.0702812671661376953 2.988433837890625 2.9175062179565429688 2.8603043556213378906 2.8107430934906005859 2.8885381221771240234 2.9860930442810058594 3.1049501895904541016 3.2411634922027587891 3.3911614418029785156 3.5526599884033203125 3.7235975265502929688 3.9005615711212158203 4.07727813720703125 4.2432093620300292969 4.3825545310974121094 4.4745035171508789062 4.4955945014953613281 4.4439420700073242188 4.35363006591796875 4.2473559379577636719 4.1386990547180175781 4.0349068641662597656 3.9317972660064697266 4.0297913551330566406 4.11956024169921875 4.2113513946533203125 4.3034620285034179688 4.398487091064453125 4.4962987899780273438 4.5949621200561523438 4.68962860107421875 4.7705893516540527344 4.8312921524047851562 4.8405666351318359375 4.7797446250915527344 4.6659102439880371094 4.5183868408203125 4.353931427001953125 4.1847200393676757812 4.0184984207153320312 3.8595910072326660156 3.7100827693939208984 3.5707695484161376953 3.4416680335998535156 3.3220431804656982422 3.2104060649871826172 3.1048560142517089844 3.0068640708923339844 2.9386994838714599609 3.0122058391571044922 3.1147134304046630859 3.2240831851959228516 3.3403716087341308594 3.4661531448364257812 3.6026585102081298828 3.7494788169860839844 3.9043035507202148438 4.0619373321533203125 4.2125597000122070312 4.3396000862121582031 4.4183149337768554688 4.4161539077758789062 4.3332037925720214844 4.2009878158569335938 4.0442204475402832031 3.8798015117645263672 3.7176427841186523438 3.5624537467956542969 3.4156184196472167969 3.2780222892761230469 3.1755611896514892578 3.270721435546875 3.401966094970703125 3.5434498786926269531 3.6938290596008300781 3.8525948524475097656 4.0174651145935058594 4.1826796531677246094 4.3368268013000488281 4.4609966278076171875 4.5287952423095703125 4.5016751289367675781 4.3970499038696289062 4.2499942779541015625 4.08582305908203125 3.9205491542816162109 3.7628204822540283203 3.6162970066070556641 3.4816536903381347656 3.3579957485198974609 3.2437205314636230469 3.1369063854217529297 3.0352382659912109375 2.9354252815246582031 2.8270592689514160156 2.9132013320922851562 3.0057437419891357422 3.1030638217926025391 3.193576812744140625 3.2798366546630859375 3.3648650646209716797 3.4506890773773193359 3.5379455089569091797 3.6271750926971435547 3.718994140625 3.8140921592712402344 3.9132039546966552734 4.0170941352844238281 4.1265544891357421875 4.2423992156982421875 4.3654460906982421875 4.4964599609375 4.6360368728637695312 4.7843999862670898438 4.9410648345947265625 5.1043701171875 5.2709164619445800781 5.4349870681762695312 5.5901827812194824219 5.7218379974365234375 5.820728302001953125 5.8476033210754394531 5.783756256103515625 5.6606783866882324219 5.5065813064575195312 5.3415684700012207031 5.1777200698852539062 5.0212106704711914062 4.87416839599609375 4.7358140945434570312 4.6038031578063964844 4.4782195091247558594 4.3820481300354003906
3.2422912120819091797 3.1472885608673095703 3.0575802326202392578 2.97545623779296875 2.9042766094207763672 2.8469231128692626953 2.7973504066467285156 2.8754322528839111328 2.9732389450073242188 3.09239959716796875 3.2289888858795166016 3.3794159889221191406 3.5413527488708496094 3.7126691341400146484 3.8898625373840332031 4.0665502548217773438 4.2320790290832519531 4.3705353736877441406 4.4610347747802734375 4.4800868034362792969 4.4266538619995117188 4.3340482711791992188 4.2248778343200683594 4.1126980781555175781 4.0049343109130859375 3.8977537155151367188 4.0033416748046875 4.0889058113098144531 4.1696863174438476562 4.2551178932189941406 4.3450727462768554688 4.439422607421875 4.5358719825744628906 4.6294064521789550781 4.7200608253479003906 4.7888135910034179688 4.8108754158020019531 4.7651801109313964844 4.6599073410034179688 4.5170216560363769531 4.3545928001403808594 4.1858096122741699219 4.0191645622253417969 3.8594653606414794922 3.7090282440185546875 3.5686829090118408203 3.4383983612060546875 3.3174688816070556641 3.2044262886047363281 3.0973529815673828125 2.9980599880218505859 2.9320480823516845703 3.0009481906890869141 3.1024789810180664062 3.2114415168762207031 3.3280799388885498047 3.4547705650329589844 3.5924427509307861328 3.7403745651245117188 3.8959877490997314453 4.0539145469665527344 4.2043085098266601562 4.3307604789733886719 4.4088344573974609375 4.4062476158142089844 4.3230829238891601562 4.1904850006103515625 4.0329756736755371094 3.8674311637878417969 3.7038342952728271484 3.54700469970703125 3.3984789848327636719 3.2594041824340820312 3.1557574272155761719 3.2519602775573730469 3.3830585479736328125 3.5236942768096923828 3.6730897426605224609 3.8310434818267822266 3.9954195022583007812 4.1605219841003417969 4.3151249885559082031 4.4405202865600585938 4.5096049308776855469 4.4879441261291503906 4.3878779411315917969 4.2440237998962402344 4.0819802284240722656 3.918170928955078125 3.7615783214569091797 3.6160929203033447266 3.4825439453125 3.3601732254028320312 3.2475924491882324219 3.1433844566345214844 3.0465528964996337891 2.9571282863616943359 2.8780663013458251953 2.8033511638641357422 2.9545328617095947266 3.06238555908203125 3.1530015468597412109 3.2369523048400878906 3.3190696239471435547 3.4016826152801513672 3.4858839511871337891 3.5723452568054199219 3.6616430282592773438 3.7543594837188720703 3.8511080741882324219 3.9525411128997802734 4.0593523979187011719 4.172275543212890625 4.2920675277709960938 4.4194622039794921875 4.5550689697265625 4.6991934776306152344 4.851531982421875 5.0107340812683105469 5.1739144325256347656 5.3390831947326660156 5.4989695549011230469 5.6527066230773925781 5.7677702903747558594 5.8119487762451171875 5.7667269706726074219 5.6512956619262695312 5.4996762275695800781 5.3346033096313476562 5.1695933341979980469 5.01154327392578125 4.8629031181335449219 4.7229704856872558594 4.5892767906188964844 4.4615573883056640625 4.3627457618713378906
3.2330121994018554688 3.1373882293701171875 3.0470407009124755859 2.9642522335052490234 2.8924036026000976562 2.8344159126281738281 2.7840263843536376953 2.8624205589294433594 2.9604778289794921875 3.0799386501312255859 3.2168915271759033203 3.3677151203155517578 3.530029296875 3.7016417980194091797 3.8789834976196289062 4.05561065673828125 4.2208209037780761719 4.3586668968200683594 4.4482283592224121094 4.4659175872802734375 4.4111204147338867188 4.3167548179626464844 4.2050766944885253906 4.089099884033203125 3.9753248691558837891 3.8623902797698974609 3.9530549049377441406 4.0229210853576660156 4.0977458953857421875 4.1786355972290039062 4.2668771743774414062 4.3611078262329101562 4.4586095809936523438 4.5627613067626953125 4.6613111495971679688 4.7370977401733398438 4.7748079299926757812 4.7453250885009765625 4.6511249542236328125 4.5151472091674804688 4.3564648628234863281 4.1892676353454589844 4.0228900909423828125 3.8627429008483886719 3.7115056514739990234 3.5701801776885986328 3.4387826919555664062 3.31658172607421875 3.2019989490509033203 3.0929710865020751953 2.9916951656341552734 2.9280288219451904297 2.9882025718688964844 3.08685302734375 3.1937119960784912109 3.3113086223602294922 3.4402248859405517578 3.5802912712097167969 3.7301912307739257812 3.8869807720184326172 4.0451169013977050781 4.1948161125183105469 4.3200650215148925781 4.3970880508422851562 4.39430999755859375 4.3114180564880371094 4.1788201332092285156 4.0207505226135253906 3.8541283607482910156 3.6891312599182128906 3.530803680419921875 3.3808856010437011719 3.2406947612762451172 3.1360464096069335938 3.2327060699462890625 3.3636922836303710938 3.5039496421813964844 3.6528289318084716797 3.810283660888671875 3.9743127822875976562 4.1393446922302246094 4.2943286895751953125 4.4207744598388671875 4.4918947219848632812 4.4740195274353027344 4.3772134780883789062 4.2357759475708007812 4.0753965377807617188 3.9127337932586669922 3.7569966316223144531 3.6122486591339111328 3.479442596435546875 3.3579061031341552734 3.2463080883026123047 3.143230438232421875 3.0474789142608642578 2.9582118988037109375 2.8751165866851806641 2.7840845584869384766 2.9017472267150878906 2.9917762279510498047 3.0721614360809326172 3.1499342918395996094 3.2278425693511962891 3.3071465492248535156 3.3885164260864257812 3.4724254608154296875 3.5593173503875732422 3.6496644020080566406 3.7439894676208496094 3.8428738117218017578 3.9469649791717529297 4.0569844245910644531 4.1737246513366699219 4.2980241775512695312 4.4307055473327636719 4.572437286376953125 4.7234807014465332031 4.8832139968872070312 5.05095672607421875 5.2236580848693847656 5.4066028594970703125 5.5773892402648925781 5.7067952156066894531 5.7727365493774414062 5.7436232566833496094 5.636196136474609375 5.4878072738647460938 5.323429107666015625 5.15789794921875 4.9988074302673339844 4.8489408493041992188 4.7077221870422363281 4.5726976394653320312 4.4435977935791015625 4.3434152603149414062
3.2231161594390869141 3.1268768310546875 3.0359296798706054688 2.9525477886199951172 2.8801059722900390625 2.8215525150299072266 2.7707190513610839844 2.8495352268218994141 2.947956085205078125 3.0678267478942871094 3.2052342891693115234 3.3564999103546142578 3.5191709995269775391 3.6909902095794677734 3.8683447837829589844 4.0447816848754882812 4.2096333503723144531 4.3470301628112792969 4.4361438751220703125 4.4534177780151367188 4.3983106613159179688 4.3035345077514648438 4.1911172866821289062 4.0734667778015136719 3.9550848007202148438 3.8277235031127929688 3.8756401538848876953 3.9353625774383544922 4.0049200057983398438 4.0863490104675292969 4.1767139434814453125 4.2736868858337402344 4.3819422721862792969 4.4935240745544433594 4.5973157882690429688 4.6850309371948242188 4.7361278533935546875 4.7235422134399414062 4.6424603462219238281 4.5153760910034179688 4.3618874549865722656 4.19715118408203125 4.0314569473266601562 3.8709783554077148438 3.7189209461212158203 3.5766134262084960938 3.4442667961120605469 3.321269989013671875 3.2060794830322265625 3.0964214801788330078 2.9937613010406494141 2.9261798858642578125 2.9658424854278564453 3.0691387653350830078 3.1649138927459716797 3.2892959117889404297 3.4241869449615478516 3.5687465667724609375 3.7214481830596923828 3.8792901039123535156 4.0367722511291503906 4.1843676567077636719 4.3069024085998535156 4.3818993568420410156 4.3796634674072265625 4.2982358932495117188 4.1665487289428710938 4.0084171295166015625 3.8409109115600585938 3.6745500564575195312 3.5147154331207275391 3.3634047508239746094 3.2221076488494873047 3.1165053844451904297 3.213405609130859375 3.3443264961242675781 3.4843966960906982422 3.6329970359802246094 3.7901601791381835938 3.9539840221405029297 4.119014739990234375 4.2743587493896484375 4.4017305374145507812 4.474590301513671875 4.45955657958984375 4.3651309013366699219 4.2254352569580078125 4.0661993026733398438 3.9042267799377441406 3.7488813400268554688 3.6043546199798583984 3.4716906547546386719 3.3502657413482666016 3.2387330532073974609 3.1355288028717041016 3.0390529632568359375 2.9475986957550048828 2.8591716289520263672 2.7687468528747558594 2.8262763023376464844 2.8910245895385742188 2.9601714611053466797 3.0322320461273193359 3.1067347526550292969 3.1836152076721191406 3.2629904747009277344 3.3450839519500732422 3.4302022457122802734 3.5187294483184814453 3.6111273765563964844 3.7079412937164306641 3.8098134994506835938 3.9175024032592773438 4.0319032669067382812 4.154056549072265625 4.2851266860961914062 4.4263453483581542969 4.57889556884765625 4.743793487548828125 4.921566009521484375 5.1133503913879394531 5.3113055229187011719 5.4991002082824707031 5.6532754898071289062 5.7360515594482421875 5.7197489738464355469 5.6192531585693359375 5.4739775657653808594 5.3105058670043945312 5.1447310447692871094 4.9848513603210449219 4.8339591026306152344 4.6916251182556152344 4.5554666519165039062 4.4252753257751464844 4.3242201805114746094
3.2134304046630859375 3.1165337562561035156 3.0249352455139160156 2.9408700466156005859 2.8676745891571044922 2.8085055351257324219 2.7574255466461181641 2.8368635177612304688 2.9359030723571777344 3.0564351081848144531 3.1945009231567382812 3.3463189601898193359 3.5093340873718261719 3.6812183856964111328 3.8583407402038574219 4.034297943115234375 4.1985554695129394531 4.33545684814453125 4.4244384765625 4.4421701431274414062 4.3878884315490722656 4.2943367958068847656 4.1840953826904296875 4.0710816383361816406 3.9634621143341064453 3.8688244819641113281 3.7729198932647705078 3.8287901878356933594 3.9035589694976806641 3.9907195568084716797 4.0858407020568847656 4.1934685707092285156 4.3087620735168457031 4.4244122505187988281 4.536865234375 4.6327362060546875 4.6949219703674316406 4.6995282173156738281 4.6341047286987304688 4.5182142257690429688 4.3715023994445800781 4.2101116180419921875 4.0454459190368652344 3.8846285343170166016 3.7315685749053955078 3.5880906581878662109 3.4548161029815673828 3.3316464424133300781 3.2178733348846435547 3.1122560501098632812 3.0141632556915283203 2.9302780628204345703 2.9059073925018310547 2.9935808181762695312 3.1286008358001708984 3.2689316272735595703 3.4135167598724365234 3.5636312961578369141 3.71866607666015625 3.8760776519775390625 4.03067779541015625 4.1732363700866699219 4.2903256416320800781 4.3599886894226074219 4.3608736991882324219 4.2834839820861816406 4.1543974876403808594 3.9970498085021972656 3.8289334774017333984 3.6611583232879638672 3.4996044635772705078 3.34661865234375 3.203922271728515625 3.0972132682800292969 3.1942064762115478516 3.3250548839569091797 3.4649927616119384766 3.6134002208709716797 3.7703568935394287109 3.9340372085571289062 4.0990891456604003906 4.25475311279296875 4.3829131126403808594 4.4572091102600097656 4.4443788528442382812 4.3517193794250488281 4.2132282257080078125 4.0546512603759765625 3.8928866386413574219 3.737407684326171875 3.5925073623657226562 3.4593191146850585938 3.3373110294342041016 3.2252418994903564453 3.1216764450073242188 3.0251390933990478516 2.9339466094970703125 2.8456523418426513672 2.7562587261199951172 2.8216965198516845703 2.8872530460357666016 2.9554462432861328125 3.0261201858520507812 3.0992054939270019531 3.1747231483459472656 3.2527873516082763672 3.3335976600646972656 3.4174320697784423828 3.5046408176422119141 3.5956454277038574219 3.690948486328125 3.7911589145660400391 3.8970370292663574219 4.009532928466796875 4.129791259765625 4.2591195106506347656 4.398921966552734375 4.5505661964416503906 4.7151389122009277344 4.8929538726806640625 5.0821046829223632812 5.2757482528686523438 5.4598970413208007812 5.6125731468200683594 5.7053556442260742188 5.6977300643920898438 5.60242462158203125 5.4597201347351074219 5.2971138954162597656 5.1312203407287597656 4.9706974029541015625 4.8188891410827636719 4.67549896240234375 4.5382366180419921875 4.4069981575012207031 4.3053083419799804688
3.2048904895782470703 3.1072459220886230469 3.0149004459381103516 2.9300706386566162109 2.8560767173767089844 2.7960932254791259766 2.7441830635070800781 2.8245954513549804688 2.9246919155120849609 3.0463025569915771484 3.1853199005126953125 3.3378019332885742188 3.5010683536529541016 3.6727297306060791016 3.84917449951171875 4.0241208076477050781 4.1872782707214355469 4.3233628273010253906 4.4122653007507324219 4.4310007095336914062 4.3781018257141113281 4.2860536575317382812 4.177585601806640625 4.0668964385986328125 3.9619271755218505859 3.8665816783905029297 3.7819197177886962891 3.7176949977874755859 3.80547332763671875 3.9010033607482910156 4.0062618255615234375 4.1200652122497558594 4.2399535179138183594 4.3623399734497070312 4.4802961349487304688 4.5790057182312011719 4.6489491462707519531 4.670780181884765625 4.6272501945495605469 4.5256795883178710938 4.3875536918640136719 4.2303452491760253906 4.0668492317199707031 3.9053697586059570312 3.7506837844848632812 3.6051819324493408203 3.4698374271392822266 3.3447964191436767578 3.2295355796813964844 3.1227688789367675781 3.0229463577270507812 2.9328432083129882812 2.8808345794677734375 2.9786832332611083984 3.1186211109161376953 3.2643449306488037109 3.4127440452575683594 3.5640873908996582031 3.7168602943420410156 3.8688776493072509766 4.0156183242797851562 4.14559173583984375 4.2503390312194824219 4.3247227668762207031 4.3358225822448730469 4.2674551010131835938 4.1436853408813476562 3.9882988929748535156 3.8198542594909667969 3.6504564285278320312 3.4867141246795654297 3.3314390182495117188 3.1866521835327148438 3.0782477855682373047 3.1751711368560791016 3.3059275150299072266 3.4457271099090576172 3.5939390659332275391 3.7506875991821289062 3.9142193794250488281 4.0792717933654785156 4.235195159912109375 4.3640122413635253906 4.4394998550415039062 4.4284558296203613281 4.3371706008911132812 4.1995196342468261719 4.0412411689758300781 3.8792877197265625 3.7232053279876708984 3.5773530006408691406 3.4429295063018798828 3.3194959163665771484 3.2059977054595947266 3.1014091968536376953 3.005176544189453125 2.9170243740081787109 2.8310410976409912109 2.7439212799072265625 2.8130943775177001953 2.8812358379364013672 2.9507794380187988281 3.021945953369140625 3.0949995517730712891 3.1701743602752685547 3.2477028369903564453 3.3278434276580810547 3.4108922481536865234 3.4971871376037597656 3.5871107578277587891 3.681110382080078125 3.7797520160675048828 3.8838186264038085938 3.9943952560424804688 4.1128125190734863281 4.2405724525451660156 4.379253387451171875 4.5303454399108886719 4.6949086189270019531 4.8728847503662109375 5.0617723464965820312 5.2546191215515136719 5.4379515647888183594 5.59033203125 5.6823787689208984375 5.6787090301513671875 5.586734771728515625 5.4459595680236816406 5.2841100692749023438 5.1181960105895996094 4.9571666717529296875 4.8045258522033691406 4.6600613594055175781 4.5215678215026855469 4.3890905380249023438 4.2868313789367675781
3.1950752735137939453 3.0968251228332519531 3.0038890838623046875 2.9184901714324951172 2.8439495563507080078 2.7834291458129882812 2.7308919429779052734 2.812976837158203125 2.9149081707000732422 3.0381877422332763672 3.1784307956695556641 3.3315224647521972656 3.4946935176849365234 3.6655411720275878906 3.8405323028564453125 4.0135955810546875 4.1748337745666503906 4.3095450401306152344 4.3982701301574707031 4.4185342788696289062 4.3673844337463378906 4.2765331268310546875 4.16861724853515625 4.0578794479370117188 3.9520668983459472656 3.8546264171600341797 3.7664682865142822266 3.6815941333770751953 3.7897341251373291016 3.8962731361389160156 4.0055727958679199219 4.1162748336791992188 4.2268505096435546875 4.3312811851501464844 4.4258732795715332031 4.5195689201354980469 4.5925378799438476562 4.6317963600158691406 4.6105103492736816406 4.5258421897888183594 4.398895263671875 4.2478966712951660156 4.0869364738464355469 3.9255876541137695312 3.7696096897125244141 3.6220309734344482422 3.4841592311859130859 3.3562514781951904297 3.2377345561981201172 3.1271169185638427734 3.0224711894989013672 2.9264430999755859375 2.8691236972808837891 2.9738848209381103516 3.1181042194366455078 3.2641048431396484375 3.4098057746887207031 3.5551891326904296875 3.6947753429412841797 3.8296105861663818359 3.9559121131896972656 4.0773487091064453125 4.1915006637573242188 4.2758002281188964844 4.3028879165649414062 4.2526478767395019531 4.137668609619140625 3.9854879379272460938 3.8167974948883056641 3.6452646255493164062 3.4785206317901611328 3.319934844970703125 3.1715664863586425781 3.0596642494201660156 3.1563549041748046875 3.2869946956634521484 3.4265880584716796875 3.5745146274566650391 3.7309782505035400391 3.8943085670471191406 4.0593152046203613281 4.2154307365417480469 4.3447909355163574219 4.4213037490844726562 4.4118394851684570312 4.3217716217041015625 4.1848244667053222656 4.0266923904418945312 3.8643567562103271484 3.7074027061462402344 3.5602054595947265625 3.4239380359649658203 3.2980895042419433594 3.1814861297607421875 3.0729653835296630859 2.9714453220367431641 2.8976016044616699219 2.8164494037628173828 2.7314553260803222656 2.80870819091796875 2.8800783157348632812 2.9510755538940429688 3.0229170322418212891 3.0962407588958740234 3.1714262962341308594 3.2487671375274658203 3.3285429477691650391 3.4110429286956787109 3.4965636730194091797 3.5854055881500244141 3.6778943538665771484 3.7744851112365722656 3.8760075569152832031 3.9838936328887939453 4.0997867584228515625 4.2253994941711425781 4.3624277114868164062 4.5123915672302246094 4.6762742996215820312 4.8538060188293457031 5.0422291755676269531 5.234539031982421875 5.4174971580505371094 5.5700125694274902344 5.6630644798278808594 5.66208648681640625 5.5724544525146484375 5.4331884384155273438 5.2720727920532226562 5.1063208580017089844 4.9450287818908691406 4.7917485237121582031 4.6462559700012207031 4.5063395500183105469 4.372119903564453125 4.2688970565795898438
3.1855537891387939453 3.0867404937744140625 2.9932024478912353516 2.9071369171142578125 2.8317320346832275391 2.7695188522338867188 2.7175030708312988281 2.8025739192962646484 2.9075350761413574219 3.0331168174743652344 3.1745538711547851562 3.3277220726013183594 3.4899322986602783203 3.6588716506958007812 3.8311479091644287109 4.0010199546813964844 4.1592459678649902344 4.2919888496398925781 4.3805246353149414062 4.4036417007446289062 4.3554615974426269531 4.2657675743103027344 4.1574001312255859375 4.0449357032775878906 3.9362902641296386719 3.8349101543426513672 3.7416946887969970703 3.6496741771697998047 3.7690777778625488281 3.8800721168518066406 3.9866442680358886719 4.0843319892883300781 4.1742863655090332031 4.2621054649353027344 4.3568859100341796875 4.4484615325927734375 4.5304408073425292969 4.5846123695373535156 4.5861172676086425781 4.5214824676513671875 4.4085688591003417969 4.2657933235168457031 4.1085901260375976562 3.9479875564575195312 3.7909219264984130859 3.6412100791931152344 3.5005888938903808594 3.3694694042205810547 3.2472488880157470703 3.1322922706604003906 3.0224761962890625 2.9205324649810791016 2.8586242198944091797 2.9621534347534179688 3.1043918132781982422 3.2398092746734619141 3.3694310188293457031 3.4922659397125244141 3.6172673702239990234 3.7392563819885253906 3.86402130126953125 3.9955480098724365234 4.1185832023620605469 4.2123122215270996094 4.2597074508666992188 4.2288408279418945312 4.1250452995300292969 3.9779863357543945312 3.8103547096252441406 3.6374642848968505859 3.4681293964385986328 3.3065173625946044922 3.1552562713623046875 3.0413699150085449219 3.1378304958343505859 3.2683768272399902344 3.4075474739074707031 3.5549483299255371094 3.7109777927398681641 3.8740458488464355469 4.0389780998229980469 4.1952300071716308594 4.3250293731689453125 4.4024572372436523438 4.3945784568786621094 4.3058409690856933594 4.1697344779968261719 4.0118732452392578125 3.8492610454559326172 3.6915311813354492188 3.5430703163146972656 3.4049861431121826172 3.2765772342681884766 3.1562542915344238281 3.041965484619140625 2.9311614036560058594 2.8190631866455078125 2.7114126682281494141 2.7677583694458007812 2.8259918689727783203 2.8908553123474121094 2.9594087600708007812 3.0304791927337646484 3.1036276817321777344 3.1787745952606201172 3.2560222148895263672 3.3355646133422851562 3.4176247119903564453 3.50240325927734375 3.5900275707244873047 3.6805431842803955078 3.7740981578826904297 3.8715994358062744141 3.9756834506988525391 4.0884127616882324219 4.211589813232421875 4.3468656539916992188 4.4956607818603515625 4.6588239669799804688 4.8359231948852539062 5.0240559577941894531 5.2161798477172851562 5.3991670608520507812 5.5521383285522460938 5.6463179588317871094 5.6474184989929199219 5.5595698356628417969 5.42159271240234375 5.2613139152526855469 5.0960583686828613281 4.9349846839904785156 4.7816247940063476562 4.6356310844421386719 4.4944620132446289062 4.3576364517211914062 4.2512269020080566406
3.1774122714996337891 3.0781245231628417969 2.9839880466461181641 2.8971548080444335938 2.8207812309265136719 2.7574002742767333984 2.7039806842803955078 2.794879913330078125 2.9043805599212646484 3.0326318740844726562 3.1744327545166015625 3.3262929916381835938 3.4859721660614013672 3.6513524055480957031 3.8192162513732910156 3.9843273162841796875 4.138370513916015625 4.2689800262451171875 4.3556656837463378906 4.38526153564453125 4.3454332351684570312 4.25774383544921875 4.148204803466796875 4.0327048301696777344 3.9198746681213378906 3.8135867118835449219 3.7150743007659912109 3.6167013645172119141 3.7441194057464599609 3.846271514892578125 3.9345624446868896484 4.0161767005920410156 4.0953869819641113281 4.1836719512939453125 4.2759313583374023438 4.3718333244323730469 4.4610738754272460938 4.5283794403076171875 4.5519571304321289062 4.5148415565490722656 4.4197802543640136719 4.2874884605407714844 4.1352100372314453125 3.9758160114288330078 3.8177373409271240234 3.6658306121826171875 3.5224621295928955078 3.3883776664733886719 3.2631351947784423828 3.1451013088226318359 3.0317277908325195312 2.9241144657135009766 2.8500678539276123047 2.9125308990478515625 3.0369744300842285156 3.1617810726165771484 3.2778704166412353516 3.3936748504638671875 3.5089631080627441406 3.6307213306427001953 3.7657361030578613281 3.9051408767700195312 4.0353498458862304688 4.1463742256164550781 4.2124638557434082031 4.20175933837890625 4.1107997894287109375 3.9702794551849365234 3.8045930862426757812 3.6307358741760253906 3.4588122367858886719 3.2939176559448242188 3.1394207477569580078 3.0237941741943359375 3.1201608180999755859 3.2505042552947998047 3.3884568214416503906 3.5348007678985595703 3.6902415752410888672 3.8531033992767333984 4.0180339813232421875 4.1743898391723632812 4.3044753074645996094 4.3826546669006347656 4.3765883445739746094 4.2896151542663574219 4.1547951698303222656 3.9976062774658203125 3.8351154327392578125 3.6770789623260498047 3.5279915332794189453 3.3890259265899658203 3.2595078945159912109 3.1378870010375976562 3.0223019123077392578 2.9109532833099365234 2.80281829833984375 2.6953182220458984375 2.7616090774536132812 2.8286449909210205078 2.8985581398010253906 2.9700136184692382812 3.04266357421875 3.1166136264801025391 3.1921007633209228516 3.2693915367126464844 3.3487401008605957031 3.4303472042083740234 3.5142850875854492188 3.6003708839416503906 3.6880247592926025391 3.7764279842376708984 3.8665256500244140625 3.9655766487121582031 4.0751547813415527344 4.1963949203491210938 4.3305335044860839844 4.4787297248840332031 4.6416535377502441406 4.8187379837036132812 5.0069880485534667969 5.1993322372436523438 5.3826913833618164062 5.5363025665283203125 5.6315426826477050781 5.6342825889587402344 5.5478491783142089844 5.4110445976257324219 5.2517676353454589844 5.0874500274658203125 4.9273576736450195312 4.7751293182373046875 4.6304302215576171875 4.490100860595703125 4.3513927459716796875 4.2323150634765625
3.1714284420013427734 3.0719442367553710938 2.9773821830749511719 2.8897204399108886719 2.8120439052581787109 2.7474236488342285156 2.6900238990783691406 2.7929480075836181641 2.9066915512084960938 3.0366144180297851562 3.1748263835906982422 3.3213267326354980469 3.4747774600982666016 3.6330220699310302734 3.7929413318634033203 3.9496636390686035156 4.0952739715576171875 4.2206211090087890625 4.3167963027954101562 4.3614320755004882812 4.3318347930908203125 4.2476401329040527344 4.1374950408935546875 4.0189785957336425781 3.9017486572265625 3.7903268337249755859 3.6865308284759521484 3.5825111865997314453 3.6982247829437255859 3.7852377891540527344 3.8609366416931152344 3.9323308467864990234 4.0114417076110839844 4.0966353416442871094 4.1908364295959472656 4.2893743515014648438 4.3839368820190429688 4.4599900245666503906 4.50614166259765625 4.4964733123779296875 4.4224786758422851562 4.3035612106323242188 4.1583471298217773438 4.00165557861328125 3.8436257839202880859 3.6903781890869140625 3.5451281070709228516 3.409221649169921875 3.2828176021575927734 3.1651716232299804688 3.0548512935638427734 2.9509966373443603516 2.8604869842529296875 2.8292129039764404297 2.9405808448791503906 3.0588552951812744141 3.1697185039520263672 3.2780733108520507812 3.3933675289154052734 3.523960113525390625 3.6653051376342773438 3.8097181320190429688 3.9538233280181884766 4.0802049636840820312 4.1645245552062988281 4.1747431755065917969 4.0982861518859863281 3.9656648635864257812 3.8026990890502929688 3.6281557083129882812 3.4534640312194824219 3.2845826148986816406 3.1255927085876464844 3.0074069499969482422 3.1052906513214111328 3.2343547344207763672 3.3682830333709716797 3.5128252506256103516 3.6679866313934326172 3.8311533927917480469 3.9963810443878173828 4.1527886390686035156 4.2827954292297363281 4.3611741065979003906 4.3574585914611816406 4.2731451988220214844 4.1403961181640625 3.9844925403594970703 3.8226571083068847656 3.6649043560028076172 3.5159742832183837891 3.3772463798522949219 3.2482297420501708984 3.1275472640991210938 3.0134580135345458984 2.9039621353149414062 2.7964773178100585938 2.6818075180053710938 2.7602422237396240234 2.8377335071563720703 2.9174027442932128906 2.9924631118774414062 3.0662176609039306641 3.1403174400329589844 3.2156054973602294922 3.2925465106964111328 3.3714215755462646484 3.45235443115234375 3.5351977348327636719 3.6192250251770019531 3.7024769783020019531 3.7814152240753173828 3.8493168354034423828 3.9465906620025634766 4.0557546615600585938 4.1772251129150390625 4.3118367195129394531 4.4606080055236816406 4.6241559982299804688 4.8018841743469238281 4.9907779693603515625 5.1837635040283203125 5.3677849769592285156 5.522136688232421875 5.6182918548583984375 5.6222605705261230469 5.5369014739990234375 5.4011092185974121094 5.242885589599609375 5.0797982215881347656 4.9213399887084960938 4.7716336250305175781 4.6313290596008300781 4.4991335868835449219 4.3740344047546386719 4.2604699134826660156
