ncols 119
nrows 32
xllcorner 1740
yllcorner 590
cellsize 10.0
1.219373693798937097e+02 1.214870266088251185e+02 1.210392755519071386e+02 1.206034937977461396e+02 1.201044239511901992e+02 1.195848229342741007e+02 1.190464263893049690e+02 1.184879333440452740e+02 1.179098714676268429e+02 1.173098503596443720e+02 1.166858334527461238e+02 1.160327563990725679e+02 1.153456812885756051e+02 1.146169656415107312e+02 1.138297032149164068e+02 1.130988207278965376e+02 1.122391496628010827e+02 1.117787184137328182e+02 1.114230802674512120e+02 1.111594068081921307e+02 1.109429942693704305e+02 1.107848745491719313e+02 1.107210325522084560e+02 1.107179129617335320e+02 1.107656265711298573e+02 1.108497366039725449e+02 1.109556325312502594e+02 1.110711958972483018e+02 1.111877835911056138e+02 1.113000925312446725e+02 1.114055179892559124e+02 1.115034293350868921e+02 1.115945675744527250e+02 1.116806083077694751e+02 1.117638484481707337e+02 1.118469477378911847e+02 1.119326640348033521e+02 1.120235496373067576e+02 1.121216183857952728e+02 1.122280449846422385e+02 1.123430031146368862e+02 1.124655084402316731e+02 1.126187171400906806e+02 1.127774694225647067e+02 1.129410971389138183e+02 1.131083858021057154e+02 1.133253388021443300e+02 1.134960039196470234e+02 1.136868597299170034e+02 1.144346721558026871e+02 1.152038612762736136e+02 1.159770203434216711e+02 1.166939722449960612e+02 1.173282970109395507e+02 1.178525117773011601e+02 1.182238055274272881e+02 1.184066613561141992e+02 1.184331186734861205e+02 1.183544235040972552e+02 1.181854620440761039e+02 1.179527651092677161e+02 1.175418731054615051e+02 1.170776560155277508e+02 1.164699048634850698e+02 1.157020170464372342e+02 1.152942022969578346e+02 1.149687570913400663e+02 1.148334542251334511e+02 1.147474762984466139e+02 1.147498004608870872e+02 1.147381297920959611e+02 1.147402637509529342e+02 1.146911304226362915e+02 1.145427541847088548e+02 1.142427385453718642e+02 1.137104643851208721e+02 1.130033437961951819e+02 1.121890387204696395e+02 1.113779336405997213e+02 1.113408181206203977e+02 1.112820279704704518e+02 1.111958740242188952e+02 1.111010003890684743e+02 1.110155907803690667e+02 1.109567456423802696e+02 1.109391434119857820e+02 1.109739081038168393e+02 1.110662617613009928e+02 1.112175390134962640e+02 1.119923378998127816e+02 1.127944314155688659e+02 1.135662064030718170e+02 1.142927279601351387e+02 1.149683307253718709e+02 1.155904419268182579e+02 1.160761805338865287e+02 1.163922836487846553e+02 1.165913865798615916e+02 1.167336274060719887e+02 1.168428227948148219e+02 1.169361213513343927e+02 1.170658516029860010e+02 1.172185836457143324e+02 1.174257076686269414e+02 1.180540721661604948e+02 1.186846862324132559e+02 1.193039397339365451e+02 1.199019495821802934e+02 1.204349281345666327e+02 1.209452197409991356e+02 1.213618441049614489e+02 1.217039538970693258e+02 1.219489551964841496e+02 1.220737832051444229e+02 1.220975994245832084e+02 1.220339431166340773e+02 1.218911293080316085e+02 1.216793735801606999e+02 1.214454577071608554e+02
1.215185717224698436e+02 1.210241524254796417e+02 1.205293229116052771e+02 1.200208030420032088e+02 1.194528453122820082e+02 1.188827352381270686e+02 1.183010238505357563e+02 1.177045915319879583e+02 1.170911923875262914e+02 1.164580741395122203e+02 1.158009852761488361e+02 1.151166139112519318e+02 1.143993975189302290e+02 1.136436061542241589e+02 1.128410963977079149e+02 1.119755758859595289e+02 1.111748182934238542e+02 1.102945180093503268e+02 1.098929757609141831e+02 1.095880029079236664e+02 1.093442502076307363e+02 1.091731343766330582e+02 1.091124959005129398e+02 1.091282272625237368e+02 1.092052555413984010e+02 1.093227760463691851e+02 1.094612379695424380e+02 1.096057077307682874e+02 1.097465213531043418e+02 1.098784944524900880e+02 1.099996834888318631e+02 1.101102697450765788e+02 1.102117706519290294e+02 1.103065586487194594e+02 1.103975745682391647e+02 1.104881099326472764e+02 1.105815576560206495e+02 1.106810732645894859e+02 1.107891477969186411e+02 1.109071740450199854e+02 1.110351783270513124e+02 1.111716523224230855e+02 1.113390807040783415e+02 1.115120811859981984e+02 1.116902145414910876e+02 1.118732883058847847e+02 1.121098327582015770e+02 1.123091855415563316e+02 1.125386192734985258e+02 1.134172355946350166e+02 1.143235728168599081e+02 1.151863766030282790e+02 1.159774935645576761e+02 1.166700847357451352e+02 1.172216394609374959e+02 1.176010680958417680e+02 1.177694503601402403e+02 1.177734701571736053e+02 1.176613295606714189e+02 1.174437745463594780e+02 1.171471528691691049e+02 1.166867682962643329e+02 1.160774262201256306e+02 1.154482451405305738e+02 1.147067246154621500e+02 1.138920707986651024e+02 1.135243120155083005e+02 1.134242228670052555e+02 1.133785663655723681e+02 1.134230073824185325e+02 1.134515878468906038e+02 1.134910780319469410e+02 1.134755522956429417e+02 1.133579813062640937e+02 1.130890256349532450e+02 1.125527918022014262e+02 1.118124913248260128e+02 1.109203453433360806e+02 1.099512072578236825e+02 1.099031362128447284e+02 1.098252986568284939e+02 1.097128923647061640e+02 1.095870878553748611e+02 1.094700504745000842e+02 1.093829193869707410e+02 1.093434751076146796e+02 1.093655939639742201e+02 1.094677334271550819e+02 1.097912758132977729e+02 1.107724282210129161e+02 1.116673170936644084e+02 1.125127415396985811e+02 1.133081896561869684e+02 1.140520877379064473e+02 1.146551072116642018e+02 1.150904248187249124e+02 1.153523081441896920e+02 1.155186073251404508e+02 1.156442276926742778e+02 1.157507984645864667e+02 1.158535606189320362e+02 1.160041387993341999e+02 1.161889011035058132e+02 1.164487162940211533e+02 1.171856255128791275e+02 1.179112578223450782e+02 1.186127746350432091e+02 1.192883408365071034e+02 1.199266423391804466e+02 1.204961805424452876e+02 1.209561533164175842e+02 1.212907432275263773e+02 1.215204680533698820e+02 1.216180446749761472e+02 1.216163604918992434e+02 1.215252879233348864e+02 1.213462525919093054e+02 1.210400566960500868e+02 1.207093366671296621e+02
1.211080907301127212e+02 1.205611926074957125e+02 1.200242442825251601e+02 1.194018988901996892e+02 1.187764343269410006e+02 1.181516135831390528e+02 1.175270857209582402e+02 1.168908230299109476e+02 1.162404066400512050e+02 1.155725147949693508e+02 1.148833438332160597e+02 1.141681154495271215e+02 1.134229172337152391e+02 1.126423141367096292e+02 1.118212252748695335e+02 1.109539613201688582e+02 1.100300484981369777e+02 1.091885153186389346e+02 1.082547860592228375e+02 1.079124996391358877e+02 1.076393752892847573e+02 1.074536532883647197e+02 1.073977349432844193e+02 1.074396540904059236e+02 1.075553379142640864e+02 1.077143967748326219e+02 1.078910004492325925e+02 1.080673860367996184e+02 1.082334820426953854e+02 1.083849657769637105e+02 1.085211619398125862e+02 1.086434562244806870e+02 1.087543487447284605e+02 1.088569962484516793e+02 1.089550210722611894e+02 1.090523897634649586e+02 1.091532155884114701e+02 1.092613941663773005e+02 1.093800513592729118e+02 1.095108947161250086e+02 1.096537253827526968e+02 1.098061908787256584e+02 1.099896330644548499e+02 1.101782166558185878e+02 1.103716235724104422e+02 1.105706390996239747e+02 1.108269457385908225e+02 1.110611488153272717e+02 1.113710369890553409e+02 1.124202600958646769e+02 1.134406371129981039e+02 1.143944578815401059e+02 1.152589777616706073e+02 1.159937486234951081e+02 1.165702469693513876e+02 1.169551847375876719e+02 1.171072196160417747e+02 1.170862779366656810e+02 1.169399640302393095e+02 1.166962034280789169e+02 1.162361785420901157e+02 1.157389907971401755e+02 1.150915216916978920e+02 1.143127626107605721e+02 1.135538744173743595e+02 1.127250626211189655e+02 1.118831852087765526e+02 1.118947658713230879e+02 1.119062680927890057e+02 1.120027115393149870e+02 1.120783079417946482e+02 1.121588542385965610e+02 1.121783988098001430e+02 1.120915518312619099e+02 1.118524160585876075e+02 1.113178777113563171e+02 1.105391200995855741e+02 1.095788422474071382e+02 1.084874948684974640e+02 1.084183449666548285e+02 1.083123089916740156e+02 1.081645004992234078e+02 1.079982400762359589e+02 1.078407453432231620e+02 1.077182418260505443e+02 1.076515703979610379e+02 1.076513472154556723e+02 1.076809138174853899e+02 1.086077317007803060e+02 1.095900514683773821e+02 1.105505142307062840e+02 1.114678484174453104e+02 1.123390991209432315e+02 1.130688600394987446e+02 1.136274906237150759e+02 1.139873306483699054e+02 1.142033243813128678e+02 1.143425195568603243e+02 1.144582233317271118e+02 1.145703516112762941e+02 1.146918743084285950e+02 1.148714177029341954e+02 1.150927204374211072e+02 1.154689019038699911e+02 1.163538212246892414e+02 1.171685802151948650e+02 1.179506285893961177e+02 1.187061140979684666e+02 1.194041245729567038e+02 1.200140837544598043e+02 1.205198551223504637e+02 1.208768668357012928e+02 1.210912567175364529e+02 1.211571635326215812e+02 1.211341869906155608e+02 1.210320814520581365e+02 1.207721308716030961e+02 1.203931059485581727e+02 1.199690343635950995e+02
1.206773300166222072e+02 1.200984186013792794e+02 1.194547020512506492e+02 1.187768859582041898e+02 1.180929268722242682e+02 1.174116088333530996e+02 1.167327817151244886e+02 1.160552519020625226e+02 1.153661880435063125e+02 1.146625200808627909e+02 1.139402251934624246e+02 1.131949857726722826e+02 1.124219149428760005e+02 1.116171236538015989e+02 1.107760870026620097e+02 1.098954820295571722e+02 1.089726054024227011e+02 1.079990603071378388e+02 1.071125861714165950e+02 1.061283035561350800e+02 1.058345218335980604e+02 1.056308247194366032e+02 1.055796825122103400e+02 1.056592671123375879e+02 1.058268225278811627e+02 1.060375386907383444e+02 1.062582147090310087e+02 1.064688982694682267e+02 1.066603125392682756e+02 1.068301245819919956e+02 1.069797112593363977e+02 1.071120877638285833e+02 1.072309025017113697e+02 1.073401192204826202e+02 1.074440176970963989e+02 1.075472404343528723e+02 1.076546979732352582e+02 1.077712034045195679e+02 1.079007687976714323e+02 1.080456277648895451e+02 1.082053199197197699e+02 1.083761762541043794e+02 1.085776185267363445e+02 1.087829922682429640e+02 1.089918886395988977e+02 1.092052405887802138e+02 1.094742422492483058e+02 1.097270160633427167e+02 1.101951511160305870e+02 1.114494845129139264e+02 1.125777564439729304e+02 1.136163963250633060e+02 1.145350819411612520e+02 1.153087844814451586e+02 1.159069070827044499e+02 1.162943163265147177e+02 1.164275365527928727e+02 1.163772389543350698e+02 1.161831123571325719e+02 1.158765192641295414e+02 1.153718810883290615e+02 1.146856515313049982e+02 1.140081108205591249e+02 1.131945685238868435e+02 1.122628306776344687e+02 1.113649498138093747e+02 1.103522778151268540e+02 1.102981609948328554e+02 1.103462951298543260e+02 1.105016423099453675e+02 1.106306572523110958e+02 1.107552193786514039e+02 1.108103237178917198e+02 1.107521852698667999e+02 1.105342129963431290e+02 1.100307126302383551e+02 1.092065072365678731e+02 1.081746241546403269e+02 1.069857002569464868e+02 1.068926897455088323e+02 1.067524423059882679e+02 1.065606039119459751e+02 1.063431815998481227e+02 1.061350499387407496e+02 1.059695842376998343e+02 1.058733379142780962e+02 1.058764852993741243e+02 1.061411925437711972e+02 1.073276757657591673e+02 1.084136379955386928e+02 1.094532845108019217e+02 1.104536273482423780e+02 1.113152791176911336e+02 1.120132499265713903e+02 1.124757363391082947e+02 1.127725485211184804e+02 1.129480234042543572e+02 1.130663037018960182e+02 1.131794158103857200e+02 1.133059142662145149e+02 1.134567628208566106e+02 1.136734943366344481e+02 1.138844099778801819e+02 1.147055146780639205e+02 1.155959938476495239e+02 1.164744062102662809e+02 1.173334846245050898e+02 1.181444205559506315e+02 1.188853441169440401e+02 1.195286973938470396e+02 1.200501609216875494e+02 1.204407106851869713e+02 1.206338564011395249e+02 1.206868387675012286e+02 1.206377869137939456e+02 1.204641131317638241e+02 1.201266540164108250e+02 1.196776575061755921e+02 1.191004912466789563e+02
1.201957661505459640e+02 1.195712176390176751e+02 1.188771420487992003e+02 1.181552555466464298e+02 1.174142435998651735e+02 1.166723962870111109e+02 1.159367096378251034e+02 1.152054073826044771e+02 1.144763575757083061e+02 1.137355767881876574e+02 1.129793537678797435e+02 1.122031780394202087e+02 1.114024964231866903e+02 1.105726138728694821e+02 1.097100942857151011e+02 1.088116096871997343e+02 1.078754099756277611e+02 1.069002871992079804e+02 1.058780567707251379e+02 1.049512161474900296e+02 1.039286848362444999e+02 1.037078663416595816e+02 1.036556131851176303e+02 1.037931200708308523e+02 1.040314081754006281e+02 1.043059128342485309e+02 1.045763845353747286e+02 1.048225106780000999e+02 1.050378173140317131e+02 1.052235224418818689e+02 1.053839699533459111e+02 1.055241912257035466e+02 1.056490490299674718e+02 1.057632321734014909e+02 1.058715648957662552e+02 1.059793028103759127e+02 1.060922070145062577e+02 1.062162292133744046e+02 1.063566580485685336e+02 1.065166812065806567e+02 1.066956937184035468e+02 1.068880476814009484e+02 1.071098639543848066e+02 1.073332958287890051e+02 1.075580508458134119e+02 1.077850212786732982e+02 1.080567095243899729e+02 1.082251344227079528e+02 1.093293734901237428e+02 1.105516517708875170e+02 1.117474614563535908e+02 1.128452418364778964e+02 1.138138528352664594e+02 1.146228208139708613e+02 1.152390556713808394e+02 1.156255824908618166e+02 1.157374677083019066e+02 1.156568885762657715e+02 1.154382318953220334e+02 1.149602957407471564e+02 1.144219962463185993e+02 1.137008125889040286e+02 1.128159397318439119e+02 1.119790282935037453e+02 1.110174136722839933e+02 1.099379488142433416e+02 1.088221915143797389e+02 1.085712914883133919e+02 1.086951565327297118e+02 1.089309123862612836e+02 1.091210353990360744e+02 1.092914719680539548e+02 1.093818643705927514e+02 1.093512928601065965e+02 1.091547736863663971e+02 1.086775541159508691e+02 1.078369732478538197e+02 1.067305382399413816e+02 1.054504671296721909e+02 1.053333658648254811e+02 1.051551231789461411e+02 1.049107486945817556e+02 1.046290942991177673e+02 1.043579767650666099e+02 1.041400144278340179e+02 1.040003237207974820e+02 1.038932649418026557e+02 1.049598313508733298e+02 1.061204907018268386e+02 1.072732482974692374e+02 1.084000334415134432e+02 1.093942213350733539e+02 1.102291951700121047e+02 1.108380497078558165e+02 1.112108196340299173e+02 1.114484211114450858e+02 1.115888445522986103e+02 1.116928125516025574e+02 1.118108138250606345e+02 1.119606538807301632e+02 1.121548780121606228e+02 1.124471025288395936e+02 1.128319668668287363e+02 1.139001101872840280e+02 1.148780784414590386e+02 1.158299332521103224e+02 1.167412884398444533e+02 1.175955905333285330e+02 1.183675139170417623e+02 1.190361668923445819e+02 1.195782396815360897e+02 1.199712059357079426e+02 1.201950624041914608e+02 1.202135425970525233e+02 1.200891618546882853e+02 1.197992313669753912e+02 1.194026720879244294e+02 1.188264516204604604e+02 1.181183831884794841e+02
1.197156201529732868e+02 1.190302203323198285e+02 1.182947073372340725e+02 1.175291399210324812e+02 1.167429823969624891e+02 1.159432294103299768e+02 1.151466826205132179e+02 1.143591455726932509e+02 1.135774409648431771e+02 1.127984631504276933e+02 1.120071560141925175e+02 1.111992852845018120e+02 1.103699981699628268e+02 1.095146729586865035e+02 1.086289411358731201e+02 1.077099079022498955e+02 1.067552299428586764e+02 1.057642241043198794e+02 1.047370184105233761e+02 1.036679137430384259e+02 1.027100467035560598e+02 1.016803166424688385e+02 1.016106450647358912e+02 1.018483402675892791e+02 1.021832946325589404e+02 1.025348843570565265e+02 1.028595690203132023e+02 1.031401690658104826e+02 1.033759619512244825e+02 1.035736877765563406e+02 1.037415848955471063e+02 1.038869339719370117e+02 1.040157054180305778e+02 1.041330876183011611e+02 1.042442231880242076e+02 1.043548296087162015e+02 1.044715190789627144e+02 1.046016284747789769e+02 1.047522890551309303e+02 1.049284394339277355e+02 1.051298488917049951e+02 1.053480663217435875e+02 1.055931375207560166e+02 1.058358347960675161e+02 1.060770918819442699e+02 1.063225524097120882e+02 1.066343309751893145e+02 1.069242677902804530e+02 1.082920690919895890e+02 1.096502115550531329e+02 1.109242109054041663e+02 1.120843785129834913e+02 1.131012442943852108e+02 1.139426006915109042e+02 1.145733495360081804e+02 1.149549693374507626e+02 1.150411033599527570e+02 1.149164902461835993e+02 1.146354148503751560e+02 1.141160973988984466e+02 1.133734603725757069e+02 1.126258568790858448e+02 1.117121944042646788e+02 1.106534672047474714e+02 1.096818691543528956e+02 1.086110768704127310e+02 1.074931393956953656e+02 1.065627175452474660e+02 1.069625854511253635e+02 1.073086649936800399e+02 1.075632213740673677e+02 1.077784852898509627e+02 1.079028468494927466e+02 1.078991071358689737e+02 1.077242974259909403e+02 1.072702369074775248e+02 1.064143174779992904e+02 1.052626644958533007e+02 1.038877580042820625e+02 1.037481948397519176e+02 1.035308083742734766e+02 1.032255096928858364e+02 1.028618551674789643e+02 1.025127281511177983e+02 1.022356609964527223e+02 1.020861494202550830e+02 1.022792187124411782e+02 1.036601739721798907e+02 1.049347037243024516e+02 1.061841398911639089e+02 1.073086340366113092e+02 1.082819054677093220e+02 1.090444613236173694e+02 1.095348918384169679e+02 1.098299839384922194e+02 1.100157097921550218e+02 1.101279898078408337e+02 1.102248183975914912e+02 1.103547992999767331e+02 1.105344996583409198e+02 1.107762187531139517e+02 1.111194972619471031e+02 1.121609754735691666e+02 1.131946540308836973e+02 1.142176159445537138e+02 1.152101075446888245e+02 1.161611540645102707e+02 1.170492101641921607e+02 1.178527680085581437e+02 1.185450418368811114e+02 1.190994238025749894e+02 1.194900045034406730e+02 1.196763353838908017e+02 1.196549085547093938e+02 1.194939994583648115e+02 1.191167176587549648e+02 1.185764938582758958e+02 1.179382119291127964e+02 1.171153317659126429e+02
1.192074965091249084e+02 1.184793175635470561e+02 1.177065084282795198e+02 1.168998804426674809e+02 1.160699973559207621e+02 1.152250384537572927e+02 1.143708527471735437e+02 1.135231210261791688e+02 1.126865610786408780e+02 1.118566920364973072e+02 1.110295008932802716e+02 1.101889753338619187e+02 1.093304373849865527e+02 1.084487606141974112e+02 1.075393028317921846e+02 1.065979919854594442e+02 1.056223622816292504e+02 1.046107903797975780e+02 1.035634457847001499e+02 1.024816947783727272e+02 1.013614861382835812e+02 1.003711869613878918e+02 9.939769799479054768e+01 9.984122250702550616e+01 1.003014837714044774e+02 1.007420735309551958e+02 1.011223931925865287e+02 1.014332908485576183e+02 1.016836533970935221e+02 1.018880159960993979e+02 1.020592306713596003e+02 1.022067437746935497e+02 1.023372782283267526e+02 1.024561277209396053e+02 1.025684016120840454e+02 1.026800154913594127e+02 1.027983322987744685e+02 1.029322841375399378e+02 1.030915759439069177e+02 1.032842516210753843e+02 1.035118968163302924e+02 1.037627001477513318e+02 1.040343219200402416e+02 1.042967942917760098e+02 1.045524816812164488e+02 1.048083274325668697e+02 1.051447348037836349e+02 1.056482940742242249e+02 1.073022701601599351e+02 1.087694417501310653e+02 1.101189591746640986e+02 1.113401161112241482e+02 1.124038527795997737e+02 1.132749807765607812e+02 1.139162268210857292e+02 1.142885746039734158e+02 1.143481206159922294e+02 1.142020112852082150e+02 1.137487547529665335e+02 1.131981395251360283e+02 1.124237522789217394e+02 1.114464191939337212e+02 1.105131956667889739e+02 1.094305617281866745e+02 1.082220699073353956e+02 1.071401855491321271e+02 1.059852179103686467e+02 1.047996557967706082e+02 1.052553606317955968e+02 1.056652419444077537e+02 1.059708357527474476e+02 1.062255113806913727e+02 1.063812479535886268e+02 1.064032989098104451e+02 1.062499355060357544e+02 1.058178185147664010e+02 1.049464626738193260e+02 1.037509319515742163e+02 1.023020904334902355e+02 1.021446812605989152e+02 1.018918796587086320e+02 1.015188033401901890e+02 1.010452518050699382e+02 1.005980811856385628e+02 1.002395632799130993e+02 9.994310634297721663e+01 1.011280451487289014e+02 1.024568402716100479e+02 1.038140140784163776e+02 1.050625332799370284e+02 1.061713675710178109e+02 1.070789358185765394e+02 1.077308992895655706e+02 1.081118107495619256e+02 1.083347199635644245e+02 1.084761519378652537e+02 1.085681877848315793e+02 1.086656898313123207e+02 1.088146700085757743e+02 1.090300101587022965e+02 1.093168285193678742e+02 1.103999095014353031e+02 1.114562632314251402e+02 1.125227922404082079e+02 1.135722427638955736e+02 1.145936471477937175e+02 1.155770881858660601e+02 1.165045316950754568e+02 1.173439995606959769e+02 1.180608069782828835e+02 1.186250207548315672e+02 1.189980755529971219e+02 1.191416903254029194e+02 1.190669061790485301e+02 1.188355704069040684e+02 1.183900214811112477e+02 1.177443530363713080e+02 1.169528729064085013e+02 1.160748734560005602e+02
1.186861115016687620e+02 1.179215287161481740e+02 1.171112689001168405e+02 1.162663699833040454e+02 1.153954834133836869e+02 1.145073486318329117e+02 1.136087782806289397e+02 1.127045371601609958e+02 1.118092680798671381e+02 1.109266388491115833e+02 1.100509570041832035e+02 1.091773579056002035e+02 1.082889561331541017e+02 1.073806512354306903e+02 1.064470387951270425e+02 1.054834215277139435e+02 1.044859353729026594e+02 1.034524346415943228e+02 1.023818161528220116e+02 1.012745476579196833e+02 1.001305625462004940e+02 9.893241004965220498e+01 9.773331772118770289e+01 9.782745157746596476e+01 9.840990299334271185e+01 9.894707739489123810e+01 9.937957789751982318e+01 9.971222338504118454e+01 9.996828439164028168e+01 1.001725231940009593e+02 1.003425406252995344e+02 1.004893434180984997e+02 1.006197504491299100e+02 1.007386040620192205e+02 1.008505133725569465e+02 1.009611997642058299e+02 1.010785088177084390e+02 1.012130112890242231e+02 1.013777495487107245e+02 1.015859126330305600e+02 1.018442085532107484e+02 1.021392889828679529e+02 1.024405271161564883e+02 1.027227467500090512e+02 1.029911480812150444e+02 1.032407483380315369e+02 1.034671846570509786e+02 1.048708852923944050e+02 1.064172484216233414e+02 1.079244934934698250e+02 1.093371348956614497e+02 1.106184625880825365e+02 1.117293290500215477e+02 1.126276175308343994e+02 1.132736804893845743e+02 1.136285860379883133e+02 1.136495213629261940e+02 1.134574834345135343e+02 1.129601850664881226e+02 1.121925816751346474e+02 1.113945052803620825e+02 1.103904560912440616e+02 1.092043610614425972e+02 1.081073347817359718e+02 1.068766387049002589e+02 1.055355140520757828e+02 1.043446035228152056e+02 1.030516673503753253e+02 1.035484390765594753e+02 1.040036163889545406e+02 1.043499146689982666e+02 1.046385931861390759e+02 1.048229805426555572e+02 1.048697095817836953e+02 1.047375880619797499e+02 1.043269545157570661e+02 1.034414575466760482e+02 1.022050679667172091e+02 1.006959166180076863e+02 1.005292348532445885e+02 1.002537246670930102e+02 9.981305710560110356e+01 9.917890697139051781e+01 9.861573042993801153e+01 9.820460232061040529e+01 9.827780757104699205e+01 9.982442722575186167e+01 1.012936135783018585e+02 1.026598243430959343e+02 1.038999944438702272e+02 1.049502808431351468e+02 1.057681250851428274e+02 1.062769565431406562e+02 1.065650064972793274e+02 1.067256754206444072e+02 1.068320288448001065e+02 1.069128590092306865e+02 1.070196955439530484e+02 1.071947805892883139e+02 1.074396423109741647e+02 1.085657308970427124e+02 1.096587992185079372e+02 1.107600671648004464e+02 1.118505207611997747e+02 1.129190635585264317e+02 1.139559054583553888e+02 1.149835328820054769e+02 1.159645324857571893e+02 1.168491669821265191e+02 1.175914850198683581e+02 1.181518772341185439e+02 1.185007965011807443e+02 1.186012525960758666e+02 1.184853828662938326e+02 1.181065490150486568e+02 1.176041282621831954e+02 1.168864334443690467e+02 1.159707067738638955e+02 1.149296213748302620e+02
1.181539808077351097e+02 1.173550776302540726e+02 1.165087573316132108e+02 1.156264543301738570e+02 1.147175140906259116e+02 1.137892154965820595e+02 1.128487576543143120e+02 1.119017181836571808e+02 1.109518332927795967e+02 1.100127493665470553e+02 1.090871068776406076e+02 1.081680663740855408e+02 1.072499277001411286e+02 1.063149687482860628e+02 1.053576322557142220e+02 1.043721839473791988e+02 1.033538202701924860e+02 1.022988512372575087e+02 1.012054795085236805e+02 1.000731839916649903e+02 9.890337953644635149e+01 9.770156787330925852e+01 9.649533066769369327e+01 9.554314076763041896e+01 9.660458984269519078e+01 9.717037512116945663e+01 9.764511088015139251e+01 9.798541551548663620e+01 9.823506517719553699e+01 9.843152319721920662e+01 9.859600314040604019e+01 9.873973080756276488e+01 9.886867764680292225e+01 9.898657350318987369e+01 9.909698705546858832e+01 9.920492899465510561e+01 9.931822162452490943e+01 9.944874418314952891e+01 9.961331441603488202e+01 9.983276586142052622e+01 1.001251243223840817e+02 1.004880644996745644e+02 1.008184395533050974e+02 1.011194164506296147e+02 1.014073966526345316e+02 1.016771103198140622e+02 1.021128403348751590e+02 1.038643966397473974e+02 1.055087262123196439e+02 1.070902694479487707e+02 1.085772589746839714e+02 1.099262940584595469e+02 1.110888333452211327e+02 1.120106590102375748e+02 1.126531554248312688e+02 1.129799435144281006e+02 1.129461642303268860e+02 1.126827607335055887e+02 1.121294878912310935e+02 1.113188899747660798e+02 1.102696256911545163e+02 1.092497008130418550e+02 1.080409837379562816e+02 1.066702829466182152e+02 1.054290956992196726e+02 1.040678498524274858e+02 1.026068605615672311e+02 1.012853355220636189e+02 1.018275781669537565e+02 1.023219771650520755e+02 1.027028312711297531e+02 1.030214372815686943e+02 1.032322717508196916e+02 1.033028606197536305e+02 1.031921373795725003e+02 1.028033762318670199e+02 1.019061711442274287e+02 1.006340419482811370e+02 9.907189494175281652e+01 9.890484595907368259e+01 9.863449995640444001e+01 9.825725300177214194e+01 9.724249744077285129e+01 9.654249418359475499e+01 9.589641836907560446e+01 9.714469139183250945e+01 9.863688418780101586e+01 1.001034425774207932e+02 1.014692621799765391e+02 1.026597764783078333e+02 1.036275567668785413e+02 1.043115207882672593e+02 1.046926799592554858e+02 1.048965698245660718e+02 1.050051407454946002e+02 1.050865184636104033e+02 1.051661445623965818e+02 1.052921914370856911e+02 1.054915356090631917e+02 1.066611978560057992e+02 1.077914259123600971e+02 1.089293331768373321e+02 1.100567396971590028e+02 1.111649512563845406e+02 1.122418313951717721e+02 1.132679007666640416e+02 1.143844882558897211e+02 1.154436015781416245e+02 1.163867139907495840e+02 1.171373857101537652e+02 1.176837413823513003e+02 1.179994584593741962e+02 1.180472197239371894e+02 1.178713196616315315e+02 1.174320468238370267e+02 1.167395487246774337e+02 1.159666229762086829e+02 1.149788514919553677e+02 1.137965158703983377e+02
1.176110532745056219e+02 1.167780631517636465e+02 1.158971547420845098e+02 1.149790087516118149e+02 1.140333297631339491e+02 1.130679291982166461e+02 1.120888172091571278e+02 1.111018282141514248e+02 1.101114108177449395e+02 1.091203231389079775e+02 1.081412346440848040e+02 1.071757595886501662e+02 1.062159353941120941e+02 1.052551909776127985e+02 1.042749503860889888e+02 1.032691102007215136e+02 1.022315215261043164e+02 1.011572451534927097e+02 1.000428505924803915e+02 9.888710401511680459e+01 9.768996768929709162e+01 9.645144876325478833e+01 9.517141069550341115e+01 9.387613036241720010e+01 9.455058673553794790e+01 9.544844187787721523e+01 9.593127469352428704e+01 9.625840285756768822e+01 9.648616515906620350e+01 9.666734296695291562e+01 9.682291139321897333e+01 9.696215519208811884e+01 9.708912493985758374e+01 9.720579293374174767e+01 9.731414854269115722e+01 9.741789127314173413e+01 9.752404465777063081e+01 9.764485533638590198e+01 9.780038215488799835e+01 9.802098405778122014e+01 9.834299384931389909e+01 9.882899309123406795e+01 9.917237884394866398e+01 9.948607213092340373e+01 9.979929164706805977e+01 9.998714330363397096e+01 1.012171762641282697e+02 1.028894146752736702e+02 1.045976817850686160e+02 1.062684051139422223e+02 1.078456756108829637e+02 1.092765023768413215e+02 1.105035644575284977e+02 1.114380736054801417e+02 1.120634917579684640e+02 1.123521318202988937e+02 1.122799575443294486e+02 1.118457125338291576e+02 1.112535163882022431e+02 1.103927586460995229e+02 1.093050139100871263e+02 1.080060268568213218e+02 1.067887785408565975e+02 1.053988450869418898e+02 1.038653806919649583e+02 1.024976373148362399e+02 1.010255328338911767e+02 9.949742859553045093e+01 1.000895267032136076e+02 1.006196493187276104e+02 1.010308570462182303e+02 1.013764439948461415e+02 1.016121866505251603e+02 1.017062751720280005e+02 1.016175374442178025e+02 1.012516616169947810e+02 1.003454962013161378e+02 9.904180637525422526e+01 9.743145329471344951e+01 9.726453382096428868e+01 9.699032363265015988e+01 9.661437414369181909e+01 9.569513417460454718e+01 9.443347412907857574e+01 9.416513810178723531e+01 9.579432231385234786e+01 9.738326927523733900e+01 9.887635734091310269e+01 1.002068654265670062e+02 1.013286591149115878e+02 1.021792358664746843e+02 1.026980167160390636e+02 1.029747044785826375e+02 1.031081578578296671e+02 1.031763249648391394e+02 1.032434711969249577e+02 1.033325079247726137e+02 1.034800105548661122e+02 1.046907169623827798e+02 1.058565790604176016e+02 1.070297020823705338e+02 1.081925085551170156e+02 1.093373200014079885e+02 1.104553985460319154e+02 1.115402158902446956e+02 1.128434583639904503e+02 1.140164224067515306e+02 1.150719234294848405e+02 1.159713499807010919e+02 1.167041962860603945e+02 1.172236402267464257e+02 1.174960532381399503e+02 1.174883426909753297e+02 1.172065262247362512e+02 1.167102202629000942e+02 1.159561936814821195e+02 1.149571684951033603e+02 1.139219704284173531e+02 1.126745150111713087e+02
1.170556570665254128e+02 1.161892791126328319e+02 1.152741285191316507e+02 1.143216565959607181e+02 1.133409681503577673e+02 1.123401145349763937e+02 1.113254905866476747e+02 1.103019389928560798e+02 1.092740860128319298e+02 1.082453540549600746e+02 1.072175722849740112e+02 1.062024291279271750e+02 1.052004801977724782e+02 1.042026098617610899e+02 1.032012725695782223e+02 1.021769427781378425e+02 1.011227888737907392e+02 1.000320792797891869e+02 9.889969827995001594e+01 9.772276187266943737e+01 9.650132548116890518e+01 9.523551327631876973e+01 9.391022293234532015e+01 9.240122354164410012e+01 9.259875906407314972e+01 9.340630193463069020e+01 9.430644496052444481e+01 9.453262897934760645e+01 9.471958125779002557e+01 9.488028175489544935e+01 9.502548024175264629e+01 9.516014399526721945e+01 9.528558692993394175e+01 9.540155619991143965e+01 9.550801238463014897e+01 9.560674645599937094e+01 9.570301483733584291e+01 9.580775796861543370e+01 9.594199241875084283e+01 9.614545852945586546e+01 9.645768692180553217e+01 9.725684336455466905e+01 9.749947887585177853e+01 9.781648074688530414e+01 9.821874823605949700e+01 9.871121669139891708e+01 1.007416730994355305e+02 1.025838959836174098e+02 1.043263768659644768e+02 1.059712887482613013e+02 1.074929823720267734e+02 1.088539436876312152e+02 1.100101176071118942e+02 1.109236518289412743e+02 1.115093067627404224e+02 1.117303911938323182e+02 1.116052886304711365e+02 1.111204366956438037e+02 1.103105886226885559e+02 1.094192923212532378e+02 1.082823089192464607e+02 1.069478236755108185e+02 1.054276712763787174e+02 1.040355817342785798e+02 1.024857582552934900e+02 1.008082646975683900e+02 9.932118505782274553e+01 9.770868315007334104e+01 9.833709464314453896e+01 9.889707095113020330e+01 9.933486723847131827e+01 9.970527000368312542e+01 9.996502058510408517e+01 1.000827243202556645e+02 1.000169522212711684e+02 9.967541155456524393e+01 9.876319673130161902e+01 9.743177818359357900e+01 9.577744258547723177e+01 9.560982386609862260e+01 9.532213328676587594e+01 9.490988536633571471e+01 9.388200746578527855e+01 9.246638513156263173e+01 9.260315186958673905e+01 9.448434418950910185e+01 9.611971076025029959e+01 9.758772244902692705e+01 9.886252258162662088e+01 9.989641844058299114e+01 1.005513902708744496e+02 1.009410115381604385e+02 1.011274137863166374e+02 1.012037268378678192e+02 1.012437335308494823e+02 1.013072165242254954e+02 1.014077057832784021e+02 1.026587810461021206e+02 1.038583196199318053e+02 1.050641831526633752e+02 1.062595879177819285e+02 1.074374874249416507e+02 1.085870501253349971e+02 1.096865776183625627e+02 1.110749868678060750e+02 1.123790740869104923e+02 1.135724190209182609e+02 1.146407854796028261e+02 1.155675606724475983e+02 1.162870496624559991e+02 1.167715615381440841e+02 1.169880818428177491e+02 1.169123499935717803e+02 1.165431873723412934e+02 1.159246762000478270e+02 1.151127171380726253e+02 1.140539060814672609e+02 1.127615970109950752e+02 1.114810364540631014e+02
1.164855860638596141e+02 1.155863257401750701e+02 1.146377287936411449e+02 1.136515644189022254e+02 1.126374915410499398e+02 1.116030581203924044e+02 1.105548039912055742e+02 1.094978555377420122e+02 1.084360199747454345e+02 1.073728744174206327e+02 1.063109177049021810e+02 1.052510897348416705e+02 1.042040610586392120e+02 1.031692472816443882e+02 1.021362753325693404e+02 1.010964179422728648e+02 1.000289556462808207e+02 9.892592820434889234e+01 9.777958207251212741e+01 9.658443645366800467e+01 9.533907321218501352e+01 9.404911454543319849e+01 9.273129204188892061e+01 9.144129600866267538e+01 9.034887273596632440e+01 9.177767969026193384e+01 9.258804547677071639e+01 9.277319332975993404e+01 9.292737680654558119e+01 9.306925580518820595e+01 9.320523301678137784e+01 9.333660742603298388e+01 9.346192678055268743e+01 9.357852562728159285e+01 9.368403368217843763e+01 9.377786559076915296e+01 9.386260993511940853e+01 9.394572398370445399e+01 9.404436931168713443e+01 9.421095036818519475e+01 9.469168203028075936e+01 9.552514981232388891e+01 9.574358334763240919e+01 9.606758688924593059e+01 9.649396951377210030e+01 9.855931076596809248e+01 1.005345607065599722e+02 1.024015119381478911e+02 1.041578934224483817e+02 1.057910231096314106e+02 1.072768254410922424e+02 1.085824718823585329e+02 1.096668696047293281e+02 1.104678544356856094e+02 1.109681837448307817e+02 1.111096301589438866e+02 1.109205874577303632e+02 1.103749432009318383e+02 1.095166659534994693e+02 1.083710337898643985e+02 1.072118060693819359e+02 1.058279387173494399e+02 1.042742584128275070e+02 1.025585020019398286e+02 1.010122934165302553e+02 9.932383701006648380e+01 9.752559134621316161e+01 9.591003499350615868e+01 9.656951936695980976e+01 9.715412327811176851e+01 9.761530075549835317e+01 9.800909438128761053e+01 9.829257113029912318e+01 9.843443961619313143e+01 9.839293426128101316e+01 9.807749469876631565e+01 9.716233877676543784e+01 9.580711622292599827e+01 9.411344214163960942e+01 9.394705823882985385e+01 9.364603415543388110e+01 9.318970637629711007e+01 9.203698317348202806e+01 9.030204966783246334e+01 9.165225549848909736e+01 9.324691297673115287e+01 9.480896071496952970e+01 9.622500880802124357e+01 9.742648722142057238e+01 9.828581033034487291e+01 9.877371714486149301e+01 9.904646542504089268e+01 9.915581517961143732e+01 9.918835519731314321e+01 9.921319097012836608e+01 9.927527455229090947e+01 1.005684295044690089e+02 1.018011152037675942e+02 1.030373947324290782e+02 1.042618781432917530e+02 1.054697913686309931e+02 1.066533548746053981e+02 1.077837359924845231e+02 1.092909062395500825e+02 1.107090424903177563e+02 1.120293027911569794e+02 1.132307520315604847e+02 1.142922545387991278e+02 1.151886324488304609e+02 1.158912599393121212e+02 1.163303813319575397e+02 1.164694409370475796e+02 1.163157775725282477e+02 1.158641267007959925e+02 1.151394932011301506e+02 1.141946999635758573e+02 1.130777549938525794e+02 1.117292041998939141e+02 1.101628948522827898e+02
1.158987543545266874e+02 1.149665178835112158e+02 1.139850640120003220e+02 1.129661435259555162e+02 1.119195853511670293e+02 1.108533023511550510e+02 1.097733821842826529e+02 1.086850380372085851e+02 1.075923177291504658e+02 1.064981594816952111e+02 1.054052549955641354e+02 1.043152743727341374e+02 1.032282852669606115e+02 1.021538580265563070e+02 1.010901198226153781e+02 1.000252334301876687e+02 9.894892269753138692e+01 9.783875729307222002e+01 9.668477614646894835e+01 9.547705642441823670e+01 9.420894079949202649e+01 9.288191699047465022e+01 9.151305353471600768e+01 9.013941148925383118e+01 8.879620513688998074e+01 9.012542803882467979e+01 9.085936191304070064e+01 9.098523833400663818e+01 9.110815744447377540e+01 9.123426953007637508e+01 9.136360603059986829e+01 9.149397794019459695e+01 9.162135067269308308e+01 9.174060805346051950e+01 9.184687500797272719e+01 9.193697014932951106e+01 9.201045105579922279e+01 9.206958774736462203e+01 9.211541562372394765e+01 9.212026128126689173e+01 9.319468882008891342e+01 9.378061107647833694e+01 9.391199525753788180e+01 9.421221449254358049e+01 9.629677758329545156e+01 9.832751430423671479e+01 1.002930843824720739e+02 1.021656055939491381e+02 1.039221876856957181e+02 1.055390754535295912e+02 1.069895628958666975e+02 1.082425157129101052e+02 1.092606837188914284e+02 1.099980734297055562e+02 1.104200781701295853e+02 1.104811603461323557e+02 1.102040971100766598e+02 1.096042422941442993e+02 1.086903060933679512e+02 1.075024517789129561e+02 1.060598157267234996e+02 1.046616644259184596e+02 1.030574604755005197e+02 1.013089888997041896e+02 9.942069846739650529e+01 9.774101278540479143e+01 9.594391905812622667e+01 9.410534506396643906e+01 9.478851029971258413e+01 9.539081807452356543e+01 9.587236142651791226e+01 9.628885988906844773e+01 9.659637040757483817e+01 9.676329903627096485e+01 9.674759369300646483e+01 9.646021307380121357e+01 9.554537868402572087e+01 9.417039240420412227e+01 9.244235991019012033e+01 9.228196926863014937e+01 9.197695886746187455e+01 9.150076823289667516e+01 9.030648957330171811e+01 8.857453687999424119e+01 9.022132973116063681e+01 9.186097908320886063e+01 9.340714046777354440e+01 9.477453530297121631e+01 9.584564156875029539e+01 9.649587483926654841e+01 9.684579455998061803e+01 9.701845982794888812e+01 9.706478082084744585e+01 9.706738276099351026e+01 9.708619318652930019e+01 9.842290877154937334e+01 9.968953757924613512e+01 1.009550705209909438e+02 1.022051884912723665e+02 1.034369212631417696e+02 1.046457784375290743e+02 1.058059306569080604e+02 1.074672736693629957e+02 1.090175829500001896e+02 1.104651148984205946e+02 1.117991706932066052e+02 1.130012575918440234e+02 1.140472531833819119e+02 1.149055932527478063e+02 1.155260247027563736e+02 1.158891349356087801e+02 1.159446232844196203e+02 1.156837164152030795e+02 1.151520267631990180e+02 1.143384567541270798e+02 1.132718478352355902e+02 1.120169307575743289e+02 1.106109918101486471e+02 1.089922475154049692e+02
1.152926292537933790e+02 1.143271853579761625e+02 1.133129605074471726e+02 1.122620293127700677e+02 1.111841029331236825e+02 1.100871033153004248e+02 1.089773169709469585e+02 1.078595475464792202e+02 1.067379242408619575e+02 1.056156520216466674e+02 1.044949942170571973e+02 1.033779172620797766e+02 1.022653368835891285e+02 1.011564285651583930e+02 1.000595235126769182e+02 9.897123586762141656e+01 9.787794766702343452e+01 9.676728373042124076e+01 9.561422304393519767e+01 9.440512971746569804e+01 9.312516284532016186e+01 9.176389145785361734e+01 9.032811933198864551e+01 8.885313924424099241e+01 8.737757615472372663e+01 8.854277851192476589e+01 8.909443991904427662e+01 8.916190344404581936e+01 8.926044034726072596e+01 8.937584546855022438e+01 8.950200728583411092e+01 8.963426224665845155e+01 8.976641838707071486e+01 8.989091735063063027e+01 9.000025185332135891e+01 9.008867019003967869e+01 9.015337717284056396e+01 9.019498072020817858e+01 9.021783178783617529e+01 9.022529103821017316e+01 9.139540133856424120e+01 9.197323314755645640e+01 9.197011658991188199e+01 9.391693827316360910e+01 9.602874201790297093e+01 9.809686110340388154e+01 1.000842088759383444e+02 1.019655808621355959e+02 1.037155895760235467e+02 1.053079943692406601e+02 1.067155761524858377e+02 1.079081430689189318e+02 1.088494421363163838e+02 1.095087906164371390e+02 1.098527979916569137e+02 1.098381275833454680e+02 1.094578404050580929e+02 1.087900860736463216e+02 1.078314341043040230e+02 1.065936416753568210e+02 1.051149517359754952e+02 1.034093638988769897e+02 1.017977831222438141e+02 9.999663832509965289e+01 9.807559227485457143e+01 9.603781033935781863e+01 9.423903918369255450e+01 9.231681573080531678e+01 9.299738225988313900e+01 9.360674010944092061e+01 9.410605251571620045e+01 9.454550875310977176e+01 9.487790539335645690e+01 9.507097762747946490e+01 9.508274634598684827e+01 9.482542044565218475e+01 9.391420785685032513e+01 9.252343194499394485e+01 9.076584163766723634e+01 9.061672995363959160e+01 9.031725830390364251e+01 8.983905369025873711e+01 8.863021637576095202e+01 8.689908895713226400e+01 8.868654085594950232e+01 9.038128717894578301e+01 9.192248452639192635e+01 9.319225273608296334e+01 9.408184659670752126e+01 9.455181797163407964e+01 9.477595051059255127e+01 9.486242904451387403e+01 9.485904431879882281e+01 9.484095248262660505e+01 9.622538579656850288e+01 9.752811911098778808e+01 9.882322473267436180e+01 1.000973055903442912e+02 1.013486950837658327e+02 1.025742238729717997e+02 1.037432293636453835e+02 1.054886500102354603e+02 1.071526821921935664e+02 1.087235409272918076e+02 1.101870864925006401e+02 1.115274970956584042e+02 1.127242295672443930e+02 1.137509106463555923e+02 1.145737750022356920e+02 1.151482987791076056e+02 1.154379731478261277e+02 1.154035009504418525e+02 1.150441823369915397e+02 1.143927673157367906e+02 1.134960812730437567e+02 1.123366798854613506e+02 1.109456787047966060e+02 1.094002556284809771e+02 1.077252215396876238e+02
1.146644374362050769e+02 1.136651928063360089e+02 1.126181386204410586e+02 1.115355566232805842e+02 1.104272457124054512e+02 1.093008576200270028e+02 1.081625266574156825e+02 1.070171292315084770e+02 1.058684562270630209e+02 1.047198602810123305e+02 1.035739764389644222e+02 1.024325986354487839e+02 1.012971111113024278e+02 1.001677158006305319e+02 9.904262832820219842e+01 9.792874863636804150e+01 9.682091397456177617e+01 9.570340171875129442e+01 9.456120559123573344e+01 9.336575432167514066e+01 9.209705663603240566e+01 9.072794631425688294e+01 8.923577311691803970e+01 8.764731784007514648e+01 8.604153306718819749e+01 8.689394721724420378e+01 8.726976508039086866e+01 8.729628440006263190e+01 8.738454956364414272e+01 8.749539906865068417e+01 8.762188710667810199e+01 8.775908082988553360e+01 8.789910548566962234e+01 8.803185250205736168e+01 8.814694848491824075e+01 8.823603218956644412e+01 8.829424019598488371e+01 8.832077742910688301e+01 8.832437630906838422e+01 8.834136061352639047e+01 8.958969638406340152e+01 9.025223519525410154e+01 9.067048677614010899e+01 9.338053700088175901e+01 9.574536071258964398e+01 9.791629179530612248e+01 9.994209775170983789e+01 1.018276754428693636e+02 1.035579049171497275e+02 1.051104070587833093e+02 1.064601270264263775e+02 1.075784359209877152e+02 1.084117746614754196e+02 1.089855134891847399e+02 1.092474830756445670e+02 1.091620585089564202e+02 1.087158260624900379e+02 1.079419222568331946e+02 1.069277501589515396e+02 1.056508423076123222e+02 1.041260507868951350e+02 1.023895523468957549e+02 1.004503452651633637e+02 9.864758148654021852e+01 9.667182288320678651e+01 9.460418318002298577e+01 9.245229307945602670e+01 9.053645033266384701e+01 9.119217626648442376e+01 9.179922876208343041e+01 9.231618334645203561e+01 9.278028116347657317e+01 9.313883987071952220e+01 9.335912297206856181e+01 9.339995065100953298e+01 9.317460959749685401e+01 9.227026115277980978e+01 9.086747037807286631e+01 8.908468519537345287e+01 8.895150376056885477e+01 8.866482306725615103e+01 8.819450341951963424e+01 8.697826567314946544e+01 8.523609315525479246e+01 8.711242342777300962e+01 8.884552304602038930e+01 9.032614072891591661e+01 9.147166377475191723e+01 9.213362808739601917e+01 9.245468063688269922e+01 9.256971229346943630e+01 9.258309699465326048e+01 9.253868646863298864e+01 9.397778940548251114e+01 9.532096341210748847e+01 9.664741455236580236e+01 9.794517148769841697e+01 9.921423092702484325e+01 1.004529801870421579e+02 1.016259127098542621e+02 1.034577756637093700e+02 1.052155374135902406e+02 1.068944928956619691e+02 1.084779790661747683e+02 1.099488687670990998e+02 1.112879410558668241e+02 1.124719286500558297e+02 1.134720278918828313e+02 1.142523045310885834e+02 1.147664122854960169e+02 1.149719118819576380e+02 1.148407231972844187e+02 1.143809108857418835e+02 1.136214108718997835e+02 1.125974696972586031e+02 1.113540657942514258e+02 1.098689312678088186e+02 1.081749135416263528e+02 1.063616773257709411e+02
1.140109537435197069e+02 1.129770087839492163e+02 1.118967935452788680e+02 1.107828518438942353e+02 1.096449044420857888e+02 1.084904264291691618e+02 1.073250980709415643e+02 1.061535063313115614e+02 1.049794596848008155e+02 1.038061104070463045e+02 1.026363931066845510e+02 1.014726586485824811e+02 1.003164290974755204e+02 9.916862102813539082e+01 9.802871682201087822e+01 9.689385205696284231e+01 9.576928880672335254e+01 9.464792792098167240e+01 9.351196454386146684e+01 9.234402322065699309e+01 9.111253935582027452e+01 8.978908536937272800e+01 8.830288568702488305e+01 8.658305169737263896e+01 8.478211366404075022e+01 8.506859374980757593e+01 8.532073289199101396e+01 8.538646412119111062e+01 8.548511493822483942e+01 8.559546759474642386e+01 8.572463544255901979e+01 8.586965493545646666e+01 8.602089272444381152e+01 8.616527931873730495e+01 8.628912076181967450e+01 8.638131879899007970e+01 8.643517688939222410e+01 8.644627837767306744e+01 8.641671117974766503e+01 8.643972527541983197e+01 8.776129641818957339e+01 8.830136670517156006e+01 9.081459789930059401e+01 9.328578330368168281e+01 9.561161721267413327e+01 9.778166163134750377e+01 9.979934338649121628e+01 1.016584027606025131e+02 1.033432290505606659e+02 1.048332568170935133e+02 1.061059267734832616e+02 1.071373317675650725e+02 1.079105478853595770e+02 1.084120775033519664e+02 1.085835840639468017e+02 1.084403883414786236e+02 1.079371264238832850e+02 1.071095037886282597e+02 1.059871028735828276e+02 1.046650461341073850e+02 1.031050332791621003e+02 1.013253644693542839e+02 9.935979521008992776e+01 9.721266166504108241e+01 9.523905164610849283e+01 9.311347769391532836e+01 9.093738105145570216e+01 8.876434295012693099e+01 8.936428155200881918e+01 8.996318720983182970e+01 9.050299667962748629e+01 9.099518120411531186e+01 9.138119233960142651e+01 9.162942874055772791e+01 9.170052083143563948e+01 9.150898827786180334e+01 9.061465094698020550e+01 8.920339230514295537e+01 8.739934455508220879e+01 8.728597204143434851e+01 8.701759231475722345e+01 8.656113182627900926e+01 8.534025942050305957e+01 8.358087396647930234e+01 8.552389387155358236e+01 8.723078401866965237e+01 8.862086203569046461e+01 8.956777907574647202e+01 9.003181464724804073e+01 9.021376885197588535e+01 9.023328365596722733e+01 9.017974983128350175e+01 9.168190764606887910e+01 9.307184323677769555e+01 9.443300626524072072e+01 9.575518032419456915e+01 9.704065938788086498e+01 9.829016645795788065e+01 9.946391441968881963e+01 1.013798538591150731e+02 1.032271172506470407e+02 1.050034198164794077e+02 1.066952679817658520e+02 1.082862468708747912e+02 1.097575890178481330e+02 1.110875394480283802e+02 1.122501504637329930e+02 1.132140088853605562e+02 1.139408511874054852e+02 1.143840949607726998e+02 1.144877182501626720e+02 1.142435986293783259e+02 1.136855432461465654e+02 1.128210910738388435e+02 1.116826230455848901e+02 1.103086643925076658e+02 1.087407982778821918e+02 1.069537094552588883e+02 1.049815963412378039e+02
1.133283489166025362e+02 1.122585185767081839e+02 1.111446253973584390e+02 1.099994838567275224e+02 1.088326909278867731e+02 1.076513757892017935e+02 1.064607196304898054e+02 1.052646648264085059e+02 1.040666616887291696e+02 1.028699457100848207e+02 1.016774821313748021e+02 1.004921501858600550e+02 9.931628693865272339e+01 9.815132818516674718e+01 9.699780081452500724e+01 9.585438961397585445e+01 9.471696911831828913e+01 9.358901998741282569e+01 9.246169033136521875e+01 9.131596932063551719e+01 9.013444379238899273e+01 8.888994706886056463e+01 8.757784572823720737e+01 8.626195956263332221e+01 8.464523891219620566e+01 8.282352384363983333e+01 8.317249729012739579e+01 8.346066335331221353e+01 8.357342133999776479e+01 8.367873624978302871e+01 8.381108778104784562e+01 8.396670770345286883e+01 8.413284200702393889e+01 8.429272726825975326e+01 8.442857658256330922e+01 8.452634935345597000e+01 8.457907743471179174e+01 8.457798609223041808e+01 8.447822010990449826e+01 8.449681353855065424e+01 8.594346740446754040e+01 8.856845164661351077e+01 9.105583694017931862e+01 9.344253533511265175e+01 9.570592728970500218e+01 9.782864974682875925e+01 9.979708643458279482e+01 1.015953029713580094e+02 1.032037060883846920e+02 1.046009633258043721e+02 1.057648100860163680e+02 1.066621760750009145e+02 1.073479097619506035e+02 1.077602008186014899e+02 1.078509375026121120e+02 1.076621508976737687e+02 1.071140071791579516e+02 1.062410911388132746e+02 1.050742653723970932e+02 1.036414254010056339e+02 1.020450749091169911e+02 1.002340413503906547e+02 9.822920041043914807e+01 9.606012669958440142e+01 9.372665712283698269e+01 9.159712313903338554e+01 8.933107141291026210e+01 8.701582725199264701e+01 8.749561602857650655e+01 8.808999063893465120e+01 8.866870110451363018e+01 8.919360242687176310e+01 8.960737104511008511e+01 8.988347906002586285e+01 8.998558876449673960e+01 8.982954545824360082e+01 8.894827959265018080e+01 8.753190712264868978e+01 8.571019905049448084e+01 8.561991224945650458e+01 8.537453084378647361e+01 8.493696776171239549e+01 8.371482179066371998e+01 8.193729646520662868e+01 8.389473603447257233e+01 8.554393769955105142e+01 8.679493853143172544e+01 8.748175857212241624e+01 8.777503954620445370e+01 8.783200076421049118e+01 8.776748104956331531e+01 8.933949883126618374e+01 9.078405865816775133e+01 9.218527140417755561e+01 9.353381733117437591e+01 9.483485728747025689e+01 9.609248055575818626e+01 9.726392583407084658e+01 9.926574378914001784e+01 1.012010414664644316e+02 1.030703211500516403e+02 1.048628779877943771e+02 1.065647030665370067e+02 1.081585262577436026e+02 1.096238781488094105e+02 1.109366016030110842e+02 1.120679145302888458e+02 1.129832443933407546e+02 1.136408748299464122e+02 1.139895145207147635e+02 1.139845973794959946e+02 1.136257051508792273e+02 1.129468975509764306e+02 1.119827918447416266e+02 1.107372874374218981e+02 1.092445500848599949e+02 1.075462141805866025e+02 1.056795512041598499e+02 1.036174923519276518e+02
1.126115735046897441e+02 1.115052982909361816e+02 1.103567194851868152e+02 1.091805192616494793e+02 1.079856025371104664e+02 1.067789406129683840e+02 1.055648367460187131e+02 1.043463777775436512e+02 1.031262174005928216e+02 1.019073424842889608e+02 1.006930341556248152e+02 9.948649420332264981e+01 9.829084891626182241e+01 9.710869927905227428e+01 9.594159751592493990e+01 9.478968238906406896e+01 9.365060528025720998e+01 9.251869175805876466e+01 9.139560851209934356e+01 9.027132064009450119e+01 8.912688570819993572e+01 8.794647705987578945e+01 8.670682584382528546e+01 8.540293027273490623e+01 8.411663300652496389e+01 8.249707330876307765e+01 8.077882485870422613e+01 8.165924152944823788e+01 8.166008616352566207e+01 8.174448857064037099e+01 8.188080447731039158e+01 8.205038329388337104e+01 8.223565394315303934e+01 8.241557410727914146e+01 8.256700211486187868e+01 8.267210284107642337e+01 8.272790344415201957e+01 8.273961848297189192e+01 8.247616204577963117e+01 8.449009342373248899e+01 8.661783222272902094e+01 8.896738788648694651e+01 9.133110185887477428e+01 9.362961980337232148e+01 9.581900159530358962e+01 9.787028803206314365e+01 9.976037251426524222e+01 1.014675366789094539e+02 1.029697302820567018e+02 1.042449303422312852e+02 1.052564836394170840e+02 1.060869072234712576e+02 1.066863216128353429e+02 1.070129994408944185e+02 1.070352240965681716e+02 1.068168797317188137e+02 1.062384552535479258e+02 1.053330542925074980e+02 1.041289159513592892e+02 1.026575346855685780e+02 1.009477822817265746e+02 9.910958439903339467e+01 9.708108898814545284e+01 9.488165864026444751e+01 9.252816356587409530e+01 9.002005656282753421e+01 8.773253684353586834e+01 8.528856151844320266e+01 8.554241880839120427e+01 8.616261520920662065e+01 8.682168912285358431e+01 8.738127500544372595e+01 8.781995823699445225e+01 8.812255448213080911e+01 8.825596263040648637e+01 8.813704784180126239e+01 8.727191762577380985e+01 8.585365871771679736e+01 8.401764966346669894e+01 8.395319311885778291e+01 8.373521466114321754e+01 8.332239167249488787e+01 8.210462486041427610e+01 8.031131881385789484e+01 8.224128247415633552e+01 8.378178912255107491e+01 8.479637713256508391e+01 8.524544594413285381e+01 8.536744745842324278e+01 8.530335984094077162e+01 8.694946501213144074e+01 8.845806313765051243e+01 8.990841830270586854e+01 9.128790099906323974e+01 9.260420068295701412e+01 9.386657039392686386e+01 9.503135420114956844e+01 9.710730771551629914e+01 9.912391299725564409e+01 1.010808691563697579e+02 1.029684122891073628e+02 1.047740791585618467e+02 1.064822801303762532e+02 1.080741151880920938e+02 1.095271257182512699e+02 1.108147082856471002e+02 1.119051713061485742e+02 1.127605254217287154e+02 1.133352315160098698e+02 1.135779387544840660e+02 1.134571008405960555e+02 1.129814892167874234e+02 1.121821942063772752e+02 1.110942297255636220e+02 1.097505551156381216e+02 1.081514227593353468e+02 1.063324075482613011e+02 1.043383722913679605e+02 1.022018162872331715e+02
1.118516632546436966e+02 1.107142780961301440e+02 1.095273096878687795e+02 1.083206299659643861e+02 1.070978737174764603e+02 1.058676427328750691e+02 1.046325176264581529e+02 1.033943144284808966e+02 1.021543251757032209e+02 1.009149128170412837e+02 9.967954333171869052e+01 9.845205941266621608e+01 9.723608877995826560e+01 9.603531126266085494e+01 9.485303992271683171e+01 9.369116110367761507e+01 9.254917098153833876e+01 9.142308553576394559e+01 9.030517695610816986e+01 8.919534333785462366e+01 8.808300332478117411e+01 8.694951448443310937e+01 8.577735263925909237e+01 8.452920583955447853e+01 8.312402490874700334e+01 8.147456978382587067e+01 7.950703396973301551e+01 7.975144763606859044e+01 7.969889948919906431e+01 7.978431023254317722e+01 7.993233188843275627e+01 8.012042644821799797e+01 8.032971195837239975e+01 8.053524484473553002e+01 8.070644893705576806e+01 8.081817971139322765e+01 8.087290876724379984e+01 8.100161945694974008e+01 8.126835141700603060e+01 8.417021094718099050e+01 8.673166133905687047e+01 8.917197645183297539e+01 9.152194791597273138e+01 9.376741602535560105e+01 9.588454632901728303e+01 9.784898446406410244e+01 9.963738042703384679e+01 1.012266069314063657e+02 1.025940743452651560e+02 1.036975899094348676e+02 1.046472670781127619e+02 1.053966480901508902e+02 1.059190189350722449e+02 1.061497646926794118e+02 1.061228688525304165e+02 1.058950217390361814e+02 1.053043480324146657e+02 1.043812625437716690e+02 1.031514324496509545e+02 1.016457418383527624e+02 9.990006984326825545e+01 9.794738041038154108e+01 9.590590986062365175e+01 9.370609703179395922e+01 9.134448973041493502e+01 8.877438283821444998e+01 8.614594678164608865e+01 8.359622992415270915e+01 8.340820755671562381e+01 8.411864631543214443e+01 8.506121356358610797e+01 8.556901772467732314e+01 8.602102782944145076e+01 8.634727923861790089e+01 8.651195052556414566e+01 8.643201428283748555e+01 8.558630518311694857e+01 8.416934081721733207e+01 8.232216379991616861e+01 8.228557850118437500e+01 8.209902143001330899e+01 8.171861825851986794e+01 8.051470910801528191e+01 7.871276414469787142e+01 8.056545460965979544e+01 8.193187800377195629e+01 8.262656835885026396e+01 8.285166926188992420e+01 8.280146831802150587e+01 8.450594728484824714e+01 8.608528867181267685e+01 8.760156458401874602e+01 8.902395444053190943e+01 9.035835915791429329e+01 9.162097422801585367e+01 9.277081824050058856e+01 9.492225442542398639e+01 9.701485067883307067e+01 9.905309904666290777e+01 1.010298335289629676e+02 1.029338106575182366e+02 1.047503917590680800e+02 1.064617899261158129e+02 1.080469775871059852e+02 1.094812582966378329e+02 1.107354724359226026e+02 1.117748021557763565e+02 1.125570022032492687e+02 1.130268141524740031e+02 1.131445878178333970e+02 1.128921043788667475e+02 1.123030772186233861e+02 1.113859970963828943e+02 1.101760445704498039e+02 1.087091418787206578e+02 1.070158151545320493e+02 1.050936763116911976e+02 1.029796607336083980e+02 1.007218432974316045e+02
1.110099138443616340e+02 1.098954486913125947e+02 1.086457182188070902e+02 1.074158029175245588e+02 1.061621075749370249e+02 1.049111454112256467e+02 1.036578449730914571e+02 1.024039078446428306e+02 1.011473784379727903e+02 9.988959241302907799e+01 9.863426396197735357e+01 9.738618524592180847e+01 9.614946532504298204e+01 9.492815447255675565e+01 9.372734394743385167e+01 9.255187497608463332e+01 9.140391212458413861e+01 9.028135608897173370e+01 8.917727995364545279e+01 8.808115001688099710e+01 8.699144456654883584e+01 8.589796808716540966e+01 8.478291657477421950e+01 8.362910730744731325e+01 8.240992104257577466e+01 8.115520877850306647e+01 7.949682592124703717e+01 7.758680943791198104e+01 7.768250910219934724e+01 7.779976123813926847e+01 7.796629858319708717e+01 7.817658801334303575e+01 7.841501176595946276e+01 7.865337395034049450e+01 7.885060657891470726e+01 7.896609196121114849e+01 7.895765686379040460e+01 7.908636506270666189e+01 8.169185497660032524e+01 8.433493857411906447e+01 8.688480951730954871e+01 8.932338379381344851e+01 9.164225724022954012e+01 9.382699585966290101e+01 9.585863278428443834e+01 9.771642313383503620e+01 9.937813524145597910e+01 1.008211510107577880e+02 1.019967253355447241e+02 1.030433289394058392e+02 1.039144546510629965e+02 1.045879080013079943e+02 1.050125372005967961e+02 1.051636850256895173e+02 1.051044602673653117e+02 1.048884164035671489e+02 1.043075558076510987e+02 1.033842363649003602e+02 1.021415521877384833e+02 1.006099826453438766e+02 9.882740153518717818e+01 9.683770761769109470e+01 9.468217457790083813e+01 9.249539243014973522e+01 9.023988167265964933e+01 8.807059303543185536e+01 8.566939404739427744e+01 8.323818893235407756e+01 8.086004807689448626e+01 8.254220683492971489e+01 8.327877316023422338e+01 8.375187879227347310e+01 8.420992899581239044e+01 8.455728456063867782e+01 8.475316007756299541e+01 8.471466927890446641e+01 8.389242554597798573e+01 8.247993610334052050e+01 8.062432539317137525e+01 8.061656934630566695e+01 8.046414576592850665e+01 8.012579771554472075e+01 7.895068513499928997e+01 7.715460091519452135e+01 7.886985363675678684e+01 7.994368109309206716e+01 8.032452135188451336e+01 8.030455917821274170e+01 8.200707786321702031e+01 8.364108781350310551e+01 8.524861093175213966e+01 8.674520991277452708e+01 8.810987225817751778e+01 8.937167310765292427e+01 9.049750848604126929e+01 9.268366147935080335e+01 9.483206869802999961e+01 9.693859301852054955e+01 9.899465514202796612e+01 1.009894687162889397e+02 1.029083147166127077e+02 1.047332737739157267e+02 1.064438068833295574e+02 1.080166250467971025e+02 1.094249906889510555e+02 1.106376501050895769e+02 1.116175154572767099e+02 1.123200954917632401e+02 1.126914895362484970e+02 1.126859303251541462e+02 1.123035750660868359e+02 1.115789197189746460e+02 1.105510134053841398e+02 1.092244699281566653e+02 1.076366011810550560e+02 1.058236958633313662e+02 1.038135692547784004e+02 1.016022486535419205e+02 9.922797232450344040e+01
1.107499859783951592e+02 1.091062013889501117e+02 1.076593751357592197e+02 1.064781534724707228e+02 1.051637467749984864e+02 1.039034776554052542e+02 1.026325506628252953e+02 1.013699842282625525e+02 1.001020208983387221e+02 9.882900649711361041e+01 9.755469428144395749e+01 9.628682858205472428e+01 9.502988112945112675e+01 9.378659834402394324e+01 9.256287953383123579e+01 9.136753472507028562e+01 9.020761379463876040e+01 8.908447090722438588e+01 8.799200122912614574e+01 8.691797602200723816e+01 8.584869245140863825e+01 8.478290869920809314e+01 8.371278781264300051e+01 8.262338383642533302e+01 8.150228946907556349e+01 8.032764952082101217e+01 7.912984063069698948e+01 7.753676359758412673e+01 7.566748744940274207e+01 7.580302817478178667e+01 7.598463396261892910e+01 7.621817615171033822e+01 7.649073989108143223e+01 7.677158038501497117e+01 7.700617548993120920e+01 7.714494466888089619e+01 7.695233280223099825e+01 7.931575052118878943e+01 8.190458370631175455e+01 8.450286457045623933e+01 8.702236964274547404e+01 8.942318783620997635e+01 9.168266752096330663e+01 9.378215651095746352e+01 9.570292175254560618e+01 9.742655297386691871e+01 9.893181391052986839e+01 1.001628661131426412e+02 1.012883871000711054e+02 1.022597119273701622e+02 1.030584217585359568e+02 1.036366240879417688e+02 1.039499097085685975e+02 1.040439815496186213e+02 1.039713705409842248e+02 1.037878732702648392e+02 1.032468441124300540e+02 1.023433510745762192e+02 1.011026315907528215e+02 9.955416358371748231e+01 9.773741801122334039e+01 9.570063557775418417e+01 9.349775621594822894e+01 9.117800142860929213e+01 8.888591052024455053e+01 8.656956953673771693e+01 8.436192261842815299e+01 8.187593688172560746e+01 7.911575174259957066e+01 8.073429863667166728e+01 8.145285682735621435e+01 8.191589414790212231e+01 8.238347778371634433e+01 8.275152922009270640e+01 8.297824678954978594e+01 8.298464682210190801e+01 8.219244802604733025e+01 8.078729710400043018e+01 7.892485495327504452e+01 7.894549224706338464e+01 7.882654946941129026e+01 7.853978467004280617e+01 7.741545986724217698e+01 7.565321205791789794e+01 7.715542113421822989e+01 7.783895997746849105e+01 7.789601422869267822e+01 7.945678535745346949e+01 8.110182196585995484e+01 8.279278044040607654e+01 8.445008130910272826e+01 8.587873179569825766e+01 8.713829946804190740e+01 8.823535251359091092e+01 9.044413500513583415e+01 9.262766610680981216e+01 9.478463930069888477e+01 9.690625469141929216e+01 9.898230387058143265e+01 1.009988058236572499e+02 1.029350617984501071e+02 1.047681888395796506e+02 1.064744826155535264e+02 1.080286464139439033e+02 1.094023622470488419e+02 1.105626530351963908e+02 1.114703917244907814e+02 1.120789464446115744e+02 1.123321188739383842e+02 1.121968480926108640e+02 1.116846933196222693e+02 1.108285551182880795e+02 1.096644080982049871e+02 1.082320300201084393e+02 1.065311433733292574e+02 1.046007635668061226e+02 1.024775712612325549e+02 1.001866360779664120e+02 9.772319612424811908e+01
1.106914367128260608e+02 1.091159615071506153e+02 1.074548232166132777e+02 1.055802034356394330e+02 1.040325061890086573e+02 1.028562521131631371e+02 1.015384405979507676e+02 1.002877041155166467e+02 9.901455268685494104e+01 9.773284184949191911e+01 9.643862853294548643e+01 9.515086325544213253e+01 9.387692924533904204e+01 9.261288836126662716e+01 9.136172474250729181e+01 9.013770796473779967e+01 8.895551807186271276e+01 8.782375072165415020e+01 8.673980814547022078e+01 8.568813824804723822e+01 8.464820674275661361e+01 8.360595653365037094e+01 8.256452029280052329e+01 8.152012263246112411e+01 8.046095650197484872e+01 7.937724083714029177e+01 7.824926610118011183e+01 7.711986401214917919e+01 7.559155782148799574e+01 7.378513255462701181e+01 7.398680370252091620e+01 7.424326555682281992e+01 7.455459184823017438e+01 7.489034998228669338e+01 7.517388256225184762e+01 7.543583002701214468e+01 7.576437450360194248e+01 7.904005880082836200e+01 8.192563760804675610e+01 8.459854281345550930e+01 8.710472448409022661e+01 8.944798461508672460e+01 9.161825243116312834e+01 9.359980043640314307e+01 9.537375375729254756e+01 9.692882295783955726e+01 9.820150052561085374e+01 9.939209521694662897e+01 1.004467370355967262e+02 1.013491448280937277e+02 1.020636717712223742e+02 1.025012798990329230e+02 1.027311204279167072e+02 1.027864607307008669e+02 1.027175319388604322e+02 1.025780325938590352e+02 1.021295668977062832e+02 1.012630178625681481e+02 1.000416080765996583e+02 9.848726154573611780e+01 9.663937379425335905e+01 9.455043730884179354e+01 9.228091393815974186e+01 8.989192582894172290e+01 8.743105231437019143e+01 8.503250548718453672e+01 8.260819358661473188e+01 8.023536525623326554e+01 7.741020427666110493e+01 7.894518446797313516e+01 7.959885334068275142e+01 8.005952256033370418e+01 8.054175757584728501e+01 8.092983176130302070e+01 8.118482618548665641e+01 8.123831509432177711e+01 8.049327138996656572e+01 7.909511687093468879e+01 7.722515629636069434e+01 7.727093655753550649e+01 7.717934596210307063e+01 7.694578186918606377e+01 7.589969568910336761e+01 7.422971770502468303e+01 7.539814563645199996e+01 7.568554986527517769e+01 7.782571465331292870e+01 7.956360497331348824e+01 8.112200082291184344e+01 8.254481334446928997e+01 8.374695996619743710e+01 8.495264578525170407e+01 8.600391704527855552e+01 8.821328778589347053e+01 9.041306254367877671e+01 9.260196166167638410e+01 9.477222228724899367e+01 9.691448810852608631e+01 9.901856828326062043e+01 1.010688107993859433e+02 1.030300511734320423e+02 1.048723101044574548e+02 1.065697903111904310e+02 1.080967113143838105e+02 1.094242935977715661e+02 1.105185292605386707e+02 1.113382720320122559e+02 1.118340370791801490e+02 1.119469108574199083e+02 1.116652394551582290e+02 1.110276882134056819e+02 1.100438426095042530e+02 1.087505864351799403e+02 1.071842117973778841e+02 1.053845707144806312e+02 1.033472217656136252e+02 1.011128058506381535e+02 9.871824854034977648e+01 9.618573742124908676e+01
1.107057263410099210e+02 1.091478415075683586e+02 1.074719955090768053e+02 1.056855736412415894e+02 1.038617541355045688e+02 1.018547545846839029e+02 1.002871024163312796e+02 9.916969941805041344e+01 9.787344211335754096e+01 9.660862775855838436e+01 9.528612114393146726e+01 9.397052050909780974e+01 9.268723831928133450e+01 9.141314677376486486e+01 9.013117156179352207e+01 8.886723105886976271e+01 8.764734019388642139e+01 8.649123901681473114e+01 8.540800615889600067e+01 8.438259259538286017e+01 8.337719863670605491e+01 8.236630697629944109e+01 8.134676617251705011e+01 8.032851098929788236e+01 7.931064812568045852e+01 7.828229774279466824e+01 7.723602275145617568e+01 7.615792698514015058e+01 7.511200072616905743e+01 7.368953822396058229e+01 7.196371359755283947e+01 7.224899450182030591e+01 7.260218216847441397e+01 7.301047183295212051e+01 7.331321470194643553e+01 7.355824909651863663e+01 7.647574418870229351e+01 7.937782429060735012e+01 8.213645913238453034e+01 8.472771669641127801e+01 8.714493562289675310e+01 8.937948152562701409e+01 9.141723390820028783e+01 9.323978432546566353e+01 9.481576480072094171e+01 9.611449885302366170e+01 9.736025021054604167e+01 9.848688401185609109e+01 9.947706466728351415e+01 1.002963159636525461e+02 1.008738485484527132e+02 1.011926874786089172e+02 1.013561708516273399e+02 1.013905603666479038e+02 1.013435773287393573e+02 1.012681610764162201e+02 1.009245511947499239e+02 1.001531339135723897e+02 9.896828515713224306e+01 9.742279030391337358e+01 9.554792259663794596e+01 9.340077203060083377e+01 9.105225284944336295e+01 8.857245372116372550e+01 8.602261874288701904e+01 8.343960734036153326e+01 8.093755124982482130e+01 7.837588792921287961e+01 7.570834418957775824e+01 7.712269245375294702e+01 7.769319891530763300e+01 7.818273117204587663e+01 7.868916628742177011e+01 7.909412742077422820e+01 7.937227432795343418e+01 7.945780159373163087e+01 7.882013855856382634e+01 7.740779313959295393e+01 7.552626769710971644e+01 7.559304532608507543e+01 7.551508635700599825e+01 7.530789703424206039e+01 7.434951430405638462e+01 7.291014156370734156e+01 7.356810865109234499e+01 7.573544401904105428e+01 7.761704240539084765e+01 7.919453640132834948e+01 8.051134089176818520e+01 8.164531109888318383e+01 8.283212381927296519e+01 8.383499003205514555e+01 8.598460239791700133e+01 8.816563311438497408e+01 9.036391266385663812e+01 9.256459242821175337e+01 9.475597520814571340e+01 9.692599861444837472e+01 9.907007790073598130e+01 1.011853682801467471e+02 1.031841205862376825e+02 1.050335377527535030e+02 1.067128427777357018e+02 1.081996741209973436e+02 1.094667112448911581e+02 1.104797468172858856e+02 1.111961301653573599e+02 1.115648674231902220e+02 1.115342514545088477e+02 1.111075046346511499e+02 1.103214546489189871e+02 1.092177769584158966e+02 1.078006402461463438e+02 1.061094623229299856e+02 1.041804619738330615e+02 1.020536138099118944e+02 9.972117171594723573e+01 9.722490369758605766e+01 9.460122085235522604e+01
1.107875217058201684e+02 1.092448587047479833e+02 1.075705543544885359e+02 1.057834795074194005e+02 1.039073118087835184e+02 1.020120134250288686e+02 1.001446788440053126e+02 9.810832029849575520e+01 9.658559361957094325e+01 9.550005180474568078e+01 9.410936103596201008e+01 9.272767997404014295e+01 9.143905824744463473e+01 9.020217546606254189e+01 8.888627402908338127e+01 8.756802053113723616e+01 8.629097668919996522e+01 8.508433646929992733e+01 8.397683235794504242e+01 8.298268135127214862e+01 8.203479665478533889e+01 8.105717873169039933e+01 8.006396121685968126e+01 7.906272437414209264e+01 7.806837199336158051e+01 7.707671637148939681e+01 7.607660520771341339e+01 7.506381404434665683e+01 7.403118602506378920e+01 7.306203945851251547e+01 7.178902303799294771e+01 7.022437776071011228e+01 7.062544991140116224e+01 7.115420149690426399e+01 7.140903319951381434e+01 7.424303338762125293e+01 7.702082640688554704e+01 7.973226466186235939e+01 8.232805211937132128e+01 8.477250443296416904e+01 8.704083318724801188e+01 8.911338907816775645e+01 9.096783014545437140e+01 9.255390201355399427e+01 9.389287077898788425e+01 9.519278736357621540e+01 9.638672815508682845e+01 9.745688583446127495e+01 9.836791944331800153e+01 9.905707553314893232e+01 9.948066851589717885e+01 9.970886650169238408e+01 9.982607401280056081e+01 9.985737479139412187e+01 9.985029523821786768e+01 9.985885102837265492e+01 9.963774318120923112e+01 9.898968941788827181e+01 9.789950127504435784e+01 9.637828736232441429e+01 9.447976999358040473e+01 9.226375368938991528e+01 8.982018905474319581e+01 8.723297313918412499e+01 8.457375172397020435e+01 8.190012393411213054e+01 7.924030543648898117e+01 7.668638029456246841e+01 7.402612454170412093e+01 7.518472376048829631e+01 7.568664106488299126e+01 7.629946582876281980e+01 7.683949868460339871e+01 7.724922956498362225e+01 7.754523091943572410e+01 7.766645613475742493e+01 7.710541596890918470e+01 7.574395335227055170e+01 7.382847281036278275e+01 7.391613036720340801e+01 7.383546943022381015e+01 7.357005816603384574e+01 7.255736583019798047e+01 7.169716506527227295e+01 7.370322082624763027e+01 7.551555364963826378e+01 7.705120806446460335e+01 7.834356362754972736e+01 7.942244796171569021e+01 8.069198320160579385e+01 8.179473863686018831e+01 8.375121853867553057e+01 8.585815009518842089e+01 8.805077113152667323e+01 9.027303587939474028e+01 9.250334404591791326e+01 9.473144912508742266e+01 9.693180969806516600e+01 9.911636384580170045e+01 1.014079931004075377e+02 1.034513603360143890e+02 1.052903214100209084e+02 1.069306571096784921e+02 1.083567517867335255e+02 1.095432602033487512e+02 1.104556649604710117e+02 1.110491601680722340e+02 1.112669899819563568e+02 1.110876234430808580e+02 1.105173749564445984e+02 1.095885159573216328e+02 1.083378934154303863e+02 1.068078770862990723e+02 1.049977925845633138e+02 1.029501234783169679e+02 1.007013417417535237e+02 9.829136047983415381e+01 9.570944447944127376e+01 9.299700465858681753e+01
1.109462663846720289e+02 1.094258876973316319e+02 1.077554164430579817e+02 1.059566963389443401e+02 1.039335317239827106e+02 1.020627988573759097e+02 1.001914192634053506e+02 9.830108499763548480e+01 9.646492553786997348e+01 9.454253418065049175e+01 9.293343387674980249e+01 9.141668078279417387e+01 9.000242344378486337e+01 8.903961008517293862e+01 8.765405174503833052e+01 8.625780419330322957e+01 8.490506597776332853e+01 8.361945215502508688e+01 8.243193933393088457e+01 8.142069278034945512e+01 8.063500029979708472e+01 7.968186497375523913e+01 7.871573002640926120e+01 7.772698292017106780e+01 7.675039698525476695e+01 7.578233723638342667e+01 7.481358458545140877e+01 7.383502254096610784e+01 7.284354345776490902e+01 7.184812955115049249e+01 7.097188323010720978e+01 6.988789599269220787e+01 6.859364542195781667e+01 6.936211362538813319e+01 7.208616290079210387e+01 7.477879892871879974e+01 7.741469778681165792e+01 7.996220108574637209e+01 8.238454954785909479e+01 8.464792136888328855e+01 8.672022883360698131e+01 8.858277176112885343e+01 9.016658228564885746e+01 9.153600545715897852e+01 9.288707116164815147e+01 9.414724170377900236e+01 9.529624185051395102e+01 9.629479934152516307e+01 9.708399057182815284e+01 9.758931155238060740e+01 9.789781068919369034e+01 9.805598177736820276e+01 9.814492475295782015e+01 9.818933183613549431e+01 9.823840468123411540e+01 9.835204126086519238e+01 9.826152857438225396e+01 9.779201742455654767e+01 9.681548872336109923e+01 9.538573024721247862e+01 9.344852681458365851e+01 9.114219155950955553e+01 8.858175551308299589e+01 8.586557613144753986e+01 8.307509371492534456e+01 8.028169901275539644e+01 7.754394830463026267e+01 7.490721974695043173e+01 7.241915220707063838e+01 7.292876183212206342e+01 7.347998191811571189e+01 7.465869817376612616e+01 7.502274201171320556e+01 7.539936918714892045e+01 7.570412381225077070e+01 7.585980343552722616e+01 7.536788896869909138e+01 7.404211874590983200e+01 7.213485116079696979e+01 7.224993012429129635e+01 7.217212190282381812e+01 7.176600697914992111e+01 7.007931350294838069e+01 7.171706223694899052e+01 7.334720915864066626e+01 7.479093323748365663e+01 7.601192223878527443e+01 7.715061231044806789e+01 7.815215780824711089e+01 7.980527281357399261e+01 8.254124538178940895e+01 8.511650696369184743e+01 8.741438520394341083e+01 8.957227627614757637e+01 9.179402125686127079e+01 9.394932998210073549e+01 9.603094629733968191e+01 9.813170089829360165e+01 1.001035208818481692e+02 1.019044710966564367e+02 1.038764964919604523e+02 1.056380985295949841e+02 1.072035024589471419e+02 1.085416480291793420e+02 1.096247859844975920e+02 1.104169281320934459e+02 1.108706911071729593e+02 1.109317632107036360e+02 1.105921479764538589e+02 1.098868849108005463e+02 1.088215961754532657e+02 1.074326739297487023e+02 1.057581001551673410e+02 1.038423658727346179e+02 1.016819572442959441e+02 9.932304472425437325e+01 9.680217317462141580e+01 9.415802404934920844e+01 9.137586706702815320e+01
1.111968977707627744e+02 1.097171805364286854e+02 1.080457268114386409e+02 1.064086918966097812e+02 1.049595469829919097e+02 1.032704383665411996e+02 1.014869781814700502e+02 9.978240886534631215e+01 9.800410493753584262e+01 9.622264324707079197e+01 9.458006658048353188e+01 9.280141700567801877e+01 9.064781140095945489e+01 8.811722860403413904e+01 8.645208791433188367e+01 8.494039577958183429e+01 8.350287353313450467e+01 8.212920029654026166e+01 8.082263007175170344e+01 7.960370722158266688e+01 7.932455734822282523e+01 7.820416125478030267e+01 7.733579980706443280e+01 7.630987605708902777e+01 7.535511516915896379e+01 7.441962990354986118e+01 7.346853096979234010e+01 7.252175184325962221e+01 7.154906426200051328e+01 7.054826177677159649e+01 6.956261295521065335e+01 6.873427292914999498e+01 6.758120430521844924e+01 6.996815748380693378e+01 7.254001067878847664e+01 7.511198789279680454e+01 7.760922982586893681e+01 7.999000818460837081e+01 8.222350923442084536e+01 8.427680216620406384e+01 8.609915211287712111e+01 8.765765983689868790e+01 8.904531026099044766e+01 9.044174174545987910e+01 9.176633857188966203e+01 9.299511623451158471e+01 9.408576107698615942e+01 9.497453784979981606e+01 9.555146855463286215e+01 9.592038101546366136e+01 9.613601471971175272e+01 9.624252850509515156e+01 9.631873706956646686e+01 9.638943974147152005e+01 9.650846079219303419e+01 9.675641591028538357e+01 9.681695106030001341e+01 9.652762945818676599e+01 9.572828033587195762e+01 9.445304074541562045e+01 9.283081745880085123e+01 9.079490191578975100e+01 8.843872612708615577e+01 8.587232994436219258e+01 8.318363872620741972e+01 8.043643623742629245e+01 7.768619972248895067e+01 7.499152735060715713e+01 7.248829959080057961e+01 6.998653422994533457e+01 7.192547272390896751e+01 7.289808424560234812e+01 7.319046222093251686e+01 7.353740383554691107e+01 7.384618436116078044e+01 7.403505125048248203e+01 7.361172188993501209e+01 7.232840409467335974e+01 7.044470413192698288e+01 7.060063930425006617e+01 7.058175519305835621e+01 7.029865168805284270e+01 6.896930890582574136e+01 7.088235710052414618e+01 7.232614631924941762e+01 7.366122631826682721e+01 7.448825285211201219e+01 7.616451974167824801e+01 7.922673562980665452e+01 8.173862523676309877e+01 8.418191203591483429e+01 8.653832373332622296e+01 8.890803965643294760e+01 9.111490748474700752e+01 9.320395773286992380e+01 9.533280238030611997e+01 9.735260392429914589e+01 9.927058028660550804e+01 1.011573556474032358e+02 1.028629455133537931e+02 1.044419796462908323e+02 1.060599746655408921e+02 1.075394653849206037e+02 1.087621701175793447e+02 1.097164807538923696e+02 1.103665863693709497e+02 1.106582511850260744e+02 1.105575079083330223e+02 1.100644265070743018e+02 1.092047360279287460e+02 1.080148284493519668e+02 1.064946057026325832e+02 1.046849030426517260e+02 1.026266634835781986e+02 1.003681574767072959e+02 9.790464332338096654e+01 9.528558151936805132e+01 9.254615708832352539e+01 8.972091799525465206e+01
1.115559045614721043e+02 1.101689432369194179e+02 1.088417242639898603e+02 1.074628127533162996e+02 1.059976331447574154e+02 1.043904791129877481e+02 1.028194385029065216e+02 1.011591199333172568e+02 9.945260530642084973e+01 9.781751480112913555e+01 9.610640069090382553e+01 9.423615553470568784e+01 9.236169561023581309e+01 9.040999033390642126e+01 8.868825596246675502e+01 8.703701457878466385e+01 8.559303077589662223e+01 8.406344992881258804e+01 8.236759613242085720e+01 8.031580640262917825e+01 7.784480671752532999e+01 7.649463266900028202e+01 7.611493471677738398e+01 7.480351386208322140e+01 7.382009591746900412e+01 7.302187778044593358e+01 7.204683953673284691e+01 7.113690239757383438e+01 7.021584241742206700e+01 6.920393007367275118e+01 6.812593885107312985e+01 6.715214875991772203e+01 6.677603457446991797e+01 6.987651761129959027e+01 7.260609609229346972e+01 7.513515541570298240e+01 7.750068650496665157e+01 7.969417843162084125e+01 8.170580367493963081e+01 8.346524777031437736e+01 8.501423771571870702e+01 8.641632675300691346e+01 8.785374027076306902e+01 8.924077049534119510e+01 9.054983158954235023e+01 9.173426208776943724e+01 9.274188751667826125e+01 9.339070972149362149e+01 9.381028641265596946e+01 9.406539236249378177e+01 9.420759362887594079e+01 9.427862876553345473e+01 9.435513417467657860e+01 9.446092460648854683e+01 9.465358845798670018e+01 9.508739895277626886e+01 9.531421629955400476e+01 9.520395561342883184e+01 9.458629649824335672e+01 9.345996919814234616e+01 9.191117993190505331e+01 9.011066593922481616e+01 8.797910043542154312e+01 8.553843602192647211e+01 8.291571722028037073e+01 8.016476870153530854e+01 7.732132710820270916e+01 7.438607220197427239e+01 7.129593952452533756e+01 6.847280203565148327e+01 7.019318731574921344e+01 7.109577459690399337e+01 7.133550627272049383e+01 7.165835532670342900e+01 7.196774876086186623e+01 7.218882404761713190e+01 7.183760550470887551e+01 7.060758063075117263e+01 6.875720071576465386e+01 6.895329576777753289e+01 6.900497151474024804e+01 6.892108629690407895e+01 6.799479222732968253e+01 6.981799587601828705e+01 7.076054241789906030e+01 7.243952414675970886e+01 7.564067991224709431e+01 7.826437984517862390e+01 8.088144995151371575e+01 8.342759526616170263e+01 8.585356991862040843e+01 8.817681039215835881e+01 9.035706946921334293e+01 9.258120548862268606e+01 9.466078170933454317e+01 9.661810736427743507e+01 9.859508942517459218e+01 1.004375509340098773e+02 1.021479698914581036e+02 1.037958186254291348e+02 1.052640623092905940e+02 1.066535873597035362e+02 1.079215513226445609e+02 1.089795427258100347e+02 1.097785777215053002e+02 1.102707062449153455e+02 1.103951989223751866e+02 1.101288303886420294e+02 1.094963346312637213e+02 1.084958019450083953e+02 1.071572022214115805e+02 1.055193971339319887e+02 1.035802121621815672e+02 1.013881665743762142e+02 9.898925765972971647e+01 9.643628762645499819e+01 9.372381283716620715e+01 9.090262283459716741e+01 8.800329944375208413e+01
1.119706930438492094e+02 1.108426112311736063e+02 1.096743227120996096e+02 1.083782781316295996e+02 1.069582232644174553e+02 1.055480592410358724e+02 1.040284063004603610e+02 1.024447682546231277e+02 1.009047553746426615e+02 9.928654594705382408e+01 9.755994151583639962e+01 9.590403017959511089e+01 9.414655424308627119e+01 9.237304666246386375e+01 9.061649801907326207e+01 8.908834362678014429e+01 8.750569079159531327e+01 8.579392165622293476e+01 8.405546957243700490e+01 8.205109950398041008e+01 7.992957419954446152e+01 7.763939689083542817e+01 7.472722786988805410e+01 7.327397634143731864e+01 7.204862029610247021e+01 7.177881418557815607e+01 7.053888390753654392e+01 6.961240265338709321e+01 6.887897397630597141e+01 6.789153621936372929e+01 6.679369045336967758e+01 6.536033007988997667e+01 6.753289871454128956e+01 7.006146579541542962e+01 7.255799838454343842e+01 7.490542596691697952e+01 7.707364702270521661e+01 7.901321961242503278e+01 8.070235835961072723e+01 8.223177688712580391e+01 8.364243276263232474e+01 8.511753388900233119e+01 8.656554691530125467e+01 8.795639438159658141e+01 8.923805786678329355e+01 9.035074550784557346e+01 9.114027428822659260e+01 9.159610741643979281e+01 9.187852525597079989e+01 9.203957971045799979e+01 9.212555031215066492e+01 9.217547115868022445e+01 9.226385652603394760e+01 9.241032098023327990e+01 9.264314054288402644e+01 9.339223118849395178e+01 9.377069075705310297e+01 9.382405864142201324e+01 9.340555232612403813e+01 9.240718637510606470e+01 9.094476698629171096e+01 8.910796254986074416e+01 8.708065398973742788e+01 8.481863131754310814e+01 8.226692411637318969e+01 7.952869117354622119e+01 7.665171893358495936e+01 7.364144157281045011e+01 7.045656960706131144e+01 6.699364275864407148e+01 6.850178157369367682e+01 6.925114484375468749e+01 6.945888351750662082e+01 6.976132322033693356e+01 7.006505164570981492e+01 7.031468743265992316e+01 7.004104402637973692e+01 6.887910599031008019e+01 6.707447060352305357e+01 6.729459443621138348e+01 6.738094530875760313e+01 6.744507994974922838e+01 6.708880627635404892e+01 6.875726853002919370e+01 7.210579333332256624e+01 7.474266669936855578e+01 7.721163366323062860e+01 7.999033471699736708e+01 8.259621406629453588e+01 8.510367301804778606e+01 8.749870266782448880e+01 8.977684894416654515e+01 9.193561730350012340e+01 9.395202289488878478e+01 9.601810063181535781e+01 9.793699875113466646e+01 9.972315780545612540e+01 1.015070351678251512e+02 1.031345057751337606e+02 1.046095826431309490e+02 1.060032051427050277e+02 1.072107353266879244e+02 1.082796115668562322e+02 1.091621696822962377e+02 1.097937079810852339e+02 1.101188053674513299e+02 1.100784128709409941e+02 1.096589134556945879e+02 1.088773896681143896e+02 1.077551625223088649e+02 1.062832447960634425e+02 1.044964859315038126e+02 1.024413379509454529e+02 1.001181391051523093e+02 9.758553793177971158e+01 9.489528374231021246e+01 9.210385534823875275e+01 8.920427097459275956e+01 8.624516314941504902e+01
1.124481084447293284e+02 1.114843929671464196e+02 1.103911866144869407e+02 1.091615965435705533e+02 1.079252676677659366e+02 1.065684373715313598e+02 1.051354044189908876e+02 1.037232276592776259e+02 1.022262211880247094e+02 1.006267489070990706e+02 9.911152170941903705e+01 9.750418852768217448e+01 9.583220820786443994e+01 9.408982854208340996e+01 9.254437214585176719e+01 9.094894037941384113e+01 8.925628609024686000e+01 8.762418587651556834e+01 8.582271724900209620e+01 8.385986481099681100e+01 8.173083767359256058e+01 7.958563815535265462e+01 7.739935078075093600e+01 7.549496155065686764e+01 7.333255282076861192e+01 7.036666105264097837e+01 6.900001048688011451e+01 6.786607043620227842e+01 6.769333919771425201e+01 6.654801280229749239e+01 6.560153301599642361e+01 6.450500908827517321e+01 6.722395132290482422e+01 6.977677610329762103e+01 7.214472108116332549e+01 7.426506672746154436e+01 7.612692240609639782e+01 7.778616767202166216e+01 7.930279686361117797e+01 8.071940245917842560e+01 8.222799046589398131e+01 8.373434343329235219e+01 8.520796042122405822e+01 8.659301202150793131e+01 8.782079804272551371e+01 8.874229686608265411e+01 8.929918893365343990e+01 8.960197900480437738e+01 8.977174824958821375e+01 8.985769628236749895e+01 8.990287674619078473e+01 8.994442139474539033e+01 9.005679070637816608e+01 9.026380255854280676e+01 9.060028009239643154e+01 9.149151290207065301e+01 9.220974782620325527e+01 9.241181478501610513e+01 9.217095875378338121e+01 9.132681598497381970e+01 8.993799460405806201e+01 8.810621674031591510e+01 8.592472124020838464e+01 8.359445849757335623e+01 8.104924549215664342e+01 7.824109775135022460e+01 7.529746379009884549e+01 7.222876058610542316e+01 6.900851791045856487e+01 6.553788756580031816e+01 6.669569082148011319e+01 6.735221537273027081e+01 6.756387164227548681e+01 6.784823581775204104e+01 6.813407570208768504e+01 6.840157486024034483e+01 6.820986291447538008e+01 6.714048061459322980e+01 6.540412845154268950e+01 6.562517722045893720e+01 6.568704036006883484e+01 6.563343230498482228e+01 6.866697077110708847e+01 7.127373723206716249e+01 7.402210700291915657e+01 7.668796909010819718e+01 7.920548179431122549e+01 8.156560205627739890e+01 8.422497610121622813e+01 8.671050380088099985e+01 8.907348157431334812e+01 9.130948279556859859e+01 9.341739446400697489e+01 9.540034385515123461e+01 9.724216685870736399e+01 9.912593775957722642e+01 1.008539618630827164e+02 1.024362157764999210e+02 1.039901851218810265e+02 1.053699980124311537e+02 1.065806727298985521e+02 1.076825983008835550e+02 1.085694585426952017e+02 1.092786553842099835e+02 1.097395280911321294e+02 1.098898779934251451e+02 1.096955278313283344e+02 1.091399702435176664e+02 1.082305031152991859e+02 1.069762087338662866e+02 1.053923588205085906e+02 1.034696216750305240e+02 1.012575680691709579e+02 9.881515352973367783e+01 9.614725590305367575e+01 9.332325713802121925e+01 9.039946176947185563e+01 8.743298149538523489e+01 8.441404542594304417e+01
1.128520304807209840e+02 1.119770310300033742e+02 1.109575732225639939e+02 1.099082597869386149e+02 1.087308470367051854e+02 1.074692585113666325e+02 1.062052710569145262e+02 1.048499675338779724e+02 1.033897680985884193e+02 1.020055363015392800e+02 1.005329019900994183e+02 9.898382265068303809e+01 9.733412542719403859e+01 9.583910129156109292e+01 9.427860513960239075e+01 9.262775701913852799e+01 9.107332224691015199e+01 8.939584241584253732e+01 8.759187644123765892e+01 8.562972122045538015e+01 8.368603754449523535e+01 8.164462714834741064e+01 7.958468605886051250e+01 7.751534404186469374e+01 7.530632901161588677e+01 7.307823131190673394e+01 7.117483294641930058e+01 6.901320084165439539e+01 6.631795844548415175e+01 6.512027047242881395e+01 6.416627520796154727e+01 6.372342723589826363e+01 6.657523122032857543e+01 6.908335838065781331e+01 7.120393622973833203e+01 7.306338621105994946e+01 7.471364162847210366e+01 7.622391902871004277e+01 7.764646641936296589e+01 7.918337766228896157e+01 8.074236297499884074e+01 8.229601586444128714e+01 8.378781462109525080e+01 8.514511710864039173e+01 8.621202723221537667e+01 8.687054010806075155e+01 8.725441909522247386e+01 8.742893043258710861e+01 8.750689986040805479e+01 8.753450580345652554e+01 8.755220523800372234e+01 8.759530222951075018e+01 8.773855266792779162e+01 8.801553975702813659e+01 8.849125748625218080e+01 8.970941047102050447e+01 9.056872927704256426e+01 9.096661285176688239e+01 9.090333132763700519e+01 9.021749540093055941e+01 8.894548130157123467e+01 8.713601389962094856e+01 8.484917432194714593e+01 8.226528834663805867e+01 7.951446555393482640e+01 7.661708972030677955e+01 7.359394420451042151e+01 7.048099705673256210e+01 6.730895663880049540e+01 6.409507706697660012e+01 6.457006616482244965e+01 6.535706391192431397e+01 6.566056602312725943e+01 6.592354388336291038e+01 6.617069783582786613e+01 6.643239904921775008e+01 6.631417123531295488e+01 6.538324746245791630e+01 6.375985165259863408e+01 6.396025348790757903e+01 6.396727666035818061e+01 6.729979726221969827e+01 7.033153749538494992e+01 7.310328451155909590e+01 7.585335835779586944e+01 7.851011730389708987e+01 8.103210853407856007e+01 8.342155864544692179e+01 8.565538388112865675e+01 8.818147384614482576e+01 9.052021389758941439e+01 9.271906674423344441e+01 9.477686596497244409e+01 9.669891559488264932e+01 9.849230330214736284e+01 1.001435389556927191e+02 1.018183677368062234e+02 1.033252853153454396e+02 1.046712145282478303e+02 1.059595554959372379e+02 1.070543694135154738e+02 1.079695890092728945e+02 1.087244797145986723e+02 1.092761319195864900e+02 1.095731521258512799e+02 1.095664367152979963e+02 1.092276048280325398e+02 1.085630367723706797e+02 1.075514170977291144e+02 1.061931116229160494e+02 1.044818250597925839e+02 1.024383864881035890e+02 1.000757376778854848e+02 9.746347219173414089e+01 9.466954271509258945e+01 9.170419807108585530e+01 8.864853500477271098e+01 8.555537019101103624e+01 8.247964931556263934e+01
1.130678789336518264e+02 1.122934828455986320e+02 1.114443705061047609e+02 1.104654399904459723e+02 1.093921157090655782e+02 1.082928785785312726e+02 1.070960185664218187e+02 1.057908147469495646e+02 1.045449837917048654e+02 1.032114403669108640e+02 1.017959290138102944e+02 1.002707081128612856e+02 9.887059843107284962e+01 9.738985657844837363e+01 9.581364260155137913e+01 9.434291514635246756e+01 9.277104524206980329e+01 9.109677665258983836e+01 8.928184522646348853e+01 8.748944203537770647e+01 8.558869053736617616e+01 8.361312040863957407e+01 8.158157939516381418e+01 7.949047227193365472e+01 7.733349261309240319e+01 7.516792503373862644e+01 7.295927997878636972e+01 7.090078775882061279e+01 6.875639016131580661e+01 6.696693485775476518e+01 6.505471709078602771e+01 6.299223938957155866e+01 6.575108376187330350e+01 6.795646480006514878e+01 6.984597546459130513e+01 7.149914150362086218e+01 7.300626401694904644e+01 7.443154463274635191e+01 7.598833711274825475e+01 7.758964986020934873e+01 7.921465536288059184e+01 8.080964588929130343e+01 8.230036161736764200e+01 8.354594299773717125e+01 8.432278707863214606e+01 8.479153773885006729e+01 8.502898879815688815e+01 8.509669277026922884e+01 8.510076928941782626e+01 8.508452046131696989e+01 8.508610468688574713e+01 8.513803238756672442e+01 8.531164127219422255e+01 8.564513218975476150e+01 8.638908622231593881e+01 8.784709410283139164e+01 8.884211446651829647e+01 8.953505570930168744e+01 8.960864495141369446e+01 8.911130458135586707e+01 8.796039450234890467e+01 8.632829936113925839e+01 8.434960941203466689e+01 8.192880585030847840e+01 7.925154640179529508e+01 7.639441694501935842e+01 7.340557323384408051e+01 7.033707832164954254e+01 6.725560280358013188e+01 6.427139759919801065e+01 6.165418388763725943e+01 6.341863636163093787e+01 6.377953964613338655e+01 6.399248721476717350e+01 6.417196382847562575e+01 6.438668544795478965e+01 6.428804832149869242e+01 6.358149781535682621e+01 6.216268479354885557e+01 6.228774623486621209e+01 6.565022847337395717e+01 6.829660419371782609e+01 7.119671056104608908e+01 7.451091427870275652e+01 7.738894486376116788e+01 8.009587625591419169e+01 8.264286257762177001e+01 8.503755252936483089e+01 8.729526961762411474e+01 8.939941371669343084e+01 9.177297943834877003e+01 9.394427275364090235e+01 9.595417153626961237e+01 9.781530545749369310e+01 9.953808977523847545e+01 1.011282369328443593e+02 1.025720744044905359e+02 1.040084407620652911e+02 1.052566013639333136e+02 1.063384699537211446e+02 1.073030145532645179e+02 1.081025853395509131e+02 1.087198700773747362e+02 1.091201368341660185e+02 1.092765988865794924e+02 1.091405153223093834e+02 1.086865758721938420e+02 1.079152593583278730e+02 1.068350933854994338e+02 1.054105260818260916e+02 1.035831442202653534e+02 1.013821282055914565e+02 9.886811056485963434e+01 9.609193516698002213e+01 9.311446810646087613e+01 9.000349253164972652e+01 8.680977137935556698e+01 8.358835531391461870e+01 8.038849194473992554e+01
1.131627026467076860e+02 1.124846079311005269e+02 1.117096974357022958e+02 1.108527768339530013e+02 1.099267070164267608e+02 1.089065432764137284e+02 1.077702238454249368e+02 1.066706315307722406e+02 1.054873238096833035e+02 1.042182799779563993e+02 1.028378615706682950e+02 1.015570908856061010e+02 1.001889610601111968e+02 9.872073899774518679e+01 9.735199715665028464e+01 9.589189903433118900e+01 9.434137136125850986e+01 9.266313004859539149e+01 9.101192195576543043e+01 8.924939816544666371e+01 8.739354911588131358e+01 8.545141712796230138e+01 8.342982746135740513e+01 8.133136705526612786e+01 7.916270952013952922e+01 7.688790040259365810e+01 7.484289836010167107e+01 7.265075265547423555e+01 7.039759345039594507e+01 6.788715057638968631e+01 6.521532502744976512e+01 6.232341444734453262e+01 6.464185668736615753e+01 6.655527504499129066e+01 6.818999827282895865e+01 6.967755984847339334e+01 7.109380333543127506e+01 7.265653092206456165e+01 7.428385188164989472e+01 7.596387803636537228e+01 7.765003508378789832e+01 7.927091434779870838e+01 8.067957121774762186e+01 8.167821303920142384e+01 8.222867473379128000e+01 8.253102429903604786e+01 8.264458092035749814e+01 8.262386898892765430e+01 8.256928260952633991e+01 8.252179659455906346e+01 8.251737134555617104e+01 8.258527083187829021e+01 8.278547611803507777e+01 8.305515798550578666e+01 8.461349615142481184e+01 8.598497403729551536e+01 8.725097040771701984e+01 8.806753605210771241e+01 8.829315960347182113e+01 8.795988805669574617e+01 8.694903186594757472e+01 8.538751961582326544e+01 8.344908498285397513e+01 8.128904554596702781e+01 7.871292664783193516e+01 7.591469449691952320e+01 7.295094200354100167e+01 6.987022156683433138e+01 6.672049641960609279e+01 6.362740379724236561e+01 6.015283911060100053e+01 6.162448216559469927e+01 6.192576940183899126e+01 6.205586036782791837e+01 6.213989397930332359e+01 6.225790632254112467e+01 6.210710041268399806e+01 6.148943810049586034e+01 6.062641883853729752e+01 6.403618349602321302e+01 6.721746876640239066e+01 7.014819227128178625e+01 7.299599613599410475e+01 7.542899546049659421e+01 7.856429921623569612e+01 8.135346919880885252e+01 8.392844604754729687e+01 8.634297410576139953e+01 8.861115375217543999e+01 9.074204005059735323e+01 9.271932830913847567e+01 9.491801169263104043e+01 9.687834408062234104e+01 9.867871275690987432e+01 1.003358467829134497e+02 1.018523642971693306e+02 1.032275257566184621e+02 1.044459822565996632e+02 1.055733064053227537e+02 1.065566220960469792e+02 1.073918803975696505e+02 1.080585430658021835e+02 1.085320883358349562e+02 1.088112471546598243e+02 1.088478779183965770e+02 1.085997485630977621e+02 1.080620288075025570e+02 1.072118513090124026e+02 1.060614882475484677e+02 1.046369789547474340e+02 1.029695118700281995e+02 1.010077313675696757e+02 9.869416126159258340e+01 9.611740717758884500e+01 9.333499418832791150e+01 9.039690422645736589e+01 8.734481638643831047e+01 8.422320302967175110e+01 8.107347903651600518e+01
