ncols 119
nrows 32
xllcorner 1740
yllcorner 590
cellsize 10.0
1.200086087933563732e+02 1.208965454040474725e+02 1.205677572185478539e+02 1.204049431320945445e+02 1.199209095381464039e+02 1.194102905507740786e+02 1.188755201695765464e+02 1.183205073055756031e+02 1.177458365917951539e+02 1.171491979317253680e+02 1.165284954018731156e+02 1.158787152531782709e+02 1.151951334172881758e+02 1.144701228019953589e+02 1.136834022103337531e+02 1.129609335638480161e+02 1.120910903579501650e+02 1.116415746727023333e+02 1.112865783232465162e+02 1.110242187264173026e+02 1.108077632115148816e+02 1.106488958764012978e+02 1.105858489125779016e+02 1.105827775911695312e+02 1.106305261130441266e+02 1.107146112633952839e+02 1.108203976673204210e+02 1.109357603185313650e+02 1.110520588496173531e+02 1.111639954180266727e+02 1.112689699804147239e+02 1.113663556751109951e+02 1.114568973271015722e+02 1.115422757324670613e+02 1.116247954733557464e+02 1.117071269932177700e+02 1.117920417406976128e+02 1.118821075073509661e+02 1.119793535634298962e+02 1.120849670784781722e+02 1.121991278836636212e+02 1.123202035366178535e+02 1.124731808986867634e+02 1.126310337139918971e+02 1.127937240826019831e+02 1.129588310866932233e+02 1.131771671125656411e+02 1.133444002511993034e+02 1.135238280771760486e+02 1.142780569015399834e+02 1.150440555400200395e+02 1.158160984336670509e+02 1.165308722886926915e+02 1.171636537361074204e+02 1.176882422438842042e+02 1.180608568251952448e+02 1.182435555506207834e+02 1.182696754069035308e+02 1.181923473660339994e+02 1.180248353686389606e+02 1.177993615734387163e+02 1.173860181302826078e+02 1.169302202186164408e+02 1.163251115911325684e+02 1.155465225705265340e+02 1.151500590279188998e+02 1.148253326157620648e+02 1.146977183684524704e+02 1.146009608484648226e+02 1.146097030653330648e+02 1.145968889261907719e+02 1.146050647790777930e+02 1.145520246008169636e+02 1.144053567070926078e+02 1.141086471105604403e+02 1.135753710883698915e+02 1.128660900726489871e+02 1.120451583122493133e+02 1.112271321990455988e+02 1.112047467773091824e+02 1.111465445614491472e+02 1.110602885346246467e+02 1.109653068170981385e+02 1.108797497724789451e+02 1.108207179568760097e+02 1.108029194025284028e+02 1.108375026366505836e+02 1.109289877780246769e+02 1.110675321307511325e+02 1.118532345655570737e+02 1.126535000083079012e+02 1.134230188795164196e+02 1.141472483318058124e+02 1.148205910006363268e+02 1.154449095928453488e+02 1.159309812343076374e+02 1.162436138275678275e+02 1.164390893467443107e+02 1.165792511706357857e+02 1.166867238769761741e+02 1.167773337182216125e+02 1.169059776059013700e+02 1.170560971191554671e+02 1.172539739751234436e+02 1.178867979706644462e+02 1.185135865735969816e+02 1.191289922367635086e+02 1.197234630907127695e+02 1.202172070913355242e+02 1.207095616206908062e+02 1.208969921556949743e+02 1.207504422886945008e+02 1.208418553634237469e+02 1.200836435039352210e+02 1.204571770909522428e+02 1.208257571352084199e+02 1.209100240995139615e+02 1.208121043051192061e+02 1.204890991874644044e+02
1.205666112853892145e+02 1.202530758130510407e+02 1.202081972026523005e+02 1.198391729301108484e+02 1.192775560694422410e+02 1.187119641771110707e+02 1.181337625289612276e+02 1.175406411119615484e+02 1.169305716271739612e+02 1.163006730374854101e+02 1.156466943253167017e+02 1.149653746822386324e+02 1.142512255813162056e+02 1.134986956425335762e+02 1.126996544635069881e+02 1.118344365477220492e+02 1.110418973184962965e+02 1.101473759560867052e+02 1.097596473275001614e+02 1.094560344442784299e+02 1.092121793205132008e+02 1.090402243016452104e+02 1.089803220181472767e+02 1.089961089082349446e+02 1.090732185453971539e+02 1.091907747616811264e+02 1.093291894728891833e+02 1.094735191395882339e+02 1.096141032475472628e+02 1.097457638643700335e+02 1.098665620066979898e+02 1.099766810058069666e+02 1.100776394509262843e+02 1.101718122705538292e+02 1.102621459616813553e+02 1.103519419067575882e+02 1.104446071034058292e+02 1.105433142780338187e+02 1.106505723585294447e+02 1.107677889267028206e+02 1.108949974142213506e+02 1.110300460830195419e+02 1.111972385093796163e+02 1.113693305062968761e+02 1.115465031093222876e+02 1.117273612153520901e+02 1.119652117286175184e+02 1.121611265250224250e+02 1.123774803815215506e+02 1.132631468620398607e+02 1.141682012437916995e+02 1.150284380843051366e+02 1.158173832397457659e+02 1.165094547711908319e+02 1.170612139212457237e+02 1.174422780647916085e+02 1.176100020704426470e+02 1.176138783917289032e+02 1.175032864995114608e+02 1.172866459332103233e+02 1.169985893404860775e+02 1.165401390846614333e+02 1.159284963886630067e+02 1.153078757435138044e+02 1.145685693218015047e+02 1.137407868681371923e+02 1.133843253610095019e+02 1.132924046080307932e+02 1.132360978145722754e+02 1.132869163187564254e+02 1.133143318576559579e+02 1.133596108740017172e+02 1.133402028834836699e+02 1.132241300506408948e+02 1.129595961019396384e+02 1.124219282050089390e+02 1.116811461500864340e+02 1.107871686801327655e+02 1.097999233891384421e+02 1.097703346076666691e+02 1.096931148814270500e+02 1.095805670462786594e+02 1.094546199995433824e+02 1.093374144143532902e+02 1.092500904166538902e+02 1.092104437248897426e+02 1.092322983127651668e+02 1.093327897985263633e+02 1.096416713461312753e+02 1.106367418965113956e+02 1.115292338559388128e+02 1.123723690407978353e+02 1.131655333284780198e+02 1.139115892565938708e+02 1.145145210006828904e+02 1.149491733752411875e+02 1.152064885691238345e+02 1.153694605541230374e+02 1.154931076535426087e+02 1.155979598657157936e+02 1.156979550032270083e+02 1.158474048276129622e+02 1.160294088809664999e+02 1.162787732033800125e+02 1.170205134072008946e+02 1.177427258395536427e+02 1.184404642535709939e+02 1.191123239500373074e+02 1.197449883133361794e+02 1.203081797135996140e+02 1.207157633031262804e+02 1.206174209723273947e+02 1.209498015203004258e+02 1.201902956281285242e+02 1.200102665445397605e+02 1.201140065604580371e+02 1.207836969337866435e+02 1.203118535354479519e+02 1.204762925194492738e+02
1.208457382641025220e+02 1.201892183043994464e+02 1.198385872284431599e+02 1.192249133395479248e+02 1.186041706367900446e+02 1.179833884028215891e+02 1.173629695261181070e+02 1.167300574470228582e+02 1.160828490913333582e+02 1.154181049572058555e+02 1.147319387646783468e+02 1.140196053581126989e+02 1.132772476098374881e+02 1.124994955971838095e+02 1.116814190627330703e+02 1.108173414668173535e+02 1.098933812337970721e+02 1.090597097531101554e+02 1.081085248642805254e+02 1.077834887915049080e+02 1.075102601265347602e+02 1.073235834044917425e+02 1.072683045333250362e+02 1.073103015961096389e+02 1.074261348614188307e+02 1.075853023948863694e+02 1.077619237032365476e+02 1.079382266678955915e+02 1.081041484802461525e+02 1.082553771222123800e+02 1.083912428684987503e+02 1.085131315716489695e+02 1.086235410992332646e+02 1.087256271965983103e+02 1.088230152816650218e+02 1.089196805987166101e+02 1.090197508988428723e+02 1.091271408209832003e+02 1.092449968175624946e+02 1.093750436423419785e+02 1.095170898333383320e+02 1.096681436291538603e+02 1.098513471118714619e+02 1.100390118302134539e+02 1.102314296287118225e+02 1.104281832887706258e+02 1.106856610720953853e+02 1.109161714475060734e+02 1.112117845421774120e+02 1.122703499598557926e+02 1.132882529393848046e+02 1.142394488388566600e+02 1.151027050175211741e+02 1.158367028829888454e+02 1.164136432757803448e+02 1.168004298902011442e+02 1.169513353507497442e+02 1.169304771082387617e+02 1.167857602468784819e+02 1.165494212431370045e+02 1.160843833467419017e+02 1.155968811517814885e+02 1.149516311850103563e+02 1.141701993406783799e+02 1.134196437666648478e+02 1.125925527076788484e+02 1.117340170551415781e+02 1.117666389379574809e+02 1.117676520338044526e+02 1.118704215513951681e+02 1.119448630894144685e+02 1.120309189407610688e+02 1.120467062151655853e+02 1.119612625051213968e+02 1.117276638171682350e+02 1.111908189879811744e+02 1.104114298981470199e+02 1.094510492377154520e+02 1.083379290709103486e+02 1.082886261950876019e+02 1.081832271591987791e+02 1.080352563078787682e+02 1.078688178358816572e+02 1.077111309020492769e+02 1.075884362059511687e+02 1.075216040055851181e+02 1.075214117338791056e+02 1.075332751087114502e+02 1.084755908926799322e+02 1.094565103370819088e+02 1.104148994475293790e+02 1.113300125177038495e+02 1.122034432755727380e+02 1.129329103044075424e+02 1.134922866682608884e+02 1.138483387194873302e+02 1.140603254121195533e+02 1.141963920986247274e+02 1.143101866600810439e+02 1.144205886576791187e+02 1.145392873308702804e+02 1.147176298374484844e+02 1.149355368350523605e+02 1.152975594973131734e+02 1.161916403164294564e+02 1.170020531698860253e+02 1.177798353962626123e+02 1.185326793166839110e+02 1.192282973261068264e+02 1.198306204680506966e+02 1.203338569776021956e+02 1.206388460523082529e+02 1.208276000924755493e+02 1.204031010708681464e+02 1.207453451928759733e+02 1.208200975345275907e+02 1.205965256324942629e+02 1.200251561448713886e+02 1.198216991155596531e+02
1.204675622610182870e+02 1.199147919229083499e+02 1.192776737462908017e+02 1.186033397848263462e+02 1.179232446173705142e+02 1.172459039540685524e+02 1.165708400287585533e+02 1.158972760681377423e+02 1.152114261722520041e+02 1.145108062272305602e+02 1.137914616417354523e+02 1.130490286600858951e+02 1.122786524654684968e+02 1.114764879835959874e+02 1.106380644343087454e+02 1.097601922704224364e+02 1.088401849552403036e+02 1.078662640135345470e+02 1.069874344249145395e+02 1.059830500729177487e+02 1.057080688098015315e+02 1.055033150961631776e+02 1.054526630030324696e+02 1.055324064928421848e+02 1.057002173981088475e+02 1.059111295402733504e+02 1.061318860499574583e+02 1.063425341605271086e+02 1.065338180339722669e+02 1.067034238546166165e+02 1.068527362531249594e+02 1.069847680707908779e+02 1.071031609033476855e+02 1.072118730128862438e+02 1.073151840622195436e+02 1.074177438005064005e+02 1.075244776083231386e+02 1.076402196324881544e+02 1.077690057857897727e+02 1.079130899697141786e+02 1.080720192115885112e+02 1.082414874315587667e+02 1.084426888817923214e+02 1.086471297092281816e+02 1.088550079906886197e+02 1.090660702537436180e+02 1.093360971773962120e+02 1.095841327197922936e+02 1.100334670356008075e+02 1.113035755154196522e+02 1.124283776489892972e+02 1.134650942638475755e+02 1.143821875310585909e+02 1.151552976065841989e+02 1.157540266976883316e+02 1.161434423000774814e+02 1.162751307409578914e+02 1.162252373642596694e+02 1.160320348849049594e+02 1.157342360322756036e+02 1.152309573326393917e+02 1.145396862053516998e+02 1.138723621520336877e+02 1.130608899786166290e+02 1.121259822977887097e+02 1.112360477448619207e+02 1.102062980617197638e+02 1.101728211493285414e+02 1.102111882437777126e+02 1.103729091261309065e+02 1.105008219203897255e+02 1.106306016310594629e+02 1.106821643469520779e+02 1.106254590479571362e+02 1.104123568834158675e+02 1.099090700193793992e+02 1.090820300493763995e+02 1.080500999419965211e+02 1.068381341123769488e+02 1.067658515071208285e+02 1.066262801220853902e+02 1.064342691397179976e+02 1.062166175712577001e+02 1.060082562415658316e+02 1.058425927841115026e+02 1.057461236794557067e+02 1.057482803449528319e+02 1.059937124072425831e+02 1.071988122420675467e+02 1.082824560893417782e+02 1.093199453065163169e+02 1.103225440788600196e+02 1.111838229512078158e+02 1.118837998248956751e+02 1.123424238847118062e+02 1.126359524920014081e+02 1.128077592944361243e+02 1.129230523813135818e+02 1.130342934432286768e+02 1.131590488434552100e+02 1.133070592801752809e+02 1.135228415684756129e+02 1.137181782365050964e+02 1.145481997385791715e+02 1.154351879121374225e+02 1.163092615157295455e+02 1.171653656835684103e+02 1.179735367832156072e+02 1.187125164351231632e+02 1.193539251114513320e+02 1.198683054067035556e+02 1.202598591523981639e+02 1.200251990275499168e+02 1.200728492558443037e+02 1.204469730908939198e+02 1.202969931933240559e+02 1.199587937460330949e+02 1.195340969146201502e+02 1.189620493693728349e+02
1.199882964671894996e+02 1.193955668424059269e+02 1.187041059641344702e+02 1.179852402185475313e+02 1.172473535151938222e+02 1.165090132079154301e+02 1.157770705663885451e+02 1.150493222414374088e+02 1.143240571433504158e+02 1.135863183605664801e+02 1.128329645869293074e+02 1.120595424932813415e+02 1.112614680880584075e+02 1.104340702749254888e+02 1.095739465054989807e+02 1.086778184184585285e+02 1.077440660207191314e+02 1.067715093771269323e+02 1.057486274912208870e+02 1.048292277150594884e+02 1.037841906473352509e+02 1.035825927796522592e+02 1.035305482882357495e+02 1.036684901204208842e+02 1.039071887808615458e+02 1.041819836094503131e+02 1.044525869506230720e+02 1.046987045057524313e+02 1.049139044992154339e+02 1.050994375225899518e+02 1.052596579941037049e+02 1.053995908704667386e+02 1.055240857718499115e+02 1.056378203157581197e+02 1.057456148182170779e+02 1.058527304667263138e+02 1.059649435820694237e+02 1.060882293902816969e+02 1.062279048630965548e+02 1.063871832251595748e+02 1.065654685457732000e+02 1.067564751923966355e+02 1.069780504289689418e+02 1.072005280458135275e+02 1.074242339397437007e+02 1.076489579728374366e+02 1.079220170476307601e+02 1.080691422441009450e+02 1.091884822033791096e+02 1.104077857928232191e+02 1.116014678335115633e+02 1.126970937192186710e+02 1.136642823228605721e+02 1.144727892465854922e+02 1.150897492150255772e+02 1.154784098709205296e+02 1.155884050150533255e+02 1.155084380582369903e+02 1.152977437689223592e+02 1.148140037500481441e+02 1.142855587051620176e+02 1.135659825226267827e+02 1.126757121703922593e+02 1.118491593235900865e+02 1.108894292556275047e+02 1.098072476240383963e+02 1.086779149626904086e+02 1.084472389818461693e+02 1.085634023018659207e+02 1.088055494864363197e+02 1.089945994986699702e+02 1.091699393853559030e+02 1.092570060072088722e+02 1.092277920774907187e+02 1.090355469601168181e+02 1.085605586654878465e+02 1.077172054113341630e+02 1.066089488926438946e+02 1.053048701185668818e+02 1.052092411101858573e+02 1.050317291790156133e+02 1.047871742472891725e+02 1.045051963444119707e+02 1.042337864005287145e+02 1.040156466639664217e+02 1.038761612900864293e+02 1.037477707245892162e+02 1.048337160239069874e+02 1.059932164927035387e+02 1.071440319031865158e+02 1.082731915378714405e+02 1.092670159312823159e+02 1.101034864844290979e+02 1.107121033676878028e+02 1.110795297908981922e+02 1.113141930357824236e+02 1.114511937023600012e+02 1.115522813883365529e+02 1.116684291455781022e+02 1.118164823843592757e+02 1.120077546636273382e+02 1.122986888356125661e+02 1.126632184014020623e+02 1.137453926624466618e+02 1.147186974145551090e+02 1.156673850980497633e+02 1.165756650146448550e+02 1.174275286190189860e+02 1.181976283409997563e+02 1.188650150228870928e+02 1.194060662158804433e+02 1.197979883866607764e+02 1.200196322213367495e+02 1.200382027846117978e+02 1.199115492269256009e+02 1.196468032477934713e+02 1.192574818004785442e+02 1.186783483665293915e+02 1.179898496948929534e+02
1.195346368848467336e+02 1.188577964324106233e+02 1.181249193067226173e+02 1.173622844140823105e+02 1.165791568657139123e+02 1.157823552819538975e+02 1.149891104663524430e+02 1.142051164925653381e+02 1.134267562030314593e+02 1.126513685943571801e+02 1.118629183401697134e+02 1.110577291988855251e+02 1.102309938081928777e+02 1.093780666155353742e+02 1.084945962304779385e+02 1.075777162700453431e+02 1.066251337955550724e+02 1.056362926668891333e+02 1.046113417676277066e+02 1.035412563620931508e+02 1.025905499446994043e+02 1.015360975327186992e+02 1.014868253295083633e+02 1.017257856894977834e+02 1.020613171505784180e+02 1.024132705553983129e+02 1.027381078364263232e+02 1.030186916768901710e+02 1.032543717844504698e+02 1.034519391522957079e+02 1.036196440913527681e+02 1.037647536028818251e+02 1.038932160824193147e+02 1.040102016409557848e+02 1.041208446310294136e+02 1.042308663340223802e+02 1.043468946934324464e+02 1.044762932694150521e+02 1.046262283206353487e+02 1.048016739506895334e+02 1.050024163516178817e+02 1.052193654687109756e+02 1.054642033967881787e+02 1.057059108707797748e+02 1.059460482975567146e+02 1.061891508270186080e+02 1.065020830951732478e+02 1.067708305023560627e+02 1.081527035174348725e+02 1.095094869592496565e+02 1.107811636467105387e+02 1.119393398442141745e+02 1.129548939673789221e+02 1.137958878296151681e+02 1.144274624779240952e+02 1.148113206011994976e+02 1.148952918106332390e+02 1.147708232702370310e+02 1.144991190147556921e+02 1.139812644501647014e+02 1.132324346472247498e+02 1.124952629603957064e+02 1.115831263067144334e+02 1.105185589597377884e+02 1.095572797220824413e+02 1.084881548968129579e+02 1.073671906153633699e+02 1.064202730121395319e+02 1.068351952146677775e+02 1.071866198071772516e+02 1.074399691967511075e+02 1.076597958348362170e+02 1.077810414688428722e+02 1.077785790303767612e+02 1.076076779467205426e+02 1.071573330410612925e+02 1.062987629347672538e+02 1.051453811718332076e+02 1.037441524880088082e+02 1.036266642316872577e+02 1.034100742301495188e+02 1.031045926964177966e+02 1.027404182148881802e+02 1.023908787230334099e+02 1.021134638991246675e+02 1.019628416423497868e+02 1.021334559030767366e+02 1.035371618593034242e+02 1.048093472487598490e+02 1.060611932033718006e+02 1.071853730557559459e+02 1.081599244842764449e+02 1.089238575623724472e+02 1.094102851069511075e+02 1.097007227385623622e+02 1.098837641610392382e+02 1.099928101555533857e+02 1.100868422683642365e+02 1.102149753403313355e+02 1.103928462794313958e+02 1.106315937584390099e+02 1.109530306073249619e+02 1.120120058648598729e+02 1.130409358193947753e+02 1.140606248981616346e+02 1.150498855214027003e+02 1.159981658772744595e+02 1.168839772680823330e+02 1.176859242839887685e+02 1.183771039210768379e+02 1.189311153849268692e+02 1.193232708083377247e+02 1.195138445863707091e+02 1.194927851177743889e+02 1.193400018113402297e+02 1.189629450882208204e+02 1.184401613613558339e+02 1.178053245339647219e+02 1.169779506426805682e+02
1.190333724508703028e+02 1.183091086381403443e+02 1.175394850873004486e+02 1.167358789695144310e+02 1.159089895803251977e+02 1.150669782731654180e+02 1.142155582549395660e+02 1.133709215396422394e+02 1.125376978196909619e+02 1.117109602587032384e+02 1.108871578697280853e+02 1.100492963911919304e+02 1.091932442104030088e+02 1.083139100297342736e+02 1.074066322115197210e+02 1.064673521083268639e+02 1.054936298484165746e+02 1.044838900437200806e+02 1.034384159897484778e+02 1.023585630773299613e+02 1.012368267274989648e+02 1.002521703845009426e+02 9.925276590803730414e+01 9.972099973286485408e+01 1.001816989858889144e+02 1.006226725463804286e+02 1.010031106897887980e+02 1.013139311313843081e+02 1.015641340325517916e+02 1.017683273217803617e+02 1.019393708409457275e+02 1.020866844960036417e+02 1.022169571943511528e+02 1.023354560017708650e+02 1.024472773988417629e+02 1.025583391032179463e+02 1.026760205861768043e+02 1.028092846072865285e+02 1.029678804700612318e+02 1.031599047777529421e+02 1.033869828312731585e+02 1.036366808523516170e+02 1.039080931513272503e+02 1.041695259792368233e+02 1.044240054566526510e+02 1.046772838765591587e+02 1.050135668395542012e+02 1.054900563933293967e+02 1.071676794157953765e+02 1.086317782409175976e+02 1.099788556883027724e+02 1.111980730831596702e+02 1.122605801347652061e+02 1.131314485718440039e+02 1.137736286200791369e+02 1.141483024518922065e+02 1.142052181062896636e+02 1.140660292735989003e+02 1.136072572304282460e+02 1.130674137160123820e+02 1.122945844208371824e+02 1.113105411499250437e+02 1.103880218474112809e+02 1.093067189206825418e+02 1.080919868066519740e+02 1.070203108466974697e+02 1.058667484448649958e+02 1.046575866432689281e+02 1.051316105369671163e+02 1.055461897017927697e+02 1.058504906560810213e+02 1.061094211585580069e+02 1.062622498919783141e+02 1.062855156970549615e+02 1.061357998870440014e+02 1.057087212767355453e+02 1.048346418346045255e+02 1.036375849982263304e+02 1.021605276512376577e+02 1.020256257100742090e+02 1.017737460550197000e+02 1.014005490128405000e+02 1.009260400689734780e+02 1.004783574781151287e+02 1.001198783551537872e+02 9.979877934336951739e+01 1.010069525067366527e+02 1.023347999428911095e+02 1.036945882582754876e+02 1.049428755903510506e+02 1.060529089034424715e+02 1.069613733944086249e+02 1.076133968032178814e+02 1.079886983304906920e+02 1.082074117738847576e+02 1.083463674902259726e+02 1.084353222223736566e+02 1.085300970032665759e+02 1.086772329716279444e+02 1.088907347105157868e+02 1.091525617128148440e+02 1.102557426860503398e+02 1.113077008587337389e+02 1.123710592251345446e+02 1.134172511824530147e+02 1.144357049443858187e+02 1.154165004175534079e+02 1.163419328200528895e+02 1.171799508976486948e+02 1.178959282733403882e+02 1.184609163900590971e+02 1.188376814773284593e+02 1.189849741218104526e+02 1.189114249929935028e+02 1.186890887079306935e+02 1.182463896636118648e+02 1.176002345269297393e+02 1.168264925538363599e+02 1.159515347103371141e+02
1.185150600867041106e+02 1.177538216196755201e+02 1.169468444734526713e+02 1.161050511159519374e+02 1.152371272278691521e+02 1.143518694926916339e+02 1.134560912331348987e+02 1.125544081196590298e+02 1.116620180510609117e+02 1.107825129384544169e+02 1.099097489746881990e+02 1.090393332832156972e+02 1.081533977522063310e+02 1.072473771462757810e+02 1.063158944032418134e+02 1.053542367352114297e+02 1.043585516013317829e+02 1.033267164381200303e+02 1.022576715400293068e+02 1.011519922795814779e+02 1.000096417873803318e+02 9.881039812938577427e+01 9.759062063797196629e+01 9.770640403654994088e+01 9.829073744890514774e+01 9.882986058569518661e+01 9.926236254758073585e+01 9.959479377743413409e+01 9.985059712273894661e+01 1.000546312325946303e+02 1.002244863717268970e+02 1.003711218207551070e+02 1.005013075163339522e+02 1.006198502592705211e+02 1.007313419027974248e+02 1.008415047123042143e+02 1.009582019688168515e+02 1.010920393898165344e+02 1.012561142501506168e+02 1.014636916542531964e+02 1.017215653876317418e+02 1.020158822831628243e+02 1.023169327734799339e+02 1.025980315549647912e+02 1.028651791710002925e+02 1.031125104343252303e+02 1.033167620328642897e+02 1.047401044393425167e+02 1.062845176682437227e+02 1.077892996058906618e+02 1.091996685432116720e+02 1.104791669247804435e+02 1.115889248331504859e+02 1.124871074504843733e+02 1.131342629577717531e+02 1.134916629441409697e+02 1.135095812494014922e+02 1.133244898920164019e+02 1.128287380397263604e+02 1.120555975832385798e+02 1.112691527551783537e+02 1.102665606323890444e+02 1.090732861821432067e+02 1.079870697146483423e+02 1.067575332264404722e+02 1.054099579004506495e+02 1.042293820053454567e+02 1.029111349330782872e+02 1.034278998486186651e+02 1.038872724501789548e+02 1.042322133761812779e+02 1.045248738096779419e+02 1.047065513099969678e+02 1.047544487023329651e+02 1.046257661988589547e+02 1.042213614001843069e+02 1.033329940670325300e+02 1.020947987712044949e+02 1.005562784065081843e+02 1.004125047365820933e+02 1.001381766037502672e+02 9.969595946652567875e+01 9.906152738679290337e+01 9.849766041504757652e+01 9.808478612086713611e+01 9.813322517676274970e+01 9.970616386561648881e+01 1.011774035484528582e+02 1.025434128780277518e+02 1.037847721034858779e+02 1.048357710504591864e+02 1.056555292235044732e+02 1.061602205404976758e+02 1.064434099954959976e+02 1.066002174874932109e+02 1.067042651145676473e+02 1.067821404137911117e+02 1.068863177407671969e+02 1.070596284850579991e+02 1.072776966021482821e+02 1.084260647844461403e+02 1.095149036862154190e+02 1.106131625836591184e+02 1.117003694211184950e+02 1.127657612004244498e+02 1.137995504912013160e+02 1.148243454579426697e+02 1.158037158027847369e+02 1.166874901520838677e+02 1.174300709433199899e+02 1.179927637516578329e+02 1.183456526864762566e+02 1.184493421385672463e+02 1.183401191102793604e+02 1.179603556183960933e+02 1.174679579254832618e+02 1.167528578193391127e+02 1.158354088382528033e+02 1.148117492438848330e+02
1.179858772003003367e+02 1.171900247805363620e+02 1.163468280906795513e+02 1.154676441280440713e+02 1.145616737713451840e+02 1.136361928900626737e+02 1.126984420461952396e+02 1.117540090952015959e+02 1.108064662452609923e+02 1.098700430872595604e+02 1.089473120234087986e+02 1.080309779053863366e+02 1.071158164985605907e+02 1.061831250863167213e+02 1.052278716165038333e+02 1.042443443668666987e+02 1.032277289121767012e+02 1.021743474163573211e+02 1.010824260820263731e+02 9.995148527833588048e+01 9.878302366806373414e+01 9.758246621297871570e+01 9.637401730500631913e+01 9.539539776029869245e+01 9.650575242776803009e+01 9.705404174149295216e+01 9.752989721885606400e+01 9.786974774759676166e+01 9.811898421581892649e+01 9.831518621299468919e+01 9.847950651523525778e+01 9.862309342995888528e+01 9.875185383559028196e+01 9.886947411444334932e+01 9.897950231376417207e+01 9.908694961715166016e+01 9.919965764090247262e+01 9.932954364259946090e+01 9.949348621198359410e+01 9.971241315653216475e+01 1.000044794728869704e+02 1.003674041956308827e+02 1.006974834489834478e+02 1.009971558178251740e+02 1.012837238779592894e+02 1.015499204108061377e+02 1.019597785049287495e+02 1.037366167999373943e+02 1.053779934042432558e+02 1.069571169663153256e+02 1.084419792581714148e+02 1.097893322132905638e+02 1.109509421820502268e+02 1.118729366936930774e+02 1.125167446566252067e+02 1.128462825300397014e+02 1.128085067531941803e+02 1.125529727861148928e+02 1.120008121907873857e+02 1.111922046402836060e+02 1.101372162007237279e+02 1.091293433774845028e+02 1.079219003587762700e+02 1.065436492914651296e+02 1.053133113109314678e+02 1.039531709830500148e+02 1.024862263732092487e+02 1.011463447052081364e+02 1.017100157703654446e+02 1.022081390153178688e+02 1.025875522413884795e+02 1.029098845356590886e+02 1.031181861041555976e+02 1.031899047697350795e+02 1.030824421888933813e+02 1.027009973064982660e+02 1.018007440409308657e+02 1.005265563422410082e+02 9.893397605942445239e+01 9.879014875285876940e+01 9.852079151595003736e+01 9.815926300702396645e+01 9.711850833581780762e+01 9.642658784657032811e+01 9.575175324615946693e+01 9.702779446690753673e+01 9.852316356781881268e+01 9.998983975165619142e+01 1.013569349896529843e+02 1.025481186012015371e+02 1.035173170196740529e+02 1.042015959997452370e+02 1.045769026565040321e+02 1.047764315678572871e+02 1.048814114154486674e+02 1.049606230758614061e+02 1.050374035834941679e+02 1.051609433653688654e+02 1.053318256905685359e+02 1.065257869029658906e+02 1.076519471995494115e+02 1.087869885559342151e+02 1.099112140852508901e+02 1.110160847481769792e+02 1.120890751315322689e+02 1.131031312084966345e+02 1.142206625161444009e+02 1.152809840006648869e+02 1.162278539997455766e+02 1.169803016010696552e+02 1.175290900177369338e+02 1.178488793243523247e+02 1.178991560232553155e+02 1.177319117144991054e+02 1.172966322242989179e+02 1.166024993171267283e+02 1.158401274194418988e+02 1.148544710146786230e+02 1.136694782397259047e+02
1.174457798114116116e+02 1.166156933258624946e+02 1.157377534425549470e+02 1.148225907553245548e+02 1.138798566961517196e+02 1.129172505418571006e+02 1.119407762669386557e+02 1.109563030240242796e+02 1.099682948464067351e+02 1.089793339385913242e+02 1.080026914215442559e+02 1.070399188668322665e+02 1.060825952588580918e+02 1.051246260548653311e+02 1.041464606623768958e+02 1.031425129335638928e+02 1.021066559404943916e+02 1.010339482237845488e+02 9.992098124096246181e+01 9.876656316210717534e+01 9.757072072334777602e+01 9.633344766995411135e+01 9.505355276146406140e+01 9.373221263986644658e+01 9.443499514862052990e+01 9.535119604854274655e+01 9.581680351851809974e+01 9.614433145673973513e+01 9.637146764882839989e+01 9.655234768281596303e+01 9.670776310911989526e+01 9.684689046278349167e+01 9.697370497192622452e+01 9.709013083640407160e+01 9.719813526135735060e+01 9.730141910426910101e+01 9.740702720608521759e+01 9.752724315027927560e+01 9.768217696584821397e+01 9.790227783701850228e+01 9.822382094289524446e+01 9.871087177644052701e+01 9.905398314053992692e+01 9.936610126006752353e+01 9.967843466593481594e+01 9.984237963240839520e+01 1.010768820827269963e+02 1.027500845428054390e+02 1.044572145077357277e+02 1.061279530777442233e+02 1.077059678468519337e+02 1.091383035490583069e+02 1.103679385885927786e+02 1.113028348728963124e+02 1.119298126749756221e+02 1.122214223863641962e+02 1.121510094793668202e+02 1.117107959401302395e+02 1.111279946271756529e+02 1.102686200910092111e+02 1.091829592948374028e+02 1.078780258412247690e+02 1.066729878188407952e+02 1.052841508555542021e+02 1.037428890798517074e+02 1.023859837868589437e+02 1.009149015083651051e+02 9.935851157762094488e+01 9.997476718183200717e+01 1.005081505986338328e+02 1.009178097935146496e+02 1.012668759129073948e+02 1.015002358280789707e+02 1.015954180304751873e+02 1.015097841402783700e+02 1.011522383246377785e+02 1.002428442411271021e+02 9.893687262468493770e+01 9.729510078940208473e+01 9.715168992865122277e+01 9.687830962143365809e+01 9.651854430880658242e+01 9.559641000641410358e+01 9.430703288012863084e+01 9.402491847832396843e+01 9.568179117300516623e+01 9.727202603717876173e+01 9.876658255126748998e+01 1.000977773818871697e+02 1.012207821019337501e+02 1.020738531947585273e+02 1.025882939495599970e+02 1.028599461109090356e+02 1.029894025912939242e+02 1.030541983594006439e+02 1.031192912087489475e+02 1.032056690366185165e+02 1.033223550010007727e+02 1.045593288401605463e+02 1.057213202396819298e+02 1.068917978740963406e+02 1.080516870102990765e+02 1.091935024570794042e+02 1.103080062848295597e+02 1.113766728953742842e+02 1.126860988911103050e+02 1.138568404801542329e+02 1.149136076119887520e+02 1.158158898537751185e+02 1.165509226701598067e+02 1.170729290528359456e+02 1.173490596538744484e+02 1.173431459918885622e+02 1.170720972064279835e+02 1.165810780181475081e+02 1.158304216277896614e+02 1.148286817015833208e+02 1.138042060628833809e+02 1.125584734891057082e+02
1.168930783436197345e+02 1.160295789753649558e+02 1.151172616940671816e+02 1.141676334820873961e+02 1.131897618488304857e+02 1.121916581838604401e+02 1.111796332094810396e+02 1.101585247867710251e+02 1.091329895330693347e+02 1.081064678670547039e+02 1.070806041671804820e+02 1.060677003618597212e+02 1.050682534784997841e+02 1.040726889771928967e+02 1.030739368758649448e+02 1.020515083574386495e+02 1.009990849962285751e+02 9.990996315674263428e+01 9.877904157706981891e+01 9.760348602921216354e+01 9.638346246159393615e+01 9.511935852185864348e+01 9.379686764335811233e+01 9.225775340340892683e+01 9.248121961640372035e+01 9.328914590134223772e+01 9.421143335491741766e+01 9.441958380315024613e+01 9.460602357607592694e+01 9.476645292231680173e+01 9.491151850557473324e+01 9.504608948233089905e+01 9.517140599633115983e+01 9.528716738776911654e+01 9.539331263952304596e+01 9.549163618579913759e+01 9.558741801739685684e+01 9.569162701395724469e+01 9.582528799115601714e+01 9.602827075981988969e+01 9.633396821420909362e+01 9.715845978143033790e+01 9.738272767358465387e+01 9.769803750590516245e+01 9.809884152383051514e+01 9.855367616828178257e+01 1.006152069664024538e+02 1.024555212118316518e+02 1.041957379859124160e+02 1.058383899475131642e+02 1.073581041832453735e+02 1.087177245296387440e+02 1.098736597923953582e+02 1.107906514565367786e+02 1.113791906806177394e+02 1.116014980823864846e+02 1.114790187575500511e+02 1.109952270324763930e+02 1.101790854794555514e+02 1.092981651242770909e+02 1.081625783293464025e+02 1.068301086490762799e+02 1.053038191089748210e+02 1.039239580791784618e+02 1.023750917349935889e+02 1.006896689192659693e+02 9.921340727815845639e+01 9.757090014119678756e+01 9.822483954308886211e+01 9.878772759847683460e+01 9.922387269984137959e+01 9.959752056628826722e+01 9.985501273632024777e+01 9.997377412861763446e+01 9.991096662227101888e+01 9.957871598053371542e+01 9.866309861619564003e+01 9.732919644946944970e+01 9.564254029740632745e+01 9.549872137672012684e+01 9.521183372831360714e+01 9.481613267165852221e+01 9.378472497845632461e+01 9.233836795236230444e+01 9.246167192167762039e+01 9.437679318141601925e+01 9.601243847715657864e+01 9.748094776436593634e+01 9.875684168129293994e+01 9.979500956311113669e+01 1.004458852149450792e+02 1.008317896123939477e+02 1.010136687018389381e+02 1.010862700851559737e+02 1.011230928623085816e+02 1.011847184444637406e+02 1.012520082272696982e+02 1.025311515706602421e+02 1.037270341464773225e+02 1.049304996974750424e+02 1.061233099941816249e+02 1.072987201425542025e+02 1.084459088743822406e+02 1.095311122976660698e+02 1.109329063171327192e+02 1.122359448290298616e+02 1.134277521912531057e+02 1.144933857001808093e+02 1.154176664375361696e+02 1.161374813109675017e+02 1.166247012246421235e+02 1.168453676556021037e+02 1.167728632912838691e+02 1.164055638416439393e+02 1.157992180484903315e+02 1.149923780482529025e+02 1.139366777468930536e+02 1.126406974309432485e+02 1.113708504266444379e+02
1.163256370446643189e+02 1.154291917097352353e+02 1.144833790698893665e+02 1.134999327045147481e+02 1.124885471365239908e+02 1.114567437983106117e+02 1.104110342246406020e+02 1.093564820231111838e+02 1.082968916139185325e+02 1.072358672454021047e+02 1.061759268400335685e+02 1.051178193922112882e+02 1.040728363491388535e+02 1.030403385183629439e+02 1.020094966150941076e+02 1.009720584869214974e+02 9.990635988661064459e+01 9.880495419106152610e+01 9.766012457698629134e+01 9.646641577977337079e+01 9.522247066418745476e+01 9.393403111578442122e+01 9.261794733530608426e+01 9.132953330809134229e+01 9.020038573894379397e+01 9.168145213235905544e+01 9.249509475328875396e+01 9.266115543980778568e+01 9.281484406175310653e+01 9.295648174132696795e+01 9.309234775156265584e+01 9.322365014919061821e+01 9.334887003881036094e+01 9.346529781676346715e+01 9.357054334788020356e+01 9.366402727972628384e+01 9.374836474587625901e+01 9.383102721038468985e+01 9.392903134901131068e+01 9.409385037675484398e+01 9.456884270170549200e+01 9.543005734388941619e+01 9.562799284854322934e+01 9.595007804668242102e+01 9.633698756951187647e+01 9.844191233185343037e+01 1.004137413487097632e+02 1.022784937257560642e+02 1.040330878112574879e+02 1.056645445384785091e+02 1.071488711287998115e+02 1.084535614119164677e+02 1.095379971405402699e+02 1.103379021055866929e+02 1.108406075511336155e+02 1.109824026650061057e+02 1.107972048651689079e+02 1.102523106898526777e+02 1.093955594827688458e+02 1.082432517693835337e+02 1.070949384976873517e+02 1.057123533295534799e+02 1.041605406438849855e+02 1.024384810959831071e+02 1.009044007489076620e+02 9.921672250734414433e+01 9.741086739193409016e+01 9.577302925439751391e+01 9.645942028030074766e+01 9.704671656629223264e+01 9.750617570595092332e+01 9.790300622204365766e+01 9.818432953097928362e+01 9.832721974181262681e+01 9.828855484824124744e+01 9.798332411079891813e+01 9.706460062377195186e+01 9.570670916315518184e+01 9.397987700862586280e+01 9.383759129217256145e+01 9.353745731307125766e+01 9.309813170010816918e+01 9.194234203296852570e+01 9.015422824126947887e+01 9.154591253602235668e+01 9.314157878890209474e+01 9.470414209868768296e+01 9.612125039770458557e+01 9.732631810844091547e+01 9.818672743465606345e+01 9.866837558618635740e+01 9.893784258505419871e+01 9.904305302250160992e+01 9.907211471865788610e+01 9.909407450326887101e+01 9.912150822461254052e+01 1.004442984055820460e+02 1.016735165453690257e+02 1.029076001295264575e+02 1.041297192902824094e+02 1.053353857690592719e+02 1.065167012364973829e+02 1.076291747365251297e+02 1.091473078221426078e+02 1.105642773758232096e+02 1.118829601533451665e+02 1.130829200050227428e+02 1.141432240115499042e+02 1.150389274664096178e+02 1.157449383453337504e+02 1.161880158954237885e+02 1.163300345018500650e+02 1.161813264168467441e+02 1.157324962703117137e+02 1.150093239182931626e+02 1.140771732046985818e+02 1.129651367469574268e+02 1.116193401661002014e+02 1.100484469684036100e+02
1.157414332863093307e+02 1.148118905410774886e+02 1.138331525364522037e+02 1.128168885563641339e+02 1.117729004619145314e+02 1.107091275117768134e+02 1.096316402645927468e+02 1.085456330042452890e+02 1.074551067346880728e+02 1.063629989086112744e+02 1.052720260051581107e+02 1.041838775623699718e+02 1.030984267977629685e+02 1.020258696054568759e+02 1.009642827608615221e+02 9.990137956932277064e+01 9.882736041838010976e+01 9.771887456028154872e+01 9.656647048145839562e+01 9.536024497740341133e+01 9.409351248765017317e+01 9.276773758221587229e+01 9.139998495277031054e+01 9.002725467467578824e+01 8.865121256548985684e+01 9.003152780543111078e+01 9.076812437131522415e+01 9.087405211710381536e+01 9.099656215245781254e+01 9.112248065993524904e+01 9.125172833841870101e+01 9.138204607422444781e+01 9.150934556038984624e+01 9.162847206263964495e+01 9.173453187763534800e+01 9.182435044288749282e+01 9.189751717046529222e+01 9.195634808781905178e+01 9.200195320390650977e+01 9.199170260810582533e+01 9.310069209008619850e+01 9.368491813807833068e+01 9.379637290819982809e+01 9.405633697997016895e+01 9.618038435966212774e+01 9.820743145329792867e+01 1.001704790620618155e+02 1.020414924915691017e+02 1.037969220761062701e+02 1.054126879822515832e+02 1.068621802224613191e+02 1.081145843535947222e+02 1.091330146989383536e+02 1.098711317202141373e+02 1.102949143643782293e+02 1.103527683242722333e+02 1.100869059233263130e+02 1.094851704396007790e+02 1.085717763874509245e+02 1.073855221092473755e+02 1.059357941247285169e+02 1.045487891153030233e+02 1.029456842983736209e+02 1.011988466735117385e+02 9.930397814596629757e+01 9.763600712757170186e+01 9.583904601658150568e+01 9.396765618214865867e+01 9.468018633385321436e+01 9.528507775322269424e+01 9.576490558104063666e+01 9.618427790942321565e+01 9.648973086270584076e+01 9.665764657210573318e+01 9.664467154798902016e+01 9.636838502704306109e+01 9.544982687788088072e+01 9.407199916178537080e+01 9.231000715019276015e+01 9.217400333669539236e+01 9.186996899434592478e+01 9.141120729046902227e+01 9.021397656668770537e+01 8.842856494204563944e+01 9.011690896935027695e+01 9.175750491862480374e+01 9.330490772852370185e+01 9.467566113517496262e+01 9.575017213998937393e+01 9.639624952069145536e+01 9.674078901841347999e+01 9.691049702005939537e+01 9.695297874502017521e+01 9.695243586988263473e+01 9.693419224885111873e+01 9.830205577748219525e+01 9.956537464465988307e+01 1.008288676546208507e+02 1.020767795611844946e+02 1.033064171785257344e+02 1.045131770363135075e+02 1.056536847077662031e+02 1.073312314891249741e+02 1.088795359178051143e+02 1.103251891957670097e+02 1.116576077361656871e+02 1.128585401058166298e+02 1.139040976621627550e+02 1.147630880580265114e+02 1.153836549149043691e+02 1.157503176531968876e+02 1.158092971292950750e+02 1.155520641159562842e+02 1.150254431730765106e+02 1.142146202494155460e+02 1.131488981082373755e+02 1.119063943702235804e+02 1.105049898510325477e+02 1.088885335612505116e+02
1.151378425428815149e+02 1.141750530781417012e+02 1.131634423240758025e+02 1.121150961384190907e+02 1.110396715029466606e+02 1.099450722835511414e+02 1.088376072154645442e+02 1.077220703726032696e+02 1.066025793294783597e+02 1.054823043222757804e+02 1.043635098998899480e+02 1.032481857714295188e+02 1.021372673005150062e+02 1.010297344537588629e+02 9.993454706439037238e+01 9.884827410092309208e+01 9.775685813379730860e+01 9.664840101025598074e+01 9.549698170085393656e+01 9.428943953320066385e+01 9.301084692852498392e+01 9.165056096112854789e+01 9.021535705389395332e+01 8.874091983677897133e+01 8.723457511910604012e+01 8.845341088399793250e+01 8.900221186395674522e+01 8.905139645229161260e+01 8.914971795941289656e+01 8.926499805784483499e+01 8.939109386519642442e+01 8.952331163917982337e+01 8.965542232143660328e+01 8.977983439838708080e+01 8.988902051367013257e+01 8.997723045412998033e+01 9.004168974970745865e+01 9.008302384473728353e+01 9.010562081654613564e+01 9.009793298323515387e+01 9.130265230634313411e+01 9.187709815713972716e+01 9.182502232097000672e+01 9.380155551470103603e+01 9.591063180162784363e+01 9.797539956102426117e+01 9.996109771971273972e+01 1.018417782986354609e+02 1.035912398197438620e+02 1.051829489487112710e+02 1.065898444361405950e+02 1.077820937357603697e+02 1.087238504391593494e+02 1.093840370694531146e+02 1.097301121517094629e+02 1.097159918579445019e+02 1.093314562109335526e+02 1.086761011931735936e+02 1.077163323051242969e+02 1.064791706986277973e+02 1.050020237425683689e+02 1.032889505545195163e+02 1.016885260113931366e+02 9.988819435075649267e+01 9.796833150204979290e+01 9.592342751586880922e+01 9.413560851134140250e+01 9.217959516676455678e+01 9.289039633287588060e+01 9.350234844254218558e+01 9.400004855809824278e+01 9.444227839569904859e+01 9.477271464162889458e+01 9.496674204552429899e+01 9.498114412017991981e+01 9.473576935502840968e+01 9.382068514661581560e+01 9.242690564715864809e+01 9.063457350139948687e+01 9.051012182621605007e+01 9.021168147769175505e+01 8.975131602081680171e+01 8.853949242370408967e+01 8.675390312629666312e+01 8.858404058115196733e+01 9.028015177133174518e+01 9.182469037021905933e+01 9.309733200998999791e+01 9.398846243159070468e+01 9.445204927736448042e+01 9.467140220865620392e+01 9.475519160819732178e+01 9.474836254190498153e+01 9.469070045180933448e+01 9.610763580910054316e+01 9.740719394683165433e+01 9.870038712466704567e+01 9.997238720114005162e+01 1.012217819878436416e+02 1.024452557381603413e+02 1.035923065549852851e+02 1.053542761169480286e+02 1.070164574055815052e+02 1.085853581602483899e+02 1.100470803513574651e+02 1.113860560021178969e+02 1.125819717552649593e+02 1.136086865881298849e+02 1.144327268013403653e+02 1.150096263763945359e+02 1.153030435832244791e+02 1.152717905517880439e+02 1.149152744344074648e+02 1.142684926894473421e+02 1.133769222494236573e+02 1.122201185375106292e+02 1.108293644466740915e+02 1.092957210019881700e+02 1.076247400418275788e+02
1.145121374723774750e+02 1.135154995821173003e+02 1.124710107456976260e+02 1.113909187633542075e+02 1.102850349070055103e+02 1.091609748311741868e+02 1.080248617401938134e+02 1.068815920498630021e+02 1.057349528693200682e+02 1.045882908930057766e+02 1.034442158595777101e+02 1.023045250470715644e+02 1.011706253731024532e+02 1.000427386900470026e+02 9.891888590952474658e+01 9.780659687014724568e+01 9.670066736538933583e+01 9.558494322735776905e+01 9.444488615912700880e+01 9.325103404195606061e+01 9.198381007511717655e+01 9.061564112567303653e+01 8.912332416471295460e+01 8.753483404705153248e+01 8.590089137070761183e+01 8.680563792226917030e+01 8.717653929288117354e+01 8.718631843793239966e+01 8.727467722365430802e+01 8.738546419241126273e+01 8.751190499360949104e+01 8.764908103550628482e+01 8.778909293348075948e+01 8.792180162107196395e+01 8.803680853408694418e+01 8.812574407660041231e+01 8.818374829582288044e+01 8.820998233378111308e+01 8.821305117779351690e+01 8.821459924371160355e+01 8.949765427271196927e+01 9.015397910014650051e+01 9.051225977461400873e+01 9.326516506064862710e+01 9.562852545995384901e+01 9.779768899212074018e+01 9.982269488104671495e+01 1.017080537846781425e+02 1.034380329435088584e+02 1.049900996635910388e+02 1.063394237747818210e+02 1.074577820622901214e+02 1.082879388008674653e+02 1.088626192223843816e+02 1.091266685454516647e+02 1.090424970080700717e+02 1.085961848325866157e+02 1.078182170170373695e+02 1.068169046527362411e+02 1.055395387802415001e+02 1.040154078681762826e+02 1.022802967268566050e+02 1.003332057975685814e+02 9.854137290770006530e+01 9.656592736799360921e+01 9.449874431682204090e+01 9.233975079836905309e+01 9.039985226727060308e+01 9.108619631127527327e+01 9.169587919561983824e+01 9.221141957615436979e+01 9.267825396971024077e+01 9.303495583923979950e+01 9.325616517530059468e+01 9.329954098962477360e+01 9.308698426565545958e+01 9.217862445659326909e+01 9.077267734852465253e+01 8.895438153436357709e+01 8.884612058356098885e+01 8.856050501989354018e+01 8.810843139735119678e+01 8.688912902686902839e+01 8.509157393140490910e+01 8.701220297157745165e+01 8.874855503205390050e+01 9.023188022322632662e+01 9.138155860953904153e+01 9.203943152723383037e+01 9.235507082918421418e+01 9.246577831495061162e+01 9.247683296491413785e+01 9.239028166487526050e+01 9.386304063397035691e+01 9.520313496625911398e+01 9.652776510765407636e+01 9.782353860244511168e+01 9.909069462919666194e+01 1.003274689506040005e+02 1.014763907820101991e+02 1.033261546766143937e+02 1.050821356023282647e+02 1.067592978283125547e+02 1.083410084619521569e+02 1.098103314230147021e+02 1.111482714992399963e+02 1.123317856606367116e+02 1.133323109478192094e+02 1.141141951893777531e+02 1.146311251175516333e+02 1.148405270577757022e+02 1.147126478660558746e+02 1.142556243032045842e+02 1.134991770731194833e+02 1.124802611586732723e+02 1.112417479749579883e+02 1.097588939993025150e+02 1.080644500399185972e+02 1.062621642580826915e+02
1.138611397502110947e+02 1.128297500240838076e+02 1.117520311399052986e+02 1.106405161415985390e+02 1.095049032426167344e+02 1.083526767059898077e+02 1.071894915752299511e+02 1.060199287720033112e+02 1.048478158564112306e+02 1.036763060411269777e+02 1.025083325919379007e+02 1.013462287806033686e+02 1.001915225478817035e+02 9.904515336168452677e+01 9.790662331277034980e+01 9.677287404260398773e+01 9.564979414009451375e+01 9.453023927735833354e+01 9.339597058527657225e+01 9.223006150789748858e+01 9.100011677222029505e+01 8.967844651682450774e+01 8.819215246606189851e+01 8.646428437235206843e+01 8.463350406109788082e+01 8.497744538067861697e+01 8.522615537259061114e+01 8.527731621449431998e+01 8.537616461985095384e+01 8.548642299013627621e+01 8.561555128132273751e+01 8.576057947764387279e+01 8.591184551136585412e+01 8.605624798028529199e+01 8.618005845395552456e+01 8.627215927305731213e+01 8.632585913638324371e+01 8.633666801717980377e+01 8.630605249973504556e+01 8.631358397845694697e+01 8.767026198969077200e+01 8.814415728649831294e+01 9.070036447347077058e+01 9.316885238452998408e+01 9.549265027767962977e+01 9.766123715390975235e+01 9.967820424971111493e+01 1.015369035645408786e+02 1.032213571823855318e+02 1.047109647258004514e+02 1.059833715197107864e+02 1.070149631276054407e+02 1.077883647993666756e+02 1.082919881187660707e+02 1.084633961868882608e+02 1.083226807043906916e+02 1.078200391858142950e+02 1.069929568546756542e+02 1.058667394856677504e+02 1.045572832866893123e+02 1.029972183678545576e+02 1.012181563182786306e+02 9.925370527178355928e+01 9.709819058055944652e+01 9.513503679409741665e+01 9.300918424820041253e+01 9.083295508920465977e+01 8.862753889885787828e+01 8.925899760675865480e+01 8.986064306398542101e+01 9.039929879163136661e+01 9.089422363613255129e+01 9.127848492891169485e+01 9.152762030390991299e+01 9.160118430676605783e+01 9.142325005646088698e+01 9.052476992497335573e+01 8.911021136602013826e+01 8.726989698116187810e+01 8.718169717124955298e+01 8.691440900249524759e+01 8.647660229255056663e+01 8.525258139040040817e+01 8.343716984121871860e+01 8.542758737283912751e+01 8.713707059989889103e+01 8.853072035102293569e+01 8.947973688188135100e+01 8.993736519440145116e+01 9.011458799723794755e+01 9.013034315022375154e+01 9.003339304804219978e+01 9.157015169877557526e+01 9.295705360590159216e+01 9.431643638271562224e+01 9.563667945155113159e+01 9.692030608900088851e+01 9.816788122481850110e+01 9.931555870467862235e+01 1.012508323380320405e+02 1.030961788331771345e+02 1.048706433423947573e+02 1.065607274713553636e+02 1.081500860009924025e+02 1.096201019378658970e+02 1.109492189514690210e+02 1.121117164341846717e+02 1.130764384808570355e+02 1.138054061012650351e+02 1.142527021274779599e+02 1.143593813902722616e+02 1.141177792420922543e+02 1.135638152639113940e+02 1.127024103440447647e+02 1.115668753103915662e+02 1.101979346224234604e+02 1.086345384202832633e+02 1.068493075094310711e+02 1.048761238542319347e+02
1.131810855806673288e+02 1.121137143050730884e+02 1.110022328910893066e+02 1.098594370819017030e+02 1.086949103343831950e+02 1.075157588552148269e+02 1.063271692350237743e+02 1.051330665192443945e+02 1.039369003849838151e+02 1.027419260098773606e+02 1.015511134130194648e+02 1.003673442640164666e+02 9.919294503480858793e+01 9.802936066647106372e+01 9.687714116957775445e+01 9.573498828431787899e+01 9.459857981892308487e+01 9.347201098052279633e+01 9.234636969574678744e+01 9.120219851678741918e+01 9.002250916087255916e+01 8.877934679271434959e+01 8.746868978486689628e+01 8.617250040215240858e+01 8.455521518884710019e+01 8.267459033604070839e+01 8.307663721358534303e+01 8.335313952848501629e+01 8.346550686477149839e+01 8.357053703331779104e+01 8.370286298220574395e+01 8.385853103773607131e+01 8.402474469814688973e+01 8.418470708096390354e+01 8.432058133258625787e+01 8.441829012292843970e+01 8.447091474646816778e+01 8.446984444090995225e+01 8.436812236682756350e+01 8.434575477055274462e+01 8.579516397115482107e+01 8.845866750184461580e+01 9.094527755694922178e+01 9.333058832518284476e+01 9.559257931971123412e+01 9.771430218337012263e+01 9.968213602466597933e+01 1.014799047130477163e+02 1.030878825925389322e+02 1.044848108501909110e+02 1.056486861395550108e+02 1.065412671185559788e+02 1.072280581272500655e+02 1.076417517215651429e+02 1.077312981493414554e+02 1.075460915312905570e+02 1.069987066260317192e+02 1.061270431514776078e+02 1.049610947139479009e+02 1.035245576035570991e+02 1.019401732323201486e+02 1.001292639822920165e+02 9.812484952602042654e+01 9.595643656739302685e+01 9.361399695176733360e+01 9.149454369134579679e+01 8.922846676361335483e+01 8.687998807936931200e+01 8.739046307710925987e+01 8.798836546392699631e+01 8.856594288098965251e+01 8.909358103145659413e+01 8.950571798479710139e+01 8.978269947666552753e+01 8.988721337798327227e+01 8.974556758604994400e+01 8.886003559866479407e+01 8.744022828893997712e+01 8.558151018835148705e+01 8.551664234463422076e+01 8.527237963763326434e+01 8.485388366879922728e+01 8.362851065190373845e+01 8.179470392112958166e+01 8.380149000935581682e+01 8.545396938280507015e+01 8.670986725171182741e+01 8.739282945802736435e+01 8.768078630623064385e+01 8.773369151062757965e+01 8.762319857584178351e+01 8.923082144078584577e+01 9.067236250899313177e+01 9.207177393664406395e+01 9.341838990833747403e+01 9.471760062532003133e+01 9.597330745701262344e+01 9.711679134222106313e+01 9.913980011707160145e+01 1.010731402582410823e+02 1.029404956036765952e+02 1.047312058735999898e+02 1.064313262529176001e+02 1.080236732779053455e+02 1.094879198981086148e+02 1.108001034061194474e+02 1.119316811789403943e+02 1.128483568200164058e+02 1.135086839037115993e+02 1.138611058447194324e+02 1.138591095459599103e+02 1.135026741557306877e+02 1.128271912471634550e+02 1.118674613117699721e+02 1.106249504636002570e+02 1.091347841163429706e+02 1.074411834783444277e+02 1.055784618768736323e+02 1.035177950155243849e+02
1.124669036026412954e+02 1.113629348619553241e+02 1.102166906097686621e+02 1.090427557124486810e+02 1.078500348100845798e+02 1.066454717599580135e+02 1.054333515876532772e+02 1.042167653953866022e+02 1.029983600404340365e+02 1.017811289425216046e+02 1.005683737084333416e+02 9.936330285617873415e+01 9.816904897593522605e+01 9.698821047885219571e+01 9.582235246776400572e+01 9.467163460852958679e+01 9.353371655146241892e+01 9.240271832357367998e+01 9.128090335405238420e+01 9.015816328580464756e+01 8.901511400901068782e+01 8.783635234468110298e+01 8.659778393099016114e+01 8.529437006983596348e+01 8.402839706943822762e+01 8.241116459760766588e+01 8.063662800866117664e+01 8.157534572077859991e+01 8.155260532739146129e+01 8.163701545545978888e+01 8.177340217857327787e+01 8.194308323581235243e+01 8.212849229225882652e+01 8.230856088537913706e+01 8.246007112043746190e+01 8.256510136946710077e+01 8.262074780304396882e+01 8.263392684571579139e+01 8.233429756067808114e+01 8.438650977963771993e+01 8.651435561159043175e+01 8.886059791199100744e+01 9.122263601257347432e+01 9.351987783535122389e+01 9.570822592052331856e+01 9.775873507377215788e+01 9.964822663188398622e+01 1.013548972319903214e+02 1.028567229872163011e+02 1.041318778072065783e+02 1.051371515213177332e+02 1.059679662780864078e+02 1.065678161141487124e+02 1.068958545649371388e+02 1.069159873117459085e+02 1.067024130647983355e+02 1.061247547466976329e+02 1.052207358140395854e+02 1.040181083050072743e+02 1.025476654797921867e+02 1.008341922626641178e+02 9.900712984255466154e+01 9.697875653680871721e+01 9.477942906490383734e+01 9.242581995446090559e+01 8.990881188390606837e+01 8.763100599747886577e+01 8.515500263148432225e+01 8.543704861278729368e+01 8.606432615647938178e+01 8.671886398847112787e+01 8.728185687078874366e+01 8.771921600121243046e+01 8.802268689258492884e+01 8.815844357939543841e+01 8.805471574007276558e+01 8.718520252251583713e+01 8.576338099897714073e+01 8.388963172510318600e+01 8.385083207145724771e+01 8.363399977868716917e+01 8.324067652144685781e+01 8.201961717772131522e+01 8.017014410829219173e+01 8.215147746185101596e+01 8.369616200918576965e+01 8.471348931312586217e+01 8.515626835200460221e+01 8.527378178284804733e+01 8.516116925180884323e+01 8.684398298861519550e+01 8.834964868006855454e+01 8.979811738206045391e+01 9.117557135376397071e+01 9.249002497688263702e+01 9.375054265325879044e+01 9.488558058593906708e+01 9.698373115038494063e+01 9.899821899791419355e+01 1.009531583782193422e+02 1.028387456612598072e+02 1.046425764369836173e+02 1.063491310850650251e+02 1.079396109131660211e+02 1.093917081875096500e+02 1.106790267293907846e+02 1.117701425031418268e+02 1.126273893105036450e+02 1.132055491769926050e+02 1.134523333216812375e+02 1.133344869032739410e+02 1.128613539572100137e+02 1.120649919625535915e+02 1.109806846343636266e+02 1.096412953782351423e+02 1.080448686024911211e+02 1.062279129936265178e+02 1.042381610999984929e+02 1.021049651012612003e+02
1.117094386672860367e+02 1.105741776255127178e+02 1.093896076324172100e+02 1.081851191610257104e+02 1.069645196060751715e+02 1.057363255247403515e+02 1.045031234355079306e+02 1.032667061320720592e+02 1.020283824931634342e+02 1.007905232786634713e+02 9.955660750232242151e+01 9.833049355311682405e+01 9.711581634681795094e+01 9.591627051487293443e+01 9.473517726668681860e+01 9.357443705889215835e+01 9.243355777493317760e+01 9.130854641015591255e+01 9.019145882313573281e+01 8.908278262428422067e+01 8.797188031454862767e+01 8.683972670467872490e+01 8.566931586925809938e+01 8.442288058817113949e+01 8.301773491855850295e+01 8.136568931272083205e+01 7.936077523737587569e+01 7.966562261249873700e+01 7.959179892467078332e+01 7.967758993829545489e+01 7.982575145242550718e+01 8.001398535026106629e+01 8.022346856279020244e+01 8.042923855187741822e+01 8.060060346678129406e+01 8.071222143067767263e+01 8.076597060923855054e+01 8.089493794176054564e+01 8.111352397558290761e+01 8.406270824828479249e+01 8.662563597377297242e+01 8.906568673594587437e+01 9.141496277472768384e+01 9.365968097513200519e+01 9.577613004333933588e+01 9.773998747630984951e+01 9.952789840653630904e+01 1.011167795881793836e+02 1.024842174812459490e+02 1.035800631505383933e+02 1.045296834095447593e+02 1.052788333405952415e+02 1.058031660982807409e+02 1.060324957038588707e+02 1.060038829853593967e+02 1.057821223695650161e+02 1.051922327779148532e+02 1.042705148074382038e+02 1.030422617158795902e+02 1.015380255648541521e+02 9.979312348101325369e+01 9.783656123176689334e+01 9.580534321200035208e+01 9.360589057912025623e+01 9.124397525803064468e+01 8.866614973208052675e+01 8.602965808912635737e+01 8.345429592246348705e+01 8.330271044946711356e+01 8.402287448101093048e+01 8.495570580386500126e+01 8.546816163657855725e+01 8.592093677206726454e+01 8.624820501512967041e+01 8.641519154748596065e+01 8.635122747053561909e+01 8.550101877223190172e+01 8.408036861653745575e+01 8.219474088046145255e+01 8.218403327064585540e+01 8.199863755358151707e+01 8.163821211018628787e+01 8.043096327513441679e+01 7.857336029574445035e+01 8.047950362990043516e+01 8.185145400365738055e+01 8.254262427691692494e+01 8.276239331548417510e+01 8.266110216379921383e+01 8.440336579786824700e+01 8.598024094617809965e+01 8.749469301026962853e+01 8.891484066599034009e+01 9.024718664254244516e+01 9.150791735345454470e+01 9.262673996501864337e+01 9.480292435571466569e+01 9.689341994506766298e+01 9.892964993997712497e+01 1.009044320165702828e+02 1.028065516007681879e+02 1.046214192636890914e+02 1.063313237820604940e+02 1.079153473516697801e+02 1.093489474590697199e+02 1.106031727594836696e+02 1.116434750636769309e+02 1.124279490166292845e+02 1.129005984602575126e+02 1.130214984494260193e+02 1.127711459705877814e+02 1.121858834492704062e+02 1.112716057588998098e+02 1.100646538815777404e+02 1.086013950911446102e+02 1.069120157650669682e+02 1.049921474480081542e+02 1.028796062165647101e+02 1.006255184265408076e+02
1.108533957584278085e+02 1.097568366493856757e+02 1.085103431515895238e+02 1.072823864239578882e+02 1.060309689364936361e+02 1.047819801029740319e+02 1.035305681179614794e+02 1.022783407153419404e+02 1.010233725720918869e+02 9.976703253905370161e+01 9.851306439583034091e+01 9.726625981587328340e+01 9.603072853997548464e+01 9.481054031772576707e+01 9.361082175688562756e+01 9.243643115385050635e+01 9.128953914654607615e+01 9.016803583030463187e+01 8.906495954559413519e+01 8.796956058656654420e+01 8.688092950408143622e+01 8.578886506488356645e+01 8.467525365456467057e+01 8.352347374029338312e+01 8.230626972252576934e+01 8.107138496072788314e+01 7.941200564028424935e+01 7.744197084253748642e+01 7.757687460645652777e+01 7.769394045499107904e+01 7.786054788567045648e+01 7.807097598399603555e+01 7.830965271260321003e+01 7.854837010554375354e+01 7.874590833889305941e+01 7.886154609155666151e+01 7.885083919436354449e+01 7.893220176349095141e+01 8.158911440732772746e+01 8.423059545059010134e+01 8.678018538824620975e+01 8.921847126110675674e+01 9.153696315961758501e+01 9.372128734096861535e+01 9.575252843255093183e+01 9.760997463557833953e+01 9.927146075042186624e+01 1.007145486154572893e+02 1.018811391445436669e+02 1.029274124965211996e+02 1.037978680116049901e+02 1.044724272746183402e+02 1.048978645890495329e+02 1.050463075763369858e+02 1.049855595538506776e+02 1.047770531204403994e+02 1.041970375040511101e+02 1.032750658702632762e+02 1.020338832200774419e+02 1.005037565794561658e+02 9.872233912377319598e+01 9.673307318051909931e+01 9.457338559440906067e+01 9.239602087840924582e+01 9.014043341326932079e+01 8.798778855278352751e+01 8.558861450713318675e+01 8.315998747532125890e+01 8.072499253579289302e+01 8.246557026484838104e+01 8.316630579960741443e+01 8.365031914070490870e+01 8.411037572362918979e+01 8.445890035341838598e+01 8.465707737397771382e+01 8.463534686223799497e+01 8.380846737271220093e+01 8.239217260556273459e+01 8.049744180814120398e+01 8.051575421528582410e+01 8.036446315859856782e+01 8.004665309722633992e+01 7.886818214289364448e+01 7.701736680343017838e+01 7.878815778659605940e+01 7.986522893452817584e+01 8.023950421361612939e+01 8.016639131736720003e+01 8.190573707368356793e+01 8.353830938527556782e+01 8.514472407712764834e+01 8.663945058662800136e+01 8.800168221668901936e+01 8.926124902320798071e+01 9.035430119108227132e+01 9.256586839294428160e+01 9.471253871147231962e+01 9.681721351312769741e+01 9.887137261116397724e+01 1.008643173038500862e+02 1.027813991697817784e+02 1.046047708547218775e+02 1.063139813592845400e+02 1.078858607864457468e+02 1.092938361980962583e+02 1.105068618442113006e+02 1.114880906860571486e+02 1.121932690895852147e+02 1.125683785286947938e+02 1.125654368371416041e+02 1.121852847153284500e+02 1.114632668653682970e+02 1.104394564158327654e+02 1.091157124647337042e+02 1.075306318182275476e+02 1.057211137117396049e+02 1.037144453569655980e+02 1.015048760530887364e+02 9.913146424697966097e+01
1.106089659431879682e+02 1.089515519351095207e+02 1.075060041804777597e+02 1.063459816509632816e+02 1.050349248792914096e+02 1.037763312415973616e+02 1.025074367025885067e+02 1.012464911244273651e+02 9.997999814988604328e+01 9.870828077243859866e+01 9.743522318732972565e+01 9.616856386247229693e+01 9.491270891405635268e+01 9.367041788544450753e+01 9.244766459935010516e+01 9.125331278580776484e+01 9.009442625868655341e+01 8.897233950227057164e+01 8.788088847251279390e+01 8.680778127125836363e+01 8.573913648997537962e+01 8.467437576142808098e+01 8.360569055878242750e+01 8.251782662032935889e+01 8.139883848674558919e+01 8.022613058005035214e+01 7.904849529047345413e+01 7.745385763991433237e+01 7.552337023974533281e+01 7.569826098578212736e+01 7.587966049954779635e+01 7.611332765485593654e+01 7.638619522417116059e+01 7.666754577510192803e+01 7.690259833100014930e+01 7.704296627149307142e+01 7.681157941335655437e+01 7.921577262922842522e+01 8.180286485027214383e+01 8.440018428224635727e+01 8.691934330086428417e+01 8.931998673945976464e+01 9.157932064599626187e+01 9.367867248560246196e+01 9.559933331369332166e+01 9.732294593812059702e+01 9.882845843393296548e+01 1.000492594240016473e+02 1.011743157451581396e+02 1.021447085828001775e+02 1.029439817658252991e+02 1.035239937377314590e+02 1.038347540404821672e+02 1.039264872457610949e+02 1.038524289123147923e+02 1.036778872419716038e+02 1.031378640222492180e+02 1.022357666441116351e+02 1.009964883646882043e+02 9.944933938513794658e+01 9.763369018906296048e+01 9.559765277886373269e+01 9.339479958335112997e+01 9.107063952124892126e+01 8.878733992059572699e+01 8.647055586480105660e+01 8.427772856024390080e+01 8.179416306087534849e+01 7.898311521330664675e+01 8.065539376950030714e+01 8.133745420388962089e+01 8.181421474580588438e+01 8.228441017464315621e+01 8.265374892962358899e+01 8.288277161908271751e+01 8.290673727740522736e+01 8.210969389846664512e+01 8.070063791427845956e+01 7.879850226226692200e+01 7.884533076840178012e+01 7.872740862186317656e+01 7.846185280731017997e+01 7.733422806106207759e+01 7.551869198655100490e+01 7.707840989166740542e+01 7.775856085994334421e+01 7.775317512825115784e+01 7.933951643051663893e+01 8.098671798810867983e+01 8.268235999956074522e+01 8.434683920722653738e+01 8.577356684431158840e+01 8.703023912489284442e+01 8.809305751302117926e+01 9.032804363954352311e+01 9.251009625891416022e+01 9.466546316907869141e+01 9.678532345937020409e+01 9.885955209004642086e+01 1.008742504562543587e+02 1.028088295611538001e+02 1.046404903835944538e+02 1.063456205854635783e+02 1.078990466933411341e+02 1.092726148349717477e+02 1.104335635701082339e+02 1.113430152879353017e+02 1.119545797096847224e+02 1.122114882483727598e+02 1.120788230167920858e+02 1.115689178775177339e+02 1.107154816196510154e+02 1.095541891083816068e+02 1.081259042378298716e+02 1.064275753156048410e+02 1.044995818439631137e+02 1.023793588915249302e+02 1.000913074475951561e+02 9.762906567576933980e+01
1.105525529708899199e+02 1.089799065364717734e+02 1.073203648367896790e+02 1.054286934894149255e+02 1.038823856497657800e+02 1.027301486686574350e+02 1.014156749482762763e+02 1.001662126333242497e+02 9.889461349733952034e+01 9.761394691336940355e+01 9.632083053721194688e+01 9.503426865273719670e+01 9.376139951088158853e+01 9.249818317385805244e+01 9.124780949635503191e+01 9.002464748049305854e+01 8.884342310869160997e+01 8.771273995073322283e+01 8.662990720508825859e+01 8.557919660340064638e+01 8.454004276501405002e+01 8.349832722578976529e+01 8.245786796475196923e+01 8.141489513178896686e+01 8.035723974267894221e+01 7.927552632602680660e+01 7.814932089336105037e+01 7.704057423362850443e+01 7.551045719012938662e+01 7.364237800093754061e+01 7.388273659400908855e+01 7.413907541104531163e+01 7.445074068892064645e+01 7.478723547412141670e+01 7.507079573446027609e+01 7.533279951239103411e+01 7.560864886773016735e+01 7.893544590030657560e+01 8.182301821007311560e+01 8.449672656348882072e+01 8.700325969984541530e+01 8.934672481607603345e+01 9.151715286612771649e+01 9.349887550783357426e+01 9.527309492770517352e+01 9.682864268966041266e+01 9.808981265942239247e+01 9.927992048371844191e+01 1.003335171615541128e+02 1.012361689266484035e+02 1.019535072948725514e+02 1.023880188327382399e+02 1.026156720300077865e+02 1.026688688858874059e+02 1.025985357246169229e+02 1.024674461557795127e+02 1.020238142346411223e+02 1.011569954024010087e+02 9.993705155706592791e+01 9.838395116791510020e+01 9.653704150263479278e+01 9.444879134973992052e+01 9.217961781558570067e+01 8.979037233664706719e+01 8.732510113798075224e+01 8.493497025772984443e+01 8.251022287251510079e+01 8.015218711294605214e+01 7.727897852925212874e+01 7.886644909422345506e+01 7.948198252645035211e+01 7.995797354385776146e+01 8.044307127621141262e+01 8.083254810589579620e+01 8.108987787923156532e+01 8.116166671794188403e+01 8.041154751668111089e+01 7.900946222417924503e+01 7.709936253922850824e+01 7.717139183047510187e+01 7.708059439845561656e+01 7.686894483408136125e+01 7.581989061017551990e+01 7.409874683887242952e+01 7.532243406362960059e+01 7.554517573490703342e+01 7.774140873981643551e+01 7.948070241733383057e+01 8.103963821232517262e+01 8.245878296366609561e+01 8.364130437128325468e+01 8.484580200565805796e+01 8.586241406070206494e+01 8.809930041300037828e+01 9.029780711900356494e+01 9.248528078061016799e+01 9.465394108527731021e+01 9.679449059738574590e+01 9.889677067225524354e+01 1.009452185811184535e+02 1.029048957633371231e+02 1.047458534500688074e+02 1.064423680523571250e+02 1.079687921096836192e+02 1.092965252555374178e+02 1.103917779823903089e+02 1.112136448799539465e+02 1.117128254922267985e+02 1.118282942082318385e+02 1.115483236406969638e+02 1.109143394831161373e+02 1.099331792593154660e+02 1.086427810926031725e+02 1.070791876528446949e+02 1.052833746957880692e+02 1.032481752217610307e+02 1.010156296557044442e+02 9.862352685389853946e+01 9.609329839860070877e+01
1.105670702882135146e+02 1.090118696031256462e+02 1.073386963692315703e+02 1.055554343676199807e+02 1.037331182352022267e+02 1.017066950195647195e+02 1.001403313576142580e+02 9.904924290896158823e+01 9.775605034299407237e+01 9.649153257027980146e+01 9.516977335543802496e+01 9.385548340810275647e+01 9.257356855848225052e+01 9.130001206419397874e+01 9.001856377858263158e+01 8.875528511410378485e+01 8.753621067540463230e+01 8.638116123187937490e+01 8.529926858765733755e+01 8.427503301891073306e+01 8.327032001583813781e+01 8.226001964097960695e+01 8.124090908098980890e+01 8.022357863429246549e+01 7.920705967508351364e+01 7.818008331355358109e+01 7.713561559936937329e+01 7.605906296212400264e+01 7.503459442258575507e+01 7.361249122212348084e+01 7.182294940118958948e+01 7.214553351027088013e+01 7.249883404698643119e+01 7.290852520523290536e+01 7.321085710313853667e+01 7.340362555523465460e+01 7.637729625265448874e+01 7.927861919183334294e+01 8.203772187504357305e+01 8.462955980225872565e+01 8.704733877613553261e+01 8.928244586558744800e+01 9.132084607525294473e+01 9.314433671915097079e+01 9.471861263074795545e+01 9.600453994539752500e+01 9.724990657432449837e+01 9.837550633928857735e+01 9.936578652240805809e+01 1.001871322524430070e+02 1.007649238349210208e+02 1.010790014476554433e+02 1.012405231031816015e+02 1.012728908483325370e+02 1.012244994722025098e+02 1.011571361784735359e+02 1.008201188480014991e+02 1.000501399882009110e+02 9.886541246132833294e+01 9.732127209155775915e+01 9.544746895920559382e+01 9.330097055513662951e+01 9.095277307608294848e+01 8.847304391802828150e+01 8.592286096999796996e+01 8.333578481476705235e+01 8.084208716487412971e+01 7.828203916795921202e+01 7.557890611259085745e+01 7.704565119724948374e+01 7.757505392628370089e+01 7.808122470098085444e+01 7.859055096978752886e+01 7.899713079318529196e+01 7.927774896730539922e+01 7.937990827201667798e+01 7.874227421045304709e+01 7.732310453395524519e+01 7.540104567648991463e+01 7.549416411384756032e+01 7.541671791253379808e+01 7.523167133443060095e+01 7.427159040733874917e+01 7.278351902101555027e+01 7.343420763351430480e+01 7.565212486669626912e+01 7.753422458247726468e+01 7.911005869331961549e+01 8.042066682336675854e+01 8.153725691684542198e+01 8.272482950277799318e+01 8.369522355900150501e+01 8.587193749694891665e+01 8.805175817639636193e+01 9.024868366604073344e+01 9.244783001141891532e+01 9.463754795294242683e+01 9.680582736624248241e+01 9.894801316416757686e+01 1.010612894783005373e+02 1.030587259402837077e+02 1.049071054215233971e+02 1.065856880888917146e+02 1.080722960236387280e+02 1.093398289032679003e+02 1.103543201964427993e+02 1.110733484884004696e+02 1.114460192225504898e+02 1.114175857215985417e+02 1.109927389474694621e+02 1.102090812408403764e+02 1.091094558672129295e+02 1.076950834307936447e+02 1.060066266821583696e+02 1.040801091979141972e+02 1.019566459645563867e+02 9.962584637078767003e+01 9.713088323008018676e+01 9.450911467437259716e+01
1.106487661659612627e+02 1.091087615895896050e+02 1.074372108576145308e+02 1.056529359985501202e+02 1.037799820814677076e+02 1.018879798182606748e+02 1.000216578569671952e+02 9.796400281293608714e+01 9.644380996639699788e+01 9.538457716595840452e+01 9.399410481006660234e+01 9.261324690846673491e+01 9.132811947790166585e+01 9.009073354278784507e+01 8.877493860286485017e+01 8.745714468091686911e+01 8.618072143840232968e+01 8.497486890419445160e+01 8.386875536260590991e+01 8.287696665654907235e+01 8.192931490769282732e+01 8.095214275893987121e+01 7.995930656506999412e+01 7.895848599739881024e+01 7.796498897150723906e+01 7.697452935717059574e+01 7.597559511158033274e+01 7.496434524924150367e+01 7.393303325461930342e+01 7.298403672681529031e+01 7.171377178664074847e+01 7.008639098033563641e+01 7.052235400429704271e+01 7.105389233762223000e+01 7.125655638538785297e+01 7.414685722365528875e+01 7.692436541308711639e+01 7.963584125593138197e+01 8.223199310440170962e+01 8.467702456657956134e+01 8.694607112370407265e+01 8.901948963735476639e+01 9.087512382257364152e+01 9.245725076385556918e+01 9.378450116860578589e+01 9.508414966433205961e+01 9.627714446850418994e+01 9.734738522688719797e+01 9.826015950782954178e+01 9.895107838521174415e+01 9.937090388381346884e+01 9.959490815573006728e+01 9.971031068395076602e+01 9.973966178695327756e+01 9.973113477910968072e+01 9.974748480126638128e+01 9.953440489488806975e+01 9.888804763549769916e+01 9.779973027591461232e+01 9.627901387823425239e+01 9.438221543151651360e+01 9.216696569231358183e+01 8.972357479089228605e+01 8.713628546188330404e+01 8.447691696516476156e+01 8.180297130857486820e+01 7.913996505981336327e+01 7.659545610794228310e+01 7.389841752480623427e+01 7.510965002135004909e+01 7.556705447858092839e+01 7.619445802599891238e+01 7.674016510759237519e+01 7.715209961616407952e+01 7.745091730830307597e+01 7.758777278307697145e+01 7.702903354406532799e+01 7.566259150067610051e+01 7.370386568323021947e+01 7.381803316780629132e+01 7.373791811974793120e+01 7.349313531645618980e+01 7.247755091611689693e+01 7.155550937565550385e+01 7.362246504329056052e+01 7.543425364345314676e+01 7.696516564158960705e+01 7.825047218379835101e+01 7.931392116914756230e+01 8.058120101780006905e+01 8.164910412997322453e+01 8.361619712731311438e+01 8.572091937565339492e+01 8.791347729040742820e+01 9.013537890282667320e+01 9.236548055410912639e+01 9.459416473401094549e+01 9.679446092481494190e+01 9.897968034786838132e+01 1.012834073232012742e+02 1.033264769782646511e+02 1.051648570463028562e+02 1.068047344103745928e+02 1.082308772608291889e+02 1.094182244533153892e+02 1.103325168131049310e+02 1.109291460131015441e+02 1.111498146362648640e+02 1.109729160572642712e+02 1.104047029552476289e+02 1.094783461281994903e+02 1.082304142332349670e+02 1.067045272156046138e+02 1.048969984708029415e+02 1.028516956120102748e+02 1.006049508005940396e+02 9.819781252494554735e+01 9.561700303724568073e+01 9.290533853661129626e+01
1.108071514545240177e+02 1.092893685553837457e+02 1.076216289102305979e+02 1.058246583200332793e+02 1.037894583635332850e+02 1.019206460424693859e+02 1.000508325459281309e+02 9.816243831375895468e+01 9.632689144209119547e+01 9.438983468897478701e+01 9.278193772812393547e+01 9.126825848649876605e+01 8.985719828497423123e+01 8.892961128119907244e+01 8.754380791098996895e+01 8.614800477072537888e+01 8.479581708742942681e+01 8.351066478937453041e+01 8.232343970626590135e+01 8.131511590136500445e+01 8.053048044801624883e+01 7.957845970834944183e+01 7.861196411436992548e+01 7.762381807988758453e+01 7.664772346272319226e+01 7.568030775077689043e+01 7.471262778315809783e+01 7.373496056653175401e+01 7.274458146735605624e+01 7.175006288963895429e+01 7.089317540166796050e+01 6.981355016325927920e+01 6.846067300258629018e+01 6.921811316641472445e+01 7.199225258708568731e+01 7.468461678734266229e+01 7.732061550513549264e+01 7.986841973205430634e+01 8.229131681845092317e+01 8.455546866552950291e+01 8.662881088904620697e+01 8.849273128726338200e+01 9.007066737206604046e+01 9.142907688220830664e+01 9.277999614739836431e+01 9.403934001274156174e+01 9.518848251772456592e+01 9.618863852360378530e+01 9.698112433679004596e+01 9.748232026087649160e+01 9.778755291303950514e+01 9.794188223777260305e+01 9.802913170302586821e+01 9.807162365243165425e+01 9.811920489940990819e+01 9.824049641705511249e+01 9.815719257434058420e+01 9.769342964507282545e+01 9.671724499461650737e+01 9.529040667263600994e+01 9.335006199204727295e+01 9.103897192392510362e+01 8.847390500376015154e+01 8.575375009118847913e+01 8.296017843250041324e+01 8.016453221022226217e+01 7.742545124950675017e+01 7.478932850208497030e+01 7.227682526525619267e+01 7.284998298048103038e+01 7.334661421493551359e+01 7.457361292946404774e+01 7.492032752468682588e+01 7.530150916534695682e+01 7.560982660791420074e+01 7.578056085239995809e+01 7.529279931143582871e+01 7.396219285564458801e+01 7.201087312302085763e+01 7.215265989340045394e+01 7.207620009133223959e+01 7.169149897118006720e+01 6.994010549624005080e+01 7.164089960742046514e+01 7.326804868802673809e+01 7.470427514440491734e+01 7.591968073275398865e+01 7.704046214745000043e+01 7.800537217161699743e+01 7.965080112406927526e+01 8.242223240036348386e+01 8.501001800580223744e+01 8.730633360359664152e+01 8.945833262010832243e+01 9.168292755916607462e+01 9.383576249508352873e+01 9.591289961756973526e+01 9.801571606744914789e+01 9.998297478687135253e+01 1.017711222325202272e+02 1.037516538847859948e+02 1.055127052455688528e+02 1.070776683815400219e+02 1.084160850740892386e+02 1.095004265858205059e+02 1.102949694733256791e+02 1.107524956489289849e+02 1.108161260910058274e+02 1.104781162205169522e+02 1.097763146684389142e+02 1.087135856627779589e+02 1.073273836167100654e+02 1.056554455817387748e+02 1.037435985876048221e+02 1.015853331490832545e+02 9.922829843277924056e+01 9.670895035702535836e+01 9.406709102176073145e+01 9.128557494717755105e+01
1.110571743041617481e+02 1.095798068802301088e+02 1.079028908350756382e+02 1.062648346466557143e+02 1.048353578357685763e+02 1.031492815303132744e+02 1.013634535126562213e+02 9.966758536259352752e+01 9.789396410296994588e+01 9.610040732671784269e+01 9.446850343501027680e+01 9.269386043252589502e+01 9.052809013243421532e+01 8.796090548484745852e+01 8.630031097794838502e+01 8.479067033260315611e+01 8.335449448511842263e+01 8.198274655323136528e+01 8.067919347986493506e+01 7.945783391929138872e+01 7.924216230174565112e+01 7.810210409819740107e+01 7.723228073166471574e+01 7.620702345936906852e+01 7.525404078029539789e+01 7.431807828395747606e+01 7.336778563115922225e+01 7.242201801418742946e+01 7.144963206416375101e+01 7.044911612247695132e+01 6.946427400136201413e+01 6.865557083615996703e+01 6.744366407188702794e+01 6.987944812624107271e+01 7.244969520098806015e+01 7.502164093983442683e+01 7.751936813883048671e+01 7.990095448271770806e+01 8.213558376476548517e+01 8.419053487567181548e+01 8.601165195512376727e+01 8.756244376401994600e+01 8.893962886475588903e+01 9.033605504872555514e+01 9.165996614225630879e+01 9.288898997533490842e+01 9.398118876765158802e+01 9.487490102903031186e+01 9.544746296696148136e+01 9.581278777583102624e+01 9.602548376690120335e+01 9.612841348625791227e+01 9.620300004978045649e+01 9.627176806081178029e+01 9.638914913761797720e+01 9.664480110523628298e+01 9.671190919006537001e+01 9.642985360637565861e+01 9.563223542898973051e+01 9.435653904049466689e+01 9.274190831274403024e+01 9.070963084491597783e+01 8.835343516978814193e+01 8.578682165316264729e+01 8.309789019132622911e+01 8.035068947265585848e+01 7.760087316940112601e+01 7.490695508396272828e+01 7.241837737318149948e+01 6.983941495705727220e+01 7.184450828796340716e+01 7.281310676034574669e+01 7.308621355820865517e+01 7.343887410304388652e+01 7.375180025553883922e+01 7.395530286543753107e+01 7.353778308708471911e+01 7.224954889488601850e+01 7.032129919550392572e+01 7.050392310842431698e+01 7.048650487079221705e+01 7.022596127097661167e+01 6.883731544575236683e+01 7.080307655198065220e+01 7.224260650456621136e+01 7.356976618116529210e+01 7.434256611058154363e+01 7.601057589554605443e+01 7.912068065025722774e+01 8.163506162530634924e+01 8.407308630054772891e+01 8.642478812615513561e+01 8.880041421931518641e+01 9.100550798153309984e+01 9.308842463779716070e+01 9.522040340281418480e+01 9.723786114953445292e+01 9.915128018800268705e+01 1.010404817453876376e+02 1.027415694384696252e+02 1.043112747195347367e+02 1.059322267311617765e+02 1.074146272388086487e+02 1.086379639004876196e+02 1.095938803241127601e+02 1.102468802516900581e+02 1.105418676141060246e+02 1.104435138749513357e+02 1.099523006705844210e+02 1.090948860474507995e+02 1.079089971498225822e+02 1.063914658851757054e+02 1.045843492713313481e+02 1.025284143742460543e+02 1.002733374728269951e+02 9.781144152345943610e+01 9.519372703999067653e+01 9.245534309590264854e+01 8.963194553407711851e+01
1.114164000256151752e+02 1.100257772923620507e+02 1.087065873168446331e+02 1.073356106373526870e+02 1.058734315978613409e+02 1.042638259364184279e+02 1.027019277568133475e+02 1.010470642554989524e+02 9.932592267806347763e+01 9.770163412881321108e+01 9.599412511200863207e+01 9.411841124141338355e+01 9.224895033585376325e+01 9.030101103882648772e+01 8.858220390746312489e+01 8.692622806585701767e+01 8.549025787371573415e+01 8.396340467915331374e+01 8.226574763066355445e+01 8.020507183201716828e+01 7.769449747412042484e+01 7.634796462646190207e+01 7.603511142594348371e+01 7.469967266960010477e+01 7.371907466884051985e+01 7.292064893253808577e+01 7.194603120414159036e+01 7.103828972632489069e+01 7.011710154658715055e+01 6.910488875114864982e+01 6.802446134691420809e+01 6.705229757427825632e+01 6.662622228369812660e+01 6.978437523653957442e+01 7.251640966768876240e+01 7.504690201816836748e+01 7.741363735274046576e+01 7.960850971254951958e+01 8.162192685331305597e+01 8.337731258936767631e+01 8.491966722186808170e+01 8.631169198390213637e+01 8.774924367675974679e+01 8.913573959598868157e+01 9.044518586186279663e+01 9.163121646262230513e+01 9.264528005483758477e+01 9.328980964660364350e+01 9.370556525832458306e+01 9.395744816616458195e+01 9.409696759434122271e+01 9.416462118143461169e+01 9.423954833734795500e+01 9.434334703472138983e+01 9.453387414896366181e+01 9.497580904943966118e+01 9.520861048863393705e+01 9.510643865517772610e+01 9.449153787986715258e+01 9.336545101322094808e+01 9.181466865877642647e+01 9.002113622212482369e+01 8.789559935223164189e+01 8.545434228465875037e+01 8.283108260632894826e+01 8.007959856765766915e+01 7.723560650955037943e+01 7.429966383070082259e+01 7.120020612653078729e+01 6.832868838727544869e+01 7.011494496311581770e+01 7.101027028590220880e+01 7.123007346555451136e+01 7.155934562630754669e+01 7.187322112897727777e+01 7.210856285264173948e+01 7.176474017209049805e+01 7.052976671592334412e+01 6.863440595971320590e+01 6.885690355734560342e+01 6.890944976249123499e+01 6.884958419625650095e+01 6.786786495095563509e+01 6.973599587259070631e+01 7.062011462692545649e+01 7.228805923187458404e+01 7.554012243631511581e+01 7.816495457042157113e+01 8.077593490113544306e+01 8.332305207789923429e+01 8.574784970910758375e+01 8.806977407252701084e+01 9.024336374054098542e+01 9.247264190970687991e+01 9.455004926971174939e+01 9.650097647503845621e+01 9.848134329688610933e+01 1.003215361468423481e+02 1.020274290227906988e+02 1.036777483492732728e+02 1.051413480214770004e+02 1.065290266620749122e+02 1.077972706634469660e+02 1.088562375218720177e+02 1.096571565664016816e+02 1.101525545824497243e+02 1.102799184640315389e+02 1.100153654979115032e+02 1.093861889433773769e+02 1.083880586977037979e+02 1.070520755616428374e+02 1.054184142717438988e+02 1.034817030348202707e+02 1.012918384812294477e+02 9.889472509795750454e+01 9.634461679260098776e+01 9.363322399583960021e+01 9.081292325613148364e+01 8.791431572297850039e+01
1.118274996283072085e+02 1.107044340914676184e+02 1.095432965275371942e+02 1.082506287564787186e+02 1.068282836926846500e+02 1.054274804410377300e+02 1.039139722233663008e+02 1.023145874412697651e+02 1.007856614222695413e+02 9.917134082308544407e+01 9.744010029804442752e+01 9.579153778725590485e+01 9.403559854800522544e+01 9.226461681729168163e+01 9.050250503668726765e+01 8.898312991113807868e+01 8.740233403854340111e+01 8.568583985896280808e+01 8.395244487244185905e+01 8.194767561276712797e+01 7.983227604839306935e+01 7.753537997762444434e+01 7.457221185211176362e+01 7.312904555148475083e+01 7.190350364819751405e+01 7.170204368955653251e+01 7.043725599706417029e+01 6.951287929519106967e+01 6.878062857994622448e+01 6.779418246152550864e+01 6.669725485840882584e+01 6.521825427660508012e+01 6.744987297169478779e+01 6.997637710026882019e+01 7.247367551407054975e+01 7.482266043424078816e+01 7.699298081615138756e+01 7.893142833834320982e+01 8.061426323456267085e+01 8.213774325875739635e+01 8.353867046543827257e+01 8.501403351456850999e+01 8.646165011134262102e+01 8.785302899321452230e+01 8.913639869128012094e+01 9.025474587059339626e+01 9.104491565286946297e+01 9.149433029273404827e+01 9.177334561458343387e+01 9.193147992478418473e+01 9.201498276462103831e+01 9.206169042695418625e+01 9.214854884047140615e+01 9.229312816442457290e+01 9.251973581041144712e+01 9.329037259371213509e+01 9.366466867572536614e+01 9.372559459925290071e+01 9.331308824688233017e+01 9.231408948091247169e+01 9.085080270415788561e+01 8.901071881579360934e+01 8.698851173539243575e+01 8.473550764505986876e+01 8.218647592377760702e+01 7.945024343884863072e+01 7.657489074635613235e+01 7.356610435041437768e+01 7.038235962707649662e+01 6.684986826775732993e+01 6.842533668216711362e+01 6.916334804364419142e+01 6.935301940219275707e+01 6.966208443927756377e+01 6.997033770552579313e+01 7.023385426454042602e+01 6.996922345761851147e+01 6.880235396553796079e+01 6.695249287509710712e+01 6.719855029158328819e+01 6.728486128892708962e+01 6.737108988586444980e+01 6.694318209616272952e+01 6.861011882485617264e+01 7.201082958106928800e+01 7.464688896179261235e+01 7.709758485083321489e+01 7.989050846536628114e+01 8.249485541220454365e+01 8.500107260335809656e+01 8.739476338216029205e+01 8.967128201954088240e+01 9.182826747997749806e+01 9.383722993536123624e+01 9.590830569958862384e+01 9.782482935069728569e+01 9.960446236365056905e+01 1.013919100857522153e+02 1.030171859359133890e+02 1.044878237838343296e+02 1.058841217533067862e+02 1.070875150236845172e+02 1.081558988465114055e+02 1.090398254916724738e+02 1.096735313681681134e+02 1.100021912793146299e+02 1.099640052989879848e+02 1.095466606679922137e+02 1.087678319407947498e+02 1.076495337588927299e+02 1.061802920876320826e+02 1.043961234657173378e+02 1.023448701500798990e+02 1.000236616933376013e+02 9.749266959688105771e+01 9.480363017613390753e+01 9.201449843698351572e+01 8.911557215041790414e+01 8.615710914306666268e+01
1.123066495976920720e+02 1.113498896830443101e+02 1.102599835844361706e+02 1.090281945417610103e+02 1.078013155226436766e+02 1.064514017453165309e+02 1.050017335700293586e+02 1.036010607265630625e+02 1.021082070176574632e+02 1.005043361025529123e+02 9.899711658841232520e+01 9.739178581941639834e+01 9.572190018134890011e+01 9.397336000106145093e+01 9.243693295680252220e+01 9.084336262604830381e+01 8.914535122434465109e+01 8.751970206667857610e+01 8.571906677979475830e+01 8.375741413859036300e+01 8.162435526652417650e+01 7.948090426258276864e+01 7.730025716677855030e+01 7.540107433574853246e+01 7.323609088903450015e+01 7.021381990976205145e+01 6.885810390747407439e+01 6.772419888707045743e+01 6.761950463463594474e+01 6.645022916039587813e+01 6.550834809581029106e+01 6.436728458072199999e+01 6.714155102624454230e+01 6.969633481871454705e+01 7.206682029688469981e+01 7.418639729352108247e+01 7.604401910813420784e+01 7.769801876347442260e+01 7.920920069914909334e+01 8.061636970054226481e+01 8.212532145665237238e+01 8.363138381851848635e+01 8.510565296532192292e+01 8.649252508441325915e+01 8.772564276778003034e+01 8.865006014401134848e+01 8.920238497637143382e+01 8.949961439591369583e+01 8.966631790979066352e+01 8.974960481770408194e+01 8.979250084585963521e+01 8.983097514576758158e+01 8.994185312202614568e+01 9.014704257878732108e+01 9.047709530639329500e+01 9.138152732192780547e+01 9.211114752635934622e+01 9.231293379114754316e+01 9.207941248115805877e+01 9.123592270010051664e+01 8.984592038350143639e+01 8.801224216529335820e+01 8.582661050640997757e+01 8.350014982505827277e+01 8.096315936299225768e+01 7.815634165874033101e+01 7.521400505530020553e+01 7.214681790440677389e+01 6.892833338802451237e+01 6.539553992032459462e+01 6.661888707319025116e+01 6.726303200397288151e+01 6.745864130926113944e+01 6.774914907136948727e+01 6.803914743991127523e+01 6.832003247124468714e+01 6.813908779393851489e+01 6.706488167499091446e+01 6.528335848897165761e+01 6.552976473202494390e+01 6.559182044820856561e+01 6.548056449844501969e+01 6.858145704413210808e+01 7.118615746485325246e+01 7.392737215736300982e+01 7.659241808150984809e+01 7.910690660200488367e+01 8.145348754121710044e+01 8.412608997880548145e+01 8.661010117470408431e+01 8.897135846204035659e+01 9.120544641389012952e+01 9.331130391580251171e+01 9.529208794874271859e+01 9.712605613492571877e+01 9.901483848650491382e+01 1.007403770156822986e+02 1.023160874006528758e+02 1.038737935643375323e+02 1.052515771890705594e+02 1.064581587704482786e+02 1.075631998225564558e+02 1.084469921491256770e+02 1.091577335887193811e+02 1.096210695636585797e+02 1.097736447098688615e+02 1.095818469794121199e+02 1.090286615934137586e+02 1.081222585361749680e+02 1.068713343274644814e+02 1.052917320834789194e+02 1.033716136618324839e+02 1.011618116845911999e+02 9.872275650094805144e+01 9.605620056814088059e+01 9.323318381386519604e+01 9.031004876760462707e+01 8.734540735263789202e+01 8.432693708859383719e+01
1.127143835023786949e+02 1.118425963690425533e+02 1.108207670797196300e+02 1.097807424617342633e+02 1.086111001349458860e+02 1.073323051338361296e+02 1.060800447660640486e+02 1.047291222672604647e+02 1.032646630994399857e+02 1.018887106470428705e+02 1.004184151884675487e+02 9.887164246445368576e+01 9.721555260271085785e+01 9.572967556514285548e+01 9.417110113768495694e+01 9.251460145884298925e+01 9.096708615123499442e+01 8.929078801789047759e+01 8.748803764811923145e+01 8.552176437162611933e+01 8.358292337981876585e+01 8.154270674339687730e+01 7.948538296949502069e+01 7.741726204176687531e+01 7.520622825226357122e+01 7.298394967391871546e+01 7.108581399338109463e+01 6.891393805836990794e+01 6.617076826529280709e+01 6.498555862966010466e+01 6.403724305465630096e+01 6.358999219602900865e+01 6.649522210597812943e+01 6.900681593917033751e+01 7.112379069659765207e+01 7.297987432551715870e+01 7.462551945954020027e+01 7.613073253422973607e+01 7.754409097369922677e+01 7.908142617637143701e+01 8.064018226901478670e+01 8.219456192385887050e+01 8.368826350389396396e+01 8.505072117470268722e+01 8.612283121640024319e+01 8.677669414496797629e+01 8.715666893517783365e+01 8.732619529275501691e+01 8.740138734458534486e+01 8.742655850266611139e+01 8.744213703816288330e+01 8.748229447699210937e+01 8.762405842883424612e+01 8.789911433667718654e+01 8.836681364130060956e+01 8.960707087294515816e+01 9.047129486226313588e+01 9.086748246236916771e+01 9.081291874610103321e+01 9.012750003492334372e+01 8.885600795572209165e+01 8.704419331818547789e+01 8.474886175606634708e+01 8.215644289603920924e+01 7.940101528038421463e+01 7.650192533185173716e+01 7.347762849259569862e+01 7.036414566382298119e+01 6.719244776758787907e+01 6.394186187785262376e+01 6.448945223500024326e+01 6.526704072899572395e+01 6.555814255591181450e+01 6.582519436490362352e+01 6.607556858701178726e+01 6.634994005942833439e+01 6.624416205413255909e+01 6.530905019904015774e+01 6.364086149898434286e+01 6.386596299998432613e+01 6.381300626847369273e+01 6.722387076181226462e+01 7.025385899397367950e+01 7.301687185542252223e+01 7.576398834595580922e+01 7.841851884041392395e+01 8.093771049464952227e+01 8.332399248541442205e+01 8.554384362283964549e+01 8.808332824319192866e+01 9.042012388574821102e+01 9.261682057356064490e+01 9.467234130940335035e+01 9.659202895053603299e+01 9.838299704538611934e+01 1.000261673936696099e+02 1.017060277211889030e+02 1.032103964845018140e+02 1.045499425654562913e+02 1.058422422838752368e+02 1.069353424278204585e+02 1.078470903823907889e+02 1.086029470787437816e+02 1.091562246343372351e+02 1.094553010008226011e+02 1.094504240531626920e+02 1.091133886886835569e+02 1.084526089769257879e+02 1.074443091301809687e+02 1.060900136091822787e+02 1.043831742239857618e+02 1.023439445645240937e+02 9.998361059923104222e+01 9.737293469426842307e+01 9.458153566207541019e+01 9.161686006426567985e+01 8.856154780774329538e+01 8.546855757196179582e+01 8.239430039563129071e+01
1.129266345376270948e+02 1.121539551221104460e+02 1.113124046948903896e+02 1.103426209127253230e+02 1.092524382443425139e+02 1.081647904771153463e+02 1.069724310493999297e+02 1.056631037906806938e+02 1.044255935435477198e+02 1.030946081033905131e+02 1.016816521097576640e+02 1.001501354973794093e+02 9.875927139213096950e+01 9.728054604622117552e+01 9.569851140430536418e+01 9.423504831991826336e+01 9.266453885801691115e+01 9.099167504603234136e+01 8.917262454380410475e+01 8.738552669490844949e+01 8.548614080291335426e+01 8.351215092462777534e+01 8.148233452478885397e+01 7.939248364548720360e+01 7.723688420738527327e+01 7.507417861470379705e+01 7.285751581594607273e+01 7.080711461146395891e+01 6.867007753014176785e+01 6.689317691992486914e+01 6.498163153964864591e+01 6.285081579751751235e+01 6.567547599665566338e+01 6.787563272219306043e+01 6.976228737877872277e+01 7.141123002981227330e+01 7.291353590156222708e+01 7.432983126159911080e+01 7.588705305663199852e+01 7.748814538152602438e+01 7.911389322338816044e+01 8.071082022831406277e+01 8.220658464831930701e+01 8.345925473995124833e+01 8.423183720872941649e+01 8.469658144585913817e+01 8.493058287071643520e+01 8.499375489600296874e+01 8.499530664632983701e+01 8.497682507656470818e+01 8.497644240483015210e+01 8.502556996476886297e+01 8.519768039791279080e+01 8.552816947027675099e+01 8.626183021006386298e+01 8.774695840660187685e+01 8.873812674211475837e+01 8.944224782280457475e+01 8.951759530818702615e+01 8.902435053474867743e+01 8.787135951637623066e+01 8.623931141801344324e+01 8.426817756002165538e+01 8.184474169709628200e+01 7.916495273791704790e+01 7.630603469878701617e+01 7.331601083590331314e+01 7.024699457703590610e+01 6.716597939233410841e+01 6.418250206605954133e+01 6.151041782566349525e+01 6.334688489568324599e+01 6.368141508171285636e+01 6.389528524155668521e+01 6.407668964555206514e+01 6.430318818557043414e+01 6.421547188989113408e+01 6.351216525425561343e+01 6.204689908745474725e+01 6.213389316274333396e+01 6.556765788469179768e+01 6.818678477609100241e+01 7.108950173221953150e+01 7.443152960761939596e+01 7.730387919718768330e+01 8.000838431396452677e+01 8.255305901603168195e+01 8.494457308552077279e+01 8.719863424959682163e+01 8.928830611617226509e+01 9.167536350899025877e+01 9.384427527283786219e+01 9.585168459639693594e+01 9.771025297934335185e+01 9.943041582675833467e+01 1.010179270896504988e+02 1.024536494858191844e+02 1.038950728896011526e+02 1.051406978945220629e+02 1.062165552347999409e+02 1.071809590201850710e+02 1.079806260940593035e+02 1.085988265305189060e+02 1.089995408935736378e+02 1.091583834283839565e+02 1.090248422421295231e+02 1.085730436104627188e+02 1.078044456339773518e+02 1.067290688069645626e+02 1.053097289464790265e+02 1.034855188684886826e+02 1.012831248563692839e+02 9.876726332170483147e+01 9.598872965271095836e+01 9.300876398464721717e+01 8.989561323247498592e+01 8.669975867501942446e+01 8.347646953381229196e+01 8.027521083587227224e+01
1.130211874855911134e+02 1.123451478914895745e+02 1.115718134759904814e+02 1.107097759957720911e+02 1.097959757450821456e+02 1.087805016514870147e+02 1.076402279345214765e+02 1.065487874019639776e+02 1.053681548463735140e+02 1.041018491666190187e+02 1.027153537846323132e+02 1.014438704694239277e+02 1.000778955328899826e+02 9.860381249508419899e+01 9.724256746277414720e+01 9.578398487030645470e+01 9.423503874819307669e+01 9.255267569896271596e+01 9.090703027538495462e+01 8.914601740332000190e+01 8.729173334607229151e+01 8.535125112352142196e+01 8.333133552776497766e+01 8.123452600008842239e+01 7.906771317952251366e+01 7.678456631900085938e+01 7.475142129315554484e+01 7.256286916154209621e+01 7.032033621710701254e+01 6.780725757895201866e+01 6.513305588948524871e+01 6.217815844399143543e+01 6.456099246628012622e+01 6.647227918624945175e+01 6.810265241674767367e+01 6.958538925316307200e+01 7.099277471130982065e+01 7.255590199344857183e+01 7.418297578072024123e+01 7.586369825815043555e+01 7.755175751178840926e+01 7.917757575600391817e+01 8.059240332200590728e+01 8.159279631357202334e+01 8.213639832484017234e+01 8.243523356085974285e+01 8.254572029328051030e+01 8.252085343037475695e+01 8.246396692572953668e+01 8.241443164340925875e+01 8.240818454778239754e+01 8.247345800190561249e+01 8.267258885400620727e+01 8.292453302783574998e+01 8.451113803379489298e+01 8.587807604018455265e+01 8.715394808171437546e+01 8.797598343459084447e+01 8.820196693355644868e+01 8.787401185058779163e+01 8.686241979862408868e+01 8.529859684836500833e+01 8.335964516602427921e+01 8.120957488267997348e+01 7.863088796988586182e+01 7.583066732782677377e+01 7.286532319186137840e+01 6.978336892824559357e+01 6.663261726984539735e+01 6.355353298101939430e+01 6.001285100050516519e+01 6.155535199407096059e+01 6.182981288525854069e+01 6.195951149460972118e+01 6.204452237029583017e+01 6.217336254636405357e+01 6.203221214780406711e+01 6.141735318038095670e+01 6.046838681283960426e+01 6.395734442771269102e+01 6.713697604018372544e+01 7.006773631449129880e+01 7.291361306618314586e+01 7.531996986733190624e+01 7.848328191083375316e+01 8.127086404143196319e+01 8.384354982450999216e+01 8.625562027739495363e+01 8.852012875494602895e+01 9.064654762787723996e+01 9.260879830556642389e+01 9.482107207087638301e+01 9.677869563906763517e+01 9.857626355659384387e+01 1.002305081056528593e+02 1.017441043600786088e+02 1.031163857722141728e+02 1.043268141398029201e+02 1.054532568163247959e+02 1.064355178897391596e+02 1.072701468684785482e+02 1.079369563228333817e+02 1.084091641426284838e+02 1.086904974055081539e+02 1.087292285311121418e+02 1.084833781860529314e+02 1.079493990635867107e+02 1.071019816734721388e+02 1.059545817618082424e+02 1.045339248869856590e+02 1.028731412894987045e+02 1.009219896482109107e+02 9.861120284438460715e+01 9.603662659004687896e+01 9.325553478733567658e+01 9.031837173474352198e+01 8.726691253218842803e+01 8.414572893862136027e+01 8.099641890952838708e+01
