ncols 119
nrows 32
xllcorner 960
yllcorner 170
cellsize 10.0
8.789900000000000000e+04 8.790100000000000000e+04 8.790300000000000000e+04 8.790500000000000000e+04 8.790700000000000000e+04 8.790900000000000000e+04 2.855400000000000000e+04 2.855500000000000000e+04 2.855600000000000000e+04 8.791700000000000000e+04 8.791900000000000000e+04 8.792100000000000000e+04 2.886000000000000000e+04 2.886100000000000000e+04 2.886200000000000000e+04 2.856300000000000000e+04 2.886300000000000000e+04 2.886400000000000000e+04 2.886500000000000000e+04 2.886600000000000000e+04 2.886700000000000000e+04 2.886800000000000000e+04 2.886900000000000000e+04 2.887000000000000000e+04 2.887100000000000000e+04 8.794600000000000000e+04 8.794800000000000000e+04 8.795300000000000000e+04 2.887600000000000000e+04 2.887700000000000000e+04 2.887800000000000000e+04 2.887900000000000000e+04 2.888000000000000000e+04 2.888100000000000000e+04 2.888200000000000000e+04 2.888300000000000000e+04 2.888400000000000000e+04 2.888500000000000000e+04 2.858600000000000000e+04 8.797700000000000000e+04 2.858800000000000000e+04 2.888800000000000000e+04 2.888900000000000000e+04 2.889000000000000000e+04 2.889100000000000000e+04 2.889200000000000000e+04 2.889300000000000000e+04 2.889400000000000000e+04 2.889500000000000000e+04 2.889600000000000000e+04 2.889700000000000000e+04 2.889800000000000000e+04 2.889900000000000000e+04 2.890000000000000000e+04 2.890100000000000000e+04 2.890200000000000000e+04 2.890300000000000000e+04 2.890400000000000000e+04 8.801200000000000000e+04 8.801400000000000000e+04 8.801600000000000000e+04 8.801800000000000000e+04 2.861000000000000000e+04 2.861100000000000000e+04 2.861200000000000000e+04 2.861300000000000000e+04 2.861400000000000000e+04 2.861500000000000000e+04 2.861600000000000000e+04 8.803400000000000000e+04 8.803600000000000000e+04 8.803800000000000000e+04 8.804000000000000000e+04 8.804200000000000000e+04 8.804400000000000000e+04 8.804600000000000000e+04 2.862400000000000000e+04 2.862500000000000000e+04 2.862600000000000000e+04 8.805700000000000000e+04 8.805900000000000000e+04 8.806100000000000000e+04 8.806300000000000000e+04 8.806500000000000000e+04 8.806700000000000000e+04 8.806900000000000000e+04 8.807100000000000000e+04 8.807300000000000000e+04 8.807500000000000000e+04 8.807700000000000000e+04 2.863800000000000000e+04 2.863900000000000000e+04 2.864000000000000000e+04 8.808200000000000000e+04 8.808400000000000000e+04 8.808600000000000000e+04 2.864400000000000000e+04 2.894500000000000000e+04 2.894600000000000000e+04 2.894700000000000000e+04 2.894800000000000000e+04 2.894900000000000000e+04 2.895000000000000000e+04 2.895100000000000000e+04 2.895200000000000000e+04 2.895300000000000000e+04 2.895400000000000000e+04 2.895500000000000000e+04 2.895600000000000000e+04 2.895700000000000000e+04 2.895800000000000000e+04 2.895900000000000000e+04 2.896000000000000000e+04 2.896100000000000000e+04 2.896200000000000000e+04 2.896300000000000000e+04 8.813100000000000000e+04 2.866500000000000000e+04 2.896500000000000000e+04
8.730100000000000000e+04 8.730300000000000000e+04 8.730500000000000000e+04 8.730700000000000000e+04 8.730900000000000000e+04 8.731100000000000000e+04 2.795500000000000000e+04 2.795600000000000000e+04 2.795700000000000000e+04 8.731900000000000000e+04 8.732100000000000000e+04 8.732300000000000000e+04 8.732500000000000000e+04 2.826200000000000000e+04 2.826300000000000000e+04 2.796400000000000000e+04 2.826400000000000000e+04 2.826500000000000000e+04 2.826600000000000000e+04 2.826700000000000000e+04 2.826800000000000000e+04 2.826900000000000000e+04 2.827000000000000000e+04 2.827100000000000000e+04 8.734600000000000000e+04 8.734800000000000000e+04 8.735000000000000000e+04 8.735500000000000000e+04 2.827700000000000000e+04 2.827800000000000000e+04 2.827900000000000000e+04 2.828000000000000000e+04 2.828100000000000000e+04 2.828200000000000000e+04 2.828300000000000000e+04 2.828400000000000000e+04 2.828500000000000000e+04 2.828600000000000000e+04 2.798700000000000000e+04 8.737900000000000000e+04 2.798900000000000000e+04 2.828900000000000000e+04 2.829000000000000000e+04 2.829100000000000000e+04 2.829200000000000000e+04 2.829300000000000000e+04 2.829400000000000000e+04 2.829500000000000000e+04 2.829600000000000000e+04 2.829700000000000000e+04 2.829800000000000000e+04 2.829900000000000000e+04 2.830000000000000000e+04 2.830100000000000000e+04 2.830200000000000000e+04 2.830300000000000000e+04 2.830400000000000000e+04 8.741200000000000000e+04 8.741400000000000000e+04 8.741600000000000000e+04 8.741800000000000000e+04 2.801000000000000000e+04 2.801100000000000000e+04 2.801200000000000000e+04 2.801300000000000000e+04 2.801400000000000000e+04 2.801500000000000000e+04 2.801600000000000000e+04 2.801700000000000000e+04 8.743600000000000000e+04 8.743800000000000000e+04 8.744000000000000000e+04 8.744200000000000000e+04 8.744400000000000000e+04 8.744600000000000000e+04 8.744800000000000000e+04 2.802500000000000000e+04 2.802600000000000000e+04 2.802700000000000000e+04 8.745900000000000000e+04 8.746100000000000000e+04 8.746300000000000000e+04 8.746500000000000000e+04 8.746700000000000000e+04 8.746900000000000000e+04 8.747100000000000000e+04 8.747300000000000000e+04 8.747500000000000000e+04 8.747700000000000000e+04 8.747900000000000000e+04 2.803900000000000000e+04 2.804000000000000000e+04 8.748200000000000000e+04 8.748400000000000000e+04 8.748600000000000000e+04 8.748800000000000000e+04 8.749000000000000000e+04 2.804600000000000000e+04 2.834700000000000000e+04 2.834800000000000000e+04 2.834900000000000000e+04 2.835000000000000000e+04 2.835100000000000000e+04 2.835200000000000000e+04 2.835300000000000000e+04 2.835400000000000000e+04 2.835500000000000000e+04 2.835600000000000000e+04 2.835700000000000000e+04 2.835800000000000000e+04 2.835900000000000000e+04 2.836000000000000000e+04 2.836100000000000000e+04 2.836200000000000000e+04 2.836300000000000000e+04 2.836400000000000000e+04 2.836500000000000000e+04 2.806600000000000000e+04 2.806700000000000000e+04
2.765000000000000000e+04 2.765100000000000000e+04 2.765200000000000000e+04 2.765300000000000000e+04 2.765400000000000000e+04 2.765500000000000000e+04 8.671500000000000000e+04 2.735700000000000000e+04 2.735800000000000000e+04 2.735900000000000000e+04 8.672300000000000000e+04 8.672500000000000000e+04 8.672700000000000000e+04 8.672900000000000000e+04 2.766400000000000000e+04 2.736500000000000000e+04 2.766500000000000000e+04 8.673400000000000000e+04 8.673600000000000000e+04 8.673800000000000000e+04 8.674000000000000000e+04 8.674200000000000000e+04 8.674400000000000000e+04 8.674600000000000000e+04 8.674800000000000000e+04 8.675000000000000000e+04 8.675200000000000000e+04 8.675700000000000000e+04 8.675900000000000000e+04 2.767900000000000000e+04 2.768000000000000000e+04 2.768100000000000000e+04 2.768200000000000000e+04 2.768300000000000000e+04 2.768400000000000000e+04 2.768500000000000000e+04 2.768600000000000000e+04 2.768700000000000000e+04 2.738800000000000000e+04 2.738900000000000000e+04 2.739000000000000000e+04 2.769000000000000000e+04 2.769100000000000000e+04 2.769200000000000000e+04 2.769300000000000000e+04 2.769400000000000000e+04 2.769500000000000000e+04 2.769600000000000000e+04 2.769700000000000000e+04 2.769800000000000000e+04 2.769900000000000000e+04 2.770000000000000000e+04 2.770100000000000000e+04 2.770200000000000000e+04 2.770300000000000000e+04 8.681000000000000000e+04 8.681200000000000000e+04 8.681400000000000000e+04 8.681600000000000000e+04 8.681800000000000000e+04 2.741000000000000000e+04 2.741100000000000000e+04 2.741200000000000000e+04 2.741300000000000000e+04 2.741400000000000000e+04 2.741500000000000000e+04 2.741600000000000000e+04 2.741700000000000000e+04 2.741800000000000000e+04 8.683800000000000000e+04 8.684000000000000000e+04 8.684200000000000000e+04 8.684400000000000000e+04 8.684600000000000000e+04 8.684800000000000000e+04 8.685000000000000000e+04 2.742600000000000000e+04 2.742700000000000000e+04 8.685900000000000000e+04 8.686100000000000000e+04 8.686300000000000000e+04 8.686500000000000000e+04 8.686700000000000000e+04 8.686900000000000000e+04 8.687100000000000000e+04 8.687300000000000000e+04 8.687500000000000000e+04 8.687700000000000000e+04 8.687900000000000000e+04 8.688100000000000000e+04 2.744000000000000000e+04 2.744100000000000000e+04 8.688400000000000000e+04 8.688600000000000000e+04 8.688800000000000000e+04 8.689000000000000000e+04 8.689200000000000000e+04 8.689400000000000000e+04 2.774800000000000000e+04 2.774900000000000000e+04 2.775000000000000000e+04 2.775100000000000000e+04 2.775200000000000000e+04 2.775300000000000000e+04 2.775400000000000000e+04 2.775500000000000000e+04 2.775600000000000000e+04 2.775700000000000000e+04 2.775800000000000000e+04 2.775900000000000000e+04 2.776000000000000000e+04 2.776100000000000000e+04 2.776200000000000000e+04 2.776300000000000000e+04 2.776400000000000000e+04 2.776500000000000000e+04 2.776600000000000000e+04 8.693700000000000000e+04 8.693900000000000000e+04
2.705100000000000000e+04 2.705200000000000000e+04 2.705300000000000000e+04 2.705400000000000000e+04 2.705500000000000000e+04 8.611500000000000000e+04 8.611700000000000000e+04 2.675800000000000000e+04 2.675900000000000000e+04 2.676000000000000000e+04 8.612500000000000000e+04 8.612700000000000000e+04 8.612900000000000000e+04 8.613100000000000000e+04 2.706500000000000000e+04 2.676600000000000000e+04 2.706600000000000000e+04 2.706700000000000000e+04 2.706800000000000000e+04 2.706900000000000000e+04 2.707000000000000000e+04 2.707100000000000000e+04 2.707200000000000000e+04 2.707300000000000000e+04 2.707400000000000000e+04 2.707500000000000000e+04 8.615400000000000000e+04 8.615900000000000000e+04 8.616100000000000000e+04 2.708000000000000000e+04 2.708100000000000000e+04 2.708200000000000000e+04 2.708300000000000000e+04 2.708400000000000000e+04 2.708500000000000000e+04 2.708600000000000000e+04 2.708700000000000000e+04 2.708800000000000000e+04 8.618100000000000000e+04 2.679000000000000000e+04 8.618200000000000000e+04 2.709100000000000000e+04 2.709200000000000000e+04 2.709300000000000000e+04 2.709400000000000000e+04 2.709500000000000000e+04 2.709600000000000000e+04 2.709700000000000000e+04 2.709800000000000000e+04 2.709900000000000000e+04 2.710000000000000000e+04 2.710100000000000000e+04 2.710200000000000000e+04 2.710300000000000000e+04 8.621000000000000000e+04 8.621200000000000000e+04 8.621400000000000000e+04 8.621600000000000000e+04 8.621800000000000000e+04 8.622000000000000000e+04 2.681100000000000000e+04 2.681200000000000000e+04 2.681300000000000000e+04 2.681400000000000000e+04 2.681500000000000000e+04 2.681600000000000000e+04 2.681700000000000000e+04 2.681800000000000000e+04 8.623800000000000000e+04 8.624000000000000000e+04 8.624200000000000000e+04 8.624400000000000000e+04 8.624600000000000000e+04 8.624800000000000000e+04 8.625000000000000000e+04 8.625200000000000000e+04 2.682700000000000000e+04 2.682800000000000000e+04 8.626100000000000000e+04 8.626300000000000000e+04 8.626500000000000000e+04 8.626700000000000000e+04 8.626900000000000000e+04 8.627100000000000000e+04 8.627300000000000000e+04 8.627500000000000000e+04 8.627700000000000000e+04 8.627900000000000000e+04 8.628100000000000000e+04 8.628300000000000000e+04 8.628500000000000000e+04 2.684200000000000000e+04 8.628600000000000000e+04 8.628800000000000000e+04 8.629000000000000000e+04 8.629200000000000000e+04 8.629400000000000000e+04 8.629600000000000000e+04 8.629800000000000000e+04 2.715000000000000000e+04 2.715100000000000000e+04 2.715200000000000000e+04 2.715300000000000000e+04 8.690800000000000000e+04 8.691000000000000000e+04 8.691200000000000000e+04 8.691400000000000000e+04 8.691600000000000000e+04 8.691800000000000000e+04 8.692000000000000000e+04 8.692200000000000000e+04 8.692400000000000000e+04 8.692600000000000000e+04 8.692800000000000000e+04 8.693000000000000000e+04 8.693200000000000000e+04 8.693400000000000000e+04 2.716800000000000000e+04 2.716900000000000000e+04
2.645200000000000000e+04 2.645300000000000000e+04 2.645400000000000000e+04 2.645500000000000000e+04 2.645600000000000000e+04 2.645700000000000000e+04 8.551900000000000000e+04 2.615900000000000000e+04 2.616000000000000000e+04 2.616100000000000000e+04 2.616200000000000000e+04 8.552900000000000000e+04 8.553100000000000000e+04 8.553300000000000000e+04 8.553500000000000000e+04 2.616700000000000000e+04 2.646700000000000000e+04 2.646800000000000000e+04 2.646900000000000000e+04 2.647000000000000000e+04 2.647100000000000000e+04 2.647200000000000000e+04 2.647300000000000000e+04 2.647400000000000000e+04 2.647500000000000000e+04 2.647600000000000000e+04 8.555600000000000000e+04 8.556100000000000000e+04 8.556300000000000000e+04 8.556500000000000000e+04 2.648200000000000000e+04 2.648300000000000000e+04 2.648400000000000000e+04 2.648500000000000000e+04 2.648600000000000000e+04 2.648700000000000000e+04 2.648800000000000000e+04 2.648900000000000000e+04 2.649000000000000000e+04 2.619100000000000000e+04 2.649100000000000000e+04 2.649200000000000000e+04 2.649300000000000000e+04 2.649400000000000000e+04 2.649500000000000000e+04 2.649600000000000000e+04 2.649700000000000000e+04 2.649800000000000000e+04 2.649900000000000000e+04 2.650000000000000000e+04 2.650100000000000000e+04 2.650200000000000000e+04 8.560800000000000000e+04 8.561000000000000000e+04 8.561200000000000000e+04 8.561400000000000000e+04 8.561600000000000000e+04 8.561800000000000000e+04 8.562000000000000000e+04 2.621100000000000000e+04 2.621200000000000000e+04 2.621300000000000000e+04 2.621400000000000000e+04 2.621500000000000000e+04 2.621600000000000000e+04 2.621700000000000000e+04 2.621800000000000000e+04 2.621900000000000000e+04 8.564000000000000000e+04 8.564200000000000000e+04 8.564400000000000000e+04 8.564600000000000000e+04 8.564800000000000000e+04 8.565000000000000000e+04 8.565200000000000000e+04 8.565400000000000000e+04 2.622800000000000000e+04 2.622900000000000000e+04 8.566300000000000000e+04 8.566500000000000000e+04 8.566700000000000000e+04 8.566900000000000000e+04 8.567100000000000000e+04 8.567300000000000000e+04 8.567500000000000000e+04 8.567700000000000000e+04 8.567900000000000000e+04 8.568100000000000000e+04 8.568300000000000000e+04 8.568500000000000000e+04 8.568700000000000000e+04 2.624300000000000000e+04 8.568800000000000000e+04 8.569000000000000000e+04 8.569200000000000000e+04 8.569400000000000000e+04 8.569600000000000000e+04 8.569800000000000000e+04 8.570000000000000000e+04 8.570200000000000000e+04 2.655200000000000000e+04 2.655300000000000000e+04 8.630800000000000000e+04 8.631000000000000000e+04 8.631200000000000000e+04 8.631400000000000000e+04 8.631600000000000000e+04 8.631800000000000000e+04 8.632000000000000000e+04 8.632200000000000000e+04 8.632400000000000000e+04 8.632600000000000000e+04 8.632800000000000000e+04 8.633000000000000000e+04 8.633200000000000000e+04 8.633400000000000000e+04 8.633600000000000000e+04 8.633800000000000000e+04 2.686900000000000000e+04
2.585300000000000000e+04 2.585400000000000000e+04 2.585500000000000000e+04 2.585600000000000000e+04 2.585700000000000000e+04 2.585800000000000000e+04 2.585900000000000000e+04 8.492300000000000000e+04 2.556100000000000000e+04 2.556200000000000000e+04 2.556300000000000000e+04 8.493100000000000000e+04 8.493300000000000000e+04 8.493500000000000000e+04 8.493700000000000000e+04 2.556800000000000000e+04 2.586800000000000000e+04 2.586900000000000000e+04 2.587000000000000000e+04 2.587100000000000000e+04 2.587200000000000000e+04 2.587300000000000000e+04 2.587400000000000000e+04 2.587500000000000000e+04 2.587600000000000000e+04 2.587700000000000000e+04 8.495800000000000000e+04 8.496300000000000000e+04 8.496500000000000000e+04 8.496700000000000000e+04 8.496900000000000000e+04 2.588400000000000000e+04 2.588500000000000000e+04 2.588600000000000000e+04 2.588700000000000000e+04 2.588800000000000000e+04 2.588900000000000000e+04 2.589000000000000000e+04 2.589100000000000000e+04 2.559200000000000000e+04 2.589200000000000000e+04 2.589300000000000000e+04 2.589400000000000000e+04 2.589500000000000000e+04 2.589600000000000000e+04 2.589700000000000000e+04 2.589800000000000000e+04 2.589900000000000000e+04 2.590000000000000000e+04 2.590100000000000000e+04 8.500600000000000000e+04 8.500800000000000000e+04 8.501000000000000000e+04 8.501200000000000000e+04 8.501400000000000000e+04 8.501600000000000000e+04 8.501800000000000000e+04 8.502000000000000000e+04 8.502200000000000000e+04 2.561200000000000000e+04 2.561300000000000000e+04 2.561400000000000000e+04 2.561500000000000000e+04 2.561600000000000000e+04 2.561700000000000000e+04 2.561800000000000000e+04 2.561900000000000000e+04 2.562000000000000000e+04 8.504200000000000000e+04 8.504400000000000000e+04 8.504600000000000000e+04 8.504800000000000000e+04 8.505000000000000000e+04 8.505200000000000000e+04 8.505400000000000000e+04 8.505600000000000000e+04 2.562900000000000000e+04 2.563000000000000000e+04 8.506500000000000000e+04 8.506700000000000000e+04 8.506900000000000000e+04 8.507100000000000000e+04 8.507300000000000000e+04 8.507500000000000000e+04 8.507700000000000000e+04 8.507900000000000000e+04 8.508100000000000000e+04 8.508300000000000000e+04 8.508500000000000000e+04 8.508700000000000000e+04 8.508900000000000000e+04 2.564400000000000000e+04 8.509000000000000000e+04 8.509200000000000000e+04 8.509400000000000000e+04 8.509600000000000000e+04 8.509800000000000000e+04 8.510000000000000000e+04 8.510200000000000000e+04 8.510400000000000000e+04 2.595300000000000000e+04 2.595400000000000000e+04 2.595500000000000000e+04 8.571200000000000000e+04 8.571400000000000000e+04 8.571600000000000000e+04 8.571800000000000000e+04 8.572000000000000000e+04 8.572200000000000000e+04 8.572400000000000000e+04 8.572600000000000000e+04 8.572800000000000000e+04 8.573000000000000000e+04 8.573200000000000000e+04 8.573400000000000000e+04 8.573600000000000000e+04 8.573800000000000000e+04 8.574000000000000000e+04 2.627000000000000000e+04
2.525400000000000000e+04 2.525500000000000000e+04 2.525600000000000000e+04 2.525700000000000000e+04 2.525800000000000000e+04 2.525900000000000000e+04 2.526000000000000000e+04 2.526100000000000000e+04 8.432700000000000000e+04 2.496300000000000000e+04 2.496400000000000000e+04 8.433300000000000000e+04 8.433500000000000000e+04 8.433700000000000000e+04 2.496800000000000000e+04 8.433800000000000000e+04 2.526900000000000000e+04 2.527000000000000000e+04 2.527100000000000000e+04 2.527200000000000000e+04 2.527300000000000000e+04 2.527400000000000000e+04 2.527500000000000000e+04 2.527600000000000000e+04 2.527700000000000000e+04 2.527800000000000000e+04 8.436000000000000000e+04 8.436500000000000000e+04 8.436700000000000000e+04 8.436900000000000000e+04 8.437100000000000000e+04 8.437300000000000000e+04 8.437500000000000000e+04 2.528700000000000000e+04 2.528800000000000000e+04 2.528900000000000000e+04 2.529000000000000000e+04 2.529100000000000000e+04 2.529200000000000000e+04 2.499300000000000000e+04 2.529300000000000000e+04 2.529400000000000000e+04 2.529500000000000000e+04 2.529600000000000000e+04 2.529700000000000000e+04 2.529800000000000000e+04 2.529900000000000000e+04 2.530000000000000000e+04 2.530100000000000000e+04 8.440600000000000000e+04 8.440800000000000000e+04 8.441000000000000000e+04 8.441200000000000000e+04 8.441400000000000000e+04 8.441600000000000000e+04 8.441800000000000000e+04 8.442000000000000000e+04 8.442200000000000000e+04 2.501200000000000000e+04 2.501300000000000000e+04 2.501400000000000000e+04 2.501500000000000000e+04 2.501600000000000000e+04 2.501700000000000000e+04 2.501800000000000000e+04 2.501900000000000000e+04 2.502000000000000000e+04 2.502100000000000000e+04 8.444400000000000000e+04 8.444600000000000000e+04 8.444800000000000000e+04 8.445000000000000000e+04 8.445200000000000000e+04 8.445400000000000000e+04 8.445600000000000000e+04 8.445800000000000000e+04 2.503000000000000000e+04 8.446500000000000000e+04 8.446700000000000000e+04 8.446900000000000000e+04 8.447100000000000000e+04 8.447300000000000000e+04 8.447500000000000000e+04 8.447700000000000000e+04 8.447900000000000000e+04 8.448100000000000000e+04 8.448300000000000000e+04 8.448500000000000000e+04 8.448700000000000000e+04 8.448900000000000000e+04 8.449100000000000000e+04 2.504500000000000000e+04 8.449200000000000000e+04 8.449400000000000000e+04 8.449600000000000000e+04 8.449800000000000000e+04 8.450000000000000000e+04 8.450200000000000000e+04 8.450400000000000000e+04 8.450600000000000000e+04 8.450800000000000000e+04 2.535500000000000000e+04 2.535600000000000000e+04 2.535700000000000000e+04 2.535800000000000000e+04 2.535900000000000000e+04 2.536000000000000000e+04 8.512200000000000000e+04 8.512400000000000000e+04 8.512600000000000000e+04 8.512800000000000000e+04 8.513000000000000000e+04 8.513200000000000000e+04 8.513400000000000000e+04 8.513600000000000000e+04 8.513800000000000000e+04 8.514000000000000000e+04 8.514200000000000000e+04 8.514400000000000000e+04
2.465500000000000000e+04 2.465600000000000000e+04 2.465700000000000000e+04 2.465800000000000000e+04 2.465900000000000000e+04 2.466000000000000000e+04 2.466100000000000000e+04 2.466200000000000000e+04 8.372900000000000000e+04 2.436400000000000000e+04 2.436500000000000000e+04 2.436600000000000000e+04 8.373700000000000000e+04 2.466800000000000000e+04 2.436900000000000000e+04 2.466900000000000000e+04 2.467000000000000000e+04 2.467100000000000000e+04 2.467200000000000000e+04 2.467300000000000000e+04 2.467400000000000000e+04 2.467500000000000000e+04 2.467600000000000000e+04 2.467700000000000000e+04 2.467800000000000000e+04 2.467900000000000000e+04 8.376500000000000000e+04 8.376700000000000000e+04 8.376900000000000000e+04 8.377100000000000000e+04 8.377300000000000000e+04 8.377500000000000000e+04 8.377700000000000000e+04 8.377900000000000000e+04 8.378100000000000000e+04 2.469000000000000000e+04 2.469100000000000000e+04 2.469200000000000000e+04 2.469300000000000000e+04 2.439400000000000000e+04 2.469400000000000000e+04 2.469500000000000000e+04 2.469600000000000000e+04 2.469700000000000000e+04 2.469800000000000000e+04 2.469900000000000000e+04 2.470000000000000000e+04 8.380400000000000000e+04 8.380600000000000000e+04 8.380800000000000000e+04 8.381000000000000000e+04 8.381200000000000000e+04 8.381400000000000000e+04 8.381600000000000000e+04 8.381800000000000000e+04 8.382000000000000000e+04 8.382200000000000000e+04 8.382400000000000000e+04 2.441300000000000000e+04 2.441400000000000000e+04 2.441500000000000000e+04 2.441600000000000000e+04 2.441700000000000000e+04 2.441800000000000000e+04 2.441900000000000000e+04 2.442000000000000000e+04 2.442100000000000000e+04 8.384400000000000000e+04 8.384600000000000000e+04 8.384800000000000000e+04 8.385000000000000000e+04 8.385200000000000000e+04 8.385400000000000000e+04 8.385600000000000000e+04 8.385800000000000000e+04 8.386000000000000000e+04 2.443100000000000000e+04 8.386700000000000000e+04 8.386900000000000000e+04 8.387100000000000000e+04 8.387300000000000000e+04 8.387500000000000000e+04 8.387700000000000000e+04 8.387900000000000000e+04 8.388100000000000000e+04 8.388300000000000000e+04 8.388500000000000000e+04 8.388700000000000000e+04 8.388900000000000000e+04 8.389100000000000000e+04 8.389300000000000000e+04 2.444600000000000000e+04 8.389400000000000000e+04 8.389600000000000000e+04 8.389800000000000000e+04 8.390000000000000000e+04 8.390200000000000000e+04 8.390400000000000000e+04 8.390600000000000000e+04 8.390800000000000000e+04 8.391000000000000000e+04 8.391200000000000000e+04 2.475700000000000000e+04 2.475800000000000000e+04 2.475900000000000000e+04 2.476000000000000000e+04 2.476100000000000000e+04 2.476200000000000000e+04 2.476300000000000000e+04 2.476400000000000000e+04 2.476500000000000000e+04 2.476600000000000000e+04 2.476700000000000000e+04 2.476800000000000000e+04 2.476900000000000000e+04 8.454000000000000000e+04 8.454200000000000000e+04 8.454400000000000000e+04 2.477300000000000000e+04
2.405600000000000000e+04 2.405700000000000000e+04 2.405800000000000000e+04 2.405900000000000000e+04 2.406000000000000000e+04 2.406100000000000000e+04 2.406200000000000000e+04 2.406300000000000000e+04 2.406400000000000000e+04 8.313300000000000000e+04 2.376600000000000000e+04 2.376700000000000000e+04 8.313900000000000000e+04 8.314100000000000000e+04 2.377000000000000000e+04 2.407000000000000000e+04 2.407100000000000000e+04 2.407200000000000000e+04 2.407300000000000000e+04 2.407400000000000000e+04 2.407500000000000000e+04 2.407600000000000000e+04 2.407700000000000000e+04 2.407800000000000000e+04 2.407900000000000000e+04 2.408000000000000000e+04 8.316700000000000000e+04 8.316900000000000000e+04 8.317100000000000000e+04 8.317300000000000000e+04 8.317500000000000000e+04 8.317700000000000000e+04 8.317900000000000000e+04 8.318100000000000000e+04 8.318300000000000000e+04 8.318500000000000000e+04 2.409200000000000000e+04 2.409300000000000000e+04 2.409400000000000000e+04 2.379500000000000000e+04 2.409500000000000000e+04 2.409600000000000000e+04 2.409700000000000000e+04 2.409800000000000000e+04 2.409900000000000000e+04 8.320200000000000000e+04 8.320400000000000000e+04 8.320600000000000000e+04 8.320800000000000000e+04 8.321000000000000000e+04 8.321200000000000000e+04 8.321400000000000000e+04 8.321600000000000000e+04 8.321800000000000000e+04 8.322000000000000000e+04 8.322200000000000000e+04 8.322400000000000000e+04 2.381300000000000000e+04 2.381400000000000000e+04 2.381500000000000000e+04 2.381600000000000000e+04 2.381700000000000000e+04 8.323900000000000000e+04 2.381900000000000000e+04 2.382000000000000000e+04 2.382100000000000000e+04 2.382200000000000000e+04 8.324600000000000000e+04 8.324800000000000000e+04 8.325000000000000000e+04 8.325200000000000000e+04 8.325400000000000000e+04 8.325600000000000000e+04 8.325800000000000000e+04 8.326000000000000000e+04 2.383100000000000000e+04 2.383200000000000000e+04 8.326900000000000000e+04 8.327100000000000000e+04 8.327300000000000000e+04 8.327500000000000000e+04 8.327700000000000000e+04 8.327900000000000000e+04 8.328100000000000000e+04 8.328300000000000000e+04 8.328500000000000000e+04 8.328700000000000000e+04 8.328900000000000000e+04 8.329100000000000000e+04 8.329300000000000000e+04 8.329500000000000000e+04 2.384700000000000000e+04 8.329600000000000000e+04 8.329800000000000000e+04 8.330000000000000000e+04 8.330200000000000000e+04 8.330400000000000000e+04 8.330600000000000000e+04 8.330800000000000000e+04 8.331000000000000000e+04 8.331200000000000000e+04 8.331400000000000000e+04 2.415800000000000000e+04 2.415900000000000000e+04 2.416000000000000000e+04 2.416100000000000000e+04 2.416200000000000000e+04 2.416300000000000000e+04 2.416400000000000000e+04 2.416500000000000000e+04 2.416600000000000000e+04 2.416700000000000000e+04 2.416800000000000000e+04 2.416900000000000000e+04 2.417000000000000000e+04 2.417100000000000000e+04 2.417200000000000000e+04 2.417300000000000000e+04 2.417400000000000000e+04
2.345700000000000000e+04 2.345800000000000000e+04 2.345900000000000000e+04 2.346000000000000000e+04 2.346100000000000000e+04 2.346200000000000000e+04 2.346300000000000000e+04 2.346400000000000000e+04 2.346500000000000000e+04 2.346600000000000000e+04 8.253700000000000000e+04 2.316800000000000000e+04 8.254100000000000000e+04 2.317000000000000000e+04 8.254200000000000000e+04 2.347100000000000000e+04 2.347200000000000000e+04 2.347300000000000000e+04 2.347400000000000000e+04 2.347500000000000000e+04 2.347600000000000000e+04 2.347700000000000000e+04 2.347800000000000000e+04 2.347900000000000000e+04 2.348000000000000000e+04 8.256400000000000000e+04 8.256900000000000000e+04 8.257100000000000000e+04 8.257300000000000000e+04 8.257500000000000000e+04 8.257700000000000000e+04 8.257900000000000000e+04 8.258100000000000000e+04 8.258300000000000000e+04 8.258500000000000000e+04 8.258700000000000000e+04 8.258900000000000000e+04 2.349400000000000000e+04 2.349500000000000000e+04 2.319600000000000000e+04 2.349600000000000000e+04 2.349700000000000000e+04 2.349800000000000000e+04 2.349900000000000000e+04 2.350000000000000000e+04 2.350100000000000000e+04 8.260600000000000000e+04 8.260800000000000000e+04 8.261000000000000000e+04 8.261200000000000000e+04 8.261400000000000000e+04 8.261600000000000000e+04 8.261800000000000000e+04 8.262000000000000000e+04 8.262200000000000000e+04 8.262400000000000000e+04 8.262600000000000000e+04 2.321400000000000000e+04 2.321500000000000000e+04 2.321600000000000000e+04 2.321700000000000000e+04 2.321800000000000000e+04 8.264100000000000000e+04 2.322000000000000000e+04 2.322100000000000000e+04 2.322200000000000000e+04 2.322300000000000000e+04 8.264800000000000000e+04 8.265000000000000000e+04 8.265200000000000000e+04 8.265400000000000000e+04 8.265600000000000000e+04 8.265800000000000000e+04 8.266000000000000000e+04 8.266200000000000000e+04 2.323200000000000000e+04 2.323300000000000000e+04 8.267100000000000000e+04 8.267300000000000000e+04 8.267500000000000000e+04 8.267700000000000000e+04 8.267900000000000000e+04 8.268100000000000000e+04 8.268300000000000000e+04 8.268500000000000000e+04 8.268700000000000000e+04 8.268900000000000000e+04 8.269100000000000000e+04 8.269300000000000000e+04 8.269500000000000000e+04 2.324700000000000000e+04 2.324800000000000000e+04 8.269800000000000000e+04 8.270000000000000000e+04 8.270200000000000000e+04 8.270400000000000000e+04 8.270600000000000000e+04 8.270800000000000000e+04 8.271000000000000000e+04 8.271200000000000000e+04 8.271400000000000000e+04 8.271600000000000000e+04 8.271800000000000000e+04 2.356000000000000000e+04 2.356100000000000000e+04 2.356200000000000000e+04 2.356300000000000000e+04 2.356400000000000000e+04 2.356500000000000000e+04 2.356600000000000000e+04 2.356700000000000000e+04 2.356800000000000000e+04 2.356900000000000000e+04 2.357000000000000000e+04 2.357100000000000000e+04 2.357200000000000000e+04 2.357300000000000000e+04 8.275100000000000000e+04 8.275300000000000000e+04
2.285800000000000000e+04 2.285900000000000000e+04 2.286000000000000000e+04 2.286100000000000000e+04 2.286200000000000000e+04 2.286300000000000000e+04 2.286400000000000000e+04 2.286500000000000000e+04 2.286600000000000000e+04 2.286700000000000000e+04 8.193900000000000000e+04 2.256900000000000000e+04 8.194300000000000000e+04 2.257100000000000000e+04 2.287100000000000000e+04 8.254500000000000000e+04 2.287300000000000000e+04 2.287400000000000000e+04 2.287500000000000000e+04 2.287600000000000000e+04 2.287700000000000000e+04 2.287800000000000000e+04 2.287900000000000000e+04 2.288000000000000000e+04 2.288100000000000000e+04 8.196600000000000000e+04 8.197100000000000000e+04 8.197300000000000000e+04 8.197500000000000000e+04 8.197700000000000000e+04 8.197900000000000000e+04 8.198100000000000000e+04 8.198300000000000000e+04 8.198500000000000000e+04 8.198700000000000000e+04 8.198900000000000000e+04 8.199100000000000000e+04 8.199300000000000000e+04 2.289600000000000000e+04 2.259700000000000000e+04 2.289700000000000000e+04 2.289800000000000000e+04 2.289900000000000000e+04 2.290000000000000000e+04 2.290100000000000000e+04 8.200600000000000000e+04 8.200800000000000000e+04 8.201000000000000000e+04 8.201200000000000000e+04 8.201400000000000000e+04 8.201600000000000000e+04 8.201800000000000000e+04 8.202000000000000000e+04 8.202200000000000000e+04 8.202400000000000000e+04 8.202600000000000000e+04 2.261400000000000000e+04 2.261500000000000000e+04 2.261600000000000000e+04 2.261700000000000000e+04 2.261800000000000000e+04 2.261900000000000000e+04 8.204300000000000000e+04 2.262100000000000000e+04 8.204700000000000000e+04 2.262300000000000000e+04 8.204800000000000000e+04 2.292400000000000000e+04 8.205200000000000000e+04 8.205400000000000000e+04 8.205600000000000000e+04 8.205800000000000000e+04 8.206000000000000000e+04 8.206200000000000000e+04 8.206400000000000000e+04 2.263300000000000000e+04 2.263400000000000000e+04 8.207300000000000000e+04 8.207500000000000000e+04 8.207700000000000000e+04 8.207900000000000000e+04 8.208100000000000000e+04 8.208300000000000000e+04 8.208500000000000000e+04 8.208700000000000000e+04 8.208900000000000000e+04 8.209100000000000000e+04 8.209300000000000000e+04 8.209500000000000000e+04 8.209700000000000000e+04 2.264800000000000000e+04 2.264900000000000000e+04 8.210000000000000000e+04 8.210200000000000000e+04 8.210400000000000000e+04 8.210600000000000000e+04 8.210800000000000000e+04 8.211000000000000000e+04 8.211200000000000000e+04 8.211400000000000000e+04 8.211600000000000000e+04 8.211800000000000000e+04 8.212000000000000000e+04 8.212500000000000000e+04 2.296200000000000000e+04 2.296300000000000000e+04 2.296400000000000000e+04 2.296500000000000000e+04 2.296600000000000000e+04 2.296700000000000000e+04 2.296800000000000000e+04 2.296900000000000000e+04 2.297000000000000000e+04 2.297100000000000000e+04 2.297200000000000000e+04 8.214900000000000000e+04 8.215100000000000000e+04 2.297500000000000000e+04 8.215500000000000000e+04
8.132100000000000000e+04 2.226000000000000000e+04 2.226100000000000000e+04 2.226200000000000000e+04 2.226300000000000000e+04 2.226400000000000000e+04 2.226500000000000000e+04 2.226600000000000000e+04 2.226700000000000000e+04 2.226800000000000000e+04 2.226900000000000000e+04 8.134300000000000000e+04 2.197100000000000000e+04 8.134400000000000000e+04 2.227200000000000000e+04 2.227300000000000000e+04 2.227400000000000000e+04 2.227500000000000000e+04 2.227600000000000000e+04 2.227700000000000000e+04 2.227800000000000000e+04 2.227900000000000000e+04 2.228000000000000000e+04 2.228100000000000000e+04 2.228200000000000000e+04 8.136800000000000000e+04 8.137300000000000000e+04 8.137500000000000000e+04 8.137700000000000000e+04 8.137900000000000000e+04 8.138100000000000000e+04 8.138300000000000000e+04 8.138500000000000000e+04 8.138700000000000000e+04 8.138900000000000000e+04 8.139100000000000000e+04 8.139300000000000000e+04 8.139500000000000000e+04 2.229700000000000000e+04 2.199800000000000000e+04 2.229800000000000000e+04 2.229900000000000000e+04 2.230000000000000000e+04 8.140400000000000000e+04 8.140600000000000000e+04 8.140800000000000000e+04 8.141000000000000000e+04 8.141200000000000000e+04 8.141400000000000000e+04 8.141600000000000000e+04 8.141800000000000000e+04 8.142000000000000000e+04 8.142200000000000000e+04 8.142400000000000000e+04 8.142600000000000000e+04 8.142800000000000000e+04 2.201500000000000000e+04 2.201600000000000000e+04 2.201700000000000000e+04 2.201800000000000000e+04 2.201900000000000000e+04 2.202000000000000000e+04 2.202100000000000000e+04 2.202200000000000000e+04 2.202300000000000000e+04 2.202400000000000000e+04 8.145000000000000000e+04 8.145200000000000000e+04 8.145400000000000000e+04 8.145600000000000000e+04 8.145800000000000000e+04 8.146000000000000000e+04 8.146200000000000000e+04 8.146400000000000000e+04 8.146600000000000000e+04 2.203400000000000000e+04 2.203500000000000000e+04 8.147500000000000000e+04 8.147700000000000000e+04 8.147900000000000000e+04 8.148100000000000000e+04 8.148300000000000000e+04 8.148500000000000000e+04 8.148700000000000000e+04 8.148900000000000000e+04 8.149100000000000000e+04 8.149300000000000000e+04 8.149500000000000000e+04 8.149700000000000000e+04 8.149900000000000000e+04 2.204900000000000000e+04 8.150000000000000000e+04 2.235000000000000000e+04 8.150400000000000000e+04 8.150600000000000000e+04 8.150800000000000000e+04 8.151000000000000000e+04 8.151200000000000000e+04 8.151400000000000000e+04 8.151600000000000000e+04 8.151800000000000000e+04 8.152000000000000000e+04 8.152200000000000000e+04 2.206200000000000000e+04 2.236300000000000000e+04 2.236400000000000000e+04 2.236500000000000000e+04 2.236600000000000000e+04 2.236700000000000000e+04 2.236800000000000000e+04 2.236900000000000000e+04 2.237000000000000000e+04 2.237100000000000000e+04 2.237200000000000000e+04 2.237300000000000000e+04 2.237400000000000000e+04 8.155300000000000000e+04 8.155500000000000000e+04 8.155700000000000000e+04
8.072300000000000000e+04 8.072500000000000000e+04 8.072700000000000000e+04 2.166300000000000000e+04 2.166400000000000000e+04 2.166500000000000000e+04 2.166600000000000000e+04 2.166700000000000000e+04 2.166800000000000000e+04 2.166900000000000000e+04 2.167000000000000000e+04 2.167100000000000000e+04 2.137200000000000000e+04 2.167200000000000000e+04 2.167300000000000000e+04 2.167400000000000000e+04 2.167500000000000000e+04 2.167600000000000000e+04 2.167700000000000000e+04 2.167800000000000000e+04 2.167900000000000000e+04 2.168000000000000000e+04 2.168100000000000000e+04 2.168200000000000000e+04 2.168300000000000000e+04 8.077300000000000000e+04 8.077500000000000000e+04 8.077700000000000000e+04 8.077900000000000000e+04 8.078100000000000000e+04 8.078300000000000000e+04 8.078500000000000000e+04 8.078700000000000000e+04 8.078900000000000000e+04 8.079100000000000000e+04 8.079300000000000000e+04 8.079500000000000000e+04 8.079700000000000000e+04 2.139800000000000000e+04 8.079800000000000000e+04 2.169900000000000000e+04 2.170000000000000000e+04 2.170100000000000000e+04 2.170200000000000000e+04 2.170300000000000000e+04 8.081000000000000000e+04 8.081200000000000000e+04 8.081400000000000000e+04 8.081600000000000000e+04 8.081800000000000000e+04 8.082000000000000000e+04 8.082200000000000000e+04 8.082400000000000000e+04 8.082600000000000000e+04 8.082800000000000000e+04 2.141500000000000000e+04 2.141600000000000000e+04 2.141700000000000000e+04 2.141800000000000000e+04 2.141900000000000000e+04 2.142000000000000000e+04 2.142100000000000000e+04 2.142200000000000000e+04 2.142300000000000000e+04 2.142400000000000000e+04 2.142500000000000000e+04 8.085200000000000000e+04 8.085400000000000000e+04 8.085600000000000000e+04 8.085800000000000000e+04 8.086000000000000000e+04 8.086200000000000000e+04 8.086400000000000000e+04 8.086600000000000000e+04 8.086800000000000000e+04 2.143500000000000000e+04 2.143600000000000000e+04 8.087700000000000000e+04 8.087900000000000000e+04 8.088100000000000000e+04 8.088300000000000000e+04 8.088500000000000000e+04 8.088700000000000000e+04 8.088900000000000000e+04 8.089100000000000000e+04 8.089300000000000000e+04 8.089500000000000000e+04 8.089700000000000000e+04 8.089900000000000000e+04 8.090100000000000000e+04 2.145000000000000000e+04 8.090200000000000000e+04 8.090400000000000000e+04 8.090600000000000000e+04 8.090800000000000000e+04 8.091000000000000000e+04 8.091200000000000000e+04 8.091400000000000000e+04 8.091600000000000000e+04 8.091800000000000000e+04 8.092000000000000000e+04 8.092200000000000000e+04 8.092400000000000000e+04 8.092600000000000000e+04 8.093100000000000000e+04 2.176500000000000000e+04 2.176600000000000000e+04 2.176700000000000000e+04 2.176800000000000000e+04 2.176900000000000000e+04 2.177000000000000000e+04 2.177100000000000000e+04 2.177200000000000000e+04 2.177300000000000000e+04 2.177400000000000000e+04 2.177500000000000000e+04 2.177600000000000000e+04 2.177700000000000000e+04 8.095900000000000000e+04
8.012500000000000000e+04 8.012700000000000000e+04 8.012900000000000000e+04 8.013100000000000000e+04 8.013300000000000000e+04 8.013500000000000000e+04 8.013700000000000000e+04 2.106800000000000000e+04 2.106900000000000000e+04 2.107000000000000000e+04 2.107100000000000000e+04 2.107200000000000000e+04 2.077300000000000000e+04 2.107300000000000000e+04 2.107400000000000000e+04 2.107500000000000000e+04 2.107600000000000000e+04 2.107700000000000000e+04 2.107800000000000000e+04 2.107900000000000000e+04 2.108000000000000000e+04 2.108100000000000000e+04 2.108200000000000000e+04 2.108300000000000000e+04 2.108400000000000000e+04 8.017500000000000000e+04 8.017700000000000000e+04 8.017900000000000000e+04 8.018100000000000000e+04 8.018300000000000000e+04 8.018500000000000000e+04 8.018700000000000000e+04 8.018900000000000000e+04 8.019100000000000000e+04 8.019300000000000000e+04 8.019500000000000000e+04 8.019700000000000000e+04 2.079800000000000000e+04 8.019800000000000000e+04 2.109900000000000000e+04 8.080100000000000000e+04 2.110100000000000000e+04 2.110200000000000000e+04 8.020800000000000000e+04 8.021000000000000000e+04 8.021200000000000000e+04 8.021400000000000000e+04 8.021600000000000000e+04 8.021800000000000000e+04 8.022000000000000000e+04 8.022200000000000000e+04 8.022400000000000000e+04 8.022600000000000000e+04 8.022800000000000000e+04 8.023000000000000000e+04 2.081600000000000000e+04 2.081700000000000000e+04 2.081800000000000000e+04 2.081900000000000000e+04 2.082000000000000000e+04 2.082100000000000000e+04 2.082200000000000000e+04 2.082300000000000000e+04 8.025100000000000000e+04 2.082500000000000000e+04 8.025200000000000000e+04 2.112600000000000000e+04 2.112700000000000000e+04 2.112800000000000000e+04 2.112900000000000000e+04 2.113000000000000000e+04 2.113100000000000000e+04 8.026600000000000000e+04 8.026800000000000000e+04 8.027000000000000000e+04 2.083600000000000000e+04 2.083700000000000000e+04 8.027900000000000000e+04 8.028100000000000000e+04 8.028300000000000000e+04 8.028500000000000000e+04 8.028700000000000000e+04 8.028900000000000000e+04 8.029100000000000000e+04 8.029300000000000000e+04 8.029500000000000000e+04 8.029700000000000000e+04 8.029900000000000000e+04 8.030100000000000000e+04 8.030300000000000000e+04 2.085100000000000000e+04 8.030400000000000000e+04 8.030600000000000000e+04 8.030800000000000000e+04 8.031000000000000000e+04 8.031200000000000000e+04 8.031400000000000000e+04 8.031600000000000000e+04 8.031800000000000000e+04 8.032000000000000000e+04 8.032200000000000000e+04 8.032400000000000000e+04 8.032600000000000000e+04 8.032800000000000000e+04 8.033300000000000000e+04 2.116600000000000000e+04 2.116700000000000000e+04 2.116800000000000000e+04 2.116900000000000000e+04 2.117000000000000000e+04 2.117100000000000000e+04 2.117200000000000000e+04 2.117300000000000000e+04 2.117400000000000000e+04 2.117500000000000000e+04 2.117600000000000000e+04 2.117700000000000000e+04 2.117800000000000000e+04 2.117900000000000000e+04
7.952700000000000000e+04 7.952900000000000000e+04 7.953100000000000000e+04 7.953300000000000000e+04 7.953500000000000000e+04 7.953700000000000000e+04 7.953900000000000000e+04 7.954100000000000000e+04 7.954300000000000000e+04 7.954500000000000000e+04 7.954700000000000000e+04 2.047300000000000000e+04 2.017400000000000000e+04 2.047400000000000000e+04 2.047500000000000000e+04 2.047600000000000000e+04 2.047700000000000000e+04 2.047800000000000000e+04 2.047900000000000000e+04 2.048000000000000000e+04 2.048100000000000000e+04 2.048200000000000000e+04 2.048300000000000000e+04 2.048400000000000000e+04 2.048500000000000000e+04 7.957700000000000000e+04 7.957900000000000000e+04 7.958100000000000000e+04 7.958300000000000000e+04 7.958500000000000000e+04 7.958700000000000000e+04 7.958900000000000000e+04 7.959100000000000000e+04 7.959300000000000000e+04 7.959500000000000000e+04 7.959700000000000000e+04 2.049800000000000000e+04 2.019900000000000000e+04 7.960000000000000000e+04 2.050000000000000000e+04 2.050100000000000000e+04 2.050200000000000000e+04 7.960800000000000000e+04 7.961000000000000000e+04 7.961200000000000000e+04 7.961400000000000000e+04 7.961600000000000000e+04 7.961800000000000000e+04 7.962000000000000000e+04 7.962200000000000000e+04 7.962400000000000000e+04 7.962600000000000000e+04 7.962800000000000000e+04 7.963000000000000000e+04 7.963200000000000000e+04 2.021700000000000000e+04 2.021800000000000000e+04 2.021900000000000000e+04 2.022000000000000000e+04 2.022100000000000000e+04 2.022200000000000000e+04 2.022300000000000000e+04 2.022400000000000000e+04 2.022500000000000000e+04 2.022600000000000000e+04 7.965400000000000000e+04 7.965600000000000000e+04 7.965800000000000000e+04 7.966000000000000000e+04 7.966200000000000000e+04 7.966400000000000000e+04 7.966600000000000000e+04 7.966800000000000000e+04 7.967000000000000000e+04 7.967200000000000000e+04 2.023700000000000000e+04 2.023800000000000000e+04 7.968100000000000000e+04 7.968300000000000000e+04 7.968500000000000000e+04 7.968700000000000000e+04 7.968900000000000000e+04 7.969100000000000000e+04 7.969300000000000000e+04 7.969500000000000000e+04 7.969700000000000000e+04 7.969900000000000000e+04 7.970100000000000000e+04 7.970300000000000000e+04 7.970500000000000000e+04 2.025200000000000000e+04 7.970600000000000000e+04 7.970800000000000000e+04 7.971000000000000000e+04 7.971200000000000000e+04 7.971400000000000000e+04 7.971600000000000000e+04 7.971800000000000000e+04 7.972000000000000000e+04 7.972200000000000000e+04 7.972400000000000000e+04 7.972600000000000000e+04 7.972800000000000000e+04 7.973000000000000000e+04 7.973200000000000000e+04 7.973700000000000000e+04 2.056800000000000000e+04 2.056900000000000000e+04 2.057000000000000000e+04 2.057100000000000000e+04 2.057200000000000000e+04 2.057300000000000000e+04 2.057400000000000000e+04 2.057500000000000000e+04 2.057600000000000000e+04 2.057700000000000000e+04 2.057800000000000000e+04 2.057900000000000000e+04 2.058000000000000000e+04
7.892900000000000000e+04 7.893100000000000000e+04 7.893300000000000000e+04 7.893500000000000000e+04 7.893700000000000000e+04 7.893900000000000000e+04 7.894100000000000000e+04 7.894300000000000000e+04 7.894500000000000000e+04 7.894700000000000000e+04 7.894900000000000000e+04 1.957400000000000000e+04 7.895000000000000000e+04 1.987500000000000000e+04 1.987600000000000000e+04 1.987700000000000000e+04 1.987800000000000000e+04 1.987900000000000000e+04 1.988000000000000000e+04 1.988100000000000000e+04 1.988200000000000000e+04 1.988300000000000000e+04 1.988400000000000000e+04 1.988500000000000000e+04 1.988600000000000000e+04 7.897900000000000000e+04 7.898100000000000000e+04 7.898300000000000000e+04 7.898500000000000000e+04 7.898700000000000000e+04 7.898900000000000000e+04 7.899100000000000000e+04 7.899300000000000000e+04 1.989600000000000000e+04 1.989700000000000000e+04 1.989800000000000000e+04 1.989900000000000000e+04 1.960000000000000000e+04 1.990000000000000000e+04 1.990100000000000000e+04 7.900600000000000000e+04 7.900800000000000000e+04 7.901000000000000000e+04 7.901200000000000000e+04 7.901400000000000000e+04 7.901600000000000000e+04 7.901800000000000000e+04 7.902000000000000000e+04 7.902200000000000000e+04 7.902400000000000000e+04 7.902600000000000000e+04 7.902800000000000000e+04 7.903000000000000000e+04 7.903200000000000000e+04 7.903400000000000000e+04 1.961800000000000000e+04 1.961900000000000000e+04 1.962000000000000000e+04 1.962100000000000000e+04 1.962200000000000000e+04 1.962300000000000000e+04 1.962400000000000000e+04 1.962500000000000000e+04 1.962600000000000000e+04 1.962700000000000000e+04 7.905600000000000000e+04 1.992800000000000000e+04 1.992900000000000000e+04 1.993000000000000000e+04 1.993100000000000000e+04 1.993200000000000000e+04 1.993300000000000000e+04 7.907000000000000000e+04 7.907200000000000000e+04 1.963700000000000000e+04 1.963800000000000000e+04 1.963900000000000000e+04 7.908300000000000000e+04 7.908500000000000000e+04 7.908700000000000000e+04 7.908900000000000000e+04 7.909100000000000000e+04 7.909300000000000000e+04 7.909500000000000000e+04 7.909700000000000000e+04 7.909900000000000000e+04 7.910100000000000000e+04 7.910300000000000000e+04 7.910500000000000000e+04 7.910700000000000000e+04 1.965300000000000000e+04 7.910800000000000000e+04 7.911000000000000000e+04 7.911200000000000000e+04 7.911400000000000000e+04 7.911600000000000000e+04 7.911800000000000000e+04 7.912000000000000000e+04 7.912200000000000000e+04 7.912400000000000000e+04 7.912600000000000000e+04 7.912800000000000000e+04 7.913000000000000000e+04 7.913200000000000000e+04 7.913400000000000000e+04 7.913900000000000000e+04 1.996900000000000000e+04 1.997000000000000000e+04 1.997100000000000000e+04 1.997200000000000000e+04 1.997300000000000000e+04 1.997400000000000000e+04 1.997500000000000000e+04 1.997600000000000000e+04 1.997700000000000000e+04 1.997800000000000000e+04 1.997900000000000000e+04 1.998000000000000000e+04 1.998100000000000000e+04
7.833100000000000000e+04 7.833300000000000000e+04 7.833500000000000000e+04 7.833700000000000000e+04 7.833900000000000000e+04 7.834100000000000000e+04 7.834300000000000000e+04 7.834500000000000000e+04 7.834700000000000000e+04 7.834900000000000000e+04 1.927400000000000000e+04 1.897500000000000000e+04 7.835200000000000000e+04 1.927600000000000000e+04 1.927700000000000000e+04 1.927800000000000000e+04 1.927900000000000000e+04 1.928000000000000000e+04 1.928100000000000000e+04 1.928200000000000000e+04 1.928300000000000000e+04 1.928400000000000000e+04 1.928500000000000000e+04 1.928600000000000000e+04 1.928700000000000000e+04 1.928900000000000000e+04 1.929000000000000000e+04 1.929100000000000000e+04 1.929200000000000000e+04 1.929300000000000000e+04 1.929400000000000000e+04 1.929500000000000000e+04 1.929600000000000000e+04 7.839700000000000000e+04 7.839900000000000000e+04 1.929900000000000000e+04 1.930000000000000000e+04 1.900100000000000000e+04 1.930100000000000000e+04 7.840600000000000000e+04 7.840800000000000000e+04 7.841000000000000000e+04 7.841200000000000000e+04 7.841400000000000000e+04 7.841600000000000000e+04 7.841800000000000000e+04 7.842000000000000000e+04 7.842200000000000000e+04 7.842400000000000000e+04 7.842600000000000000e+04 7.842800000000000000e+04 7.843000000000000000e+04 7.843200000000000000e+04 7.843400000000000000e+04 1.901800000000000000e+04 1.901900000000000000e+04 1.902000000000000000e+04 1.902100000000000000e+04 1.902200000000000000e+04 1.902300000000000000e+04 1.902400000000000000e+04 1.902500000000000000e+04 1.902600000000000000e+04 1.902700000000000000e+04 7.845600000000000000e+04 1.932800000000000000e+04 1.932900000000000000e+04 1.933000000000000000e+04 1.933100000000000000e+04 1.933200000000000000e+04 7.846800000000000000e+04 7.847000000000000000e+04 7.847200000000000000e+04 7.847400000000000000e+04 1.903800000000000000e+04 1.903900000000000000e+04 1.904000000000000000e+04 7.848500000000000000e+04 7.848700000000000000e+04 7.848900000000000000e+04 7.849100000000000000e+04 7.849300000000000000e+04 7.849500000000000000e+04 7.849700000000000000e+04 7.849900000000000000e+04 7.850100000000000000e+04 7.850300000000000000e+04 7.850500000000000000e+04 7.850700000000000000e+04 7.850900000000000000e+04 1.905400000000000000e+04 7.851000000000000000e+04 7.851200000000000000e+04 7.851400000000000000e+04 7.851600000000000000e+04 7.851800000000000000e+04 7.852000000000000000e+04 7.852200000000000000e+04 7.852400000000000000e+04 7.852600000000000000e+04 7.852800000000000000e+04 7.853000000000000000e+04 7.853200000000000000e+04 7.853400000000000000e+04 7.853600000000000000e+04 7.853800000000000000e+04 1.937000000000000000e+04 1.937100000000000000e+04 1.937200000000000000e+04 1.937300000000000000e+04 1.937400000000000000e+04 1.937500000000000000e+04 1.937600000000000000e+04 1.937700000000000000e+04 1.937800000000000000e+04 1.937900000000000000e+04 1.938000000000000000e+04 1.938100000000000000e+04 1.938200000000000000e+04
7.773300000000000000e+04 7.773500000000000000e+04 7.773700000000000000e+04 7.773900000000000000e+04 7.774100000000000000e+04 7.774300000000000000e+04 7.774500000000000000e+04 7.774700000000000000e+04 7.774900000000000000e+04 7.775100000000000000e+04 1.867500000000000000e+04 1.837600000000000000e+04 1.867600000000000000e+04 1.867700000000000000e+04 1.867800000000000000e+04 1.867900000000000000e+04 1.868000000000000000e+04 1.868100000000000000e+04 1.868200000000000000e+04 1.868300000000000000e+04 1.868400000000000000e+04 1.868500000000000000e+04 1.868600000000000000e+04 1.868700000000000000e+04 1.868800000000000000e+04 1.869000000000000000e+04 1.869100000000000000e+04 1.869200000000000000e+04 1.869300000000000000e+04 1.869400000000000000e+04 1.869500000000000000e+04 1.869600000000000000e+04 1.869700000000000000e+04 1.869800000000000000e+04 1.869900000000000000e+04 7.780300000000000000e+04 1.870100000000000000e+04 1.840200000000000000e+04 1.870200000000000000e+04 7.780800000000000000e+04 7.781000000000000000e+04 7.781200000000000000e+04 7.781400000000000000e+04 7.781600000000000000e+04 7.781800000000000000e+04 7.782000000000000000e+04 7.782200000000000000e+04 7.782400000000000000e+04 7.782600000000000000e+04 7.782800000000000000e+04 7.783000000000000000e+04 7.783200000000000000e+04 7.783400000000000000e+04 7.783600000000000000e+04 1.841900000000000000e+04 1.842000000000000000e+04 1.842100000000000000e+04 1.842200000000000000e+04 1.842300000000000000e+04 1.842400000000000000e+04 1.842500000000000000e+04 1.842600000000000000e+04 1.842700000000000000e+04 1.842800000000000000e+04 7.785800000000000000e+04 7.786000000000000000e+04 7.786200000000000000e+04 7.786400000000000000e+04 7.786600000000000000e+04 7.786800000000000000e+04 7.787000000000000000e+04 7.787200000000000000e+04 7.787400000000000000e+04 7.787600000000000000e+04 1.843900000000000000e+04 1.844000000000000000e+04 1.844100000000000000e+04 7.788700000000000000e+04 7.788900000000000000e+04 7.789100000000000000e+04 7.789300000000000000e+04 7.789500000000000000e+04 7.789700000000000000e+04 7.789900000000000000e+04 7.790100000000000000e+04 7.790300000000000000e+04 7.790500000000000000e+04 7.790700000000000000e+04 7.790900000000000000e+04 7.791100000000000000e+04 1.845500000000000000e+04 7.791200000000000000e+04 7.791400000000000000e+04 7.791600000000000000e+04 7.791800000000000000e+04 7.792000000000000000e+04 7.792200000000000000e+04 7.792400000000000000e+04 7.792600000000000000e+04 7.792800000000000000e+04 7.793000000000000000e+04 7.793200000000000000e+04 7.793400000000000000e+04 7.793600000000000000e+04 7.793800000000000000e+04 7.794000000000000000e+04 7.794500000000000000e+04 1.877200000000000000e+04 1.877300000000000000e+04 1.877400000000000000e+04 1.877500000000000000e+04 1.877600000000000000e+04 1.877700000000000000e+04 1.877800000000000000e+04 1.877900000000000000e+04 1.878000000000000000e+04 1.878100000000000000e+04 1.878200000000000000e+04 1.878300000000000000e+04
7.713500000000000000e+04 7.713700000000000000e+04 7.713900000000000000e+04 7.714100000000000000e+04 7.714300000000000000e+04 7.714500000000000000e+04 7.714700000000000000e+04 7.714900000000000000e+04 7.715100000000000000e+04 7.715300000000000000e+04 1.807600000000000000e+04 1.777700000000000000e+04 1.807700000000000000e+04 1.807800000000000000e+04 1.807900000000000000e+04 1.808000000000000000e+04 1.808100000000000000e+04 1.808200000000000000e+04 1.808300000000000000e+04 1.808400000000000000e+04 1.808500000000000000e+04 1.808600000000000000e+04 1.808700000000000000e+04 1.808800000000000000e+04 1.808900000000000000e+04 1.809100000000000000e+04 1.809200000000000000e+04 1.809300000000000000e+04 1.809400000000000000e+04 1.809500000000000000e+04 1.809600000000000000e+04 1.809700000000000000e+04 1.809800000000000000e+04 1.809900000000000000e+04 1.810000000000000000e+04 1.810100000000000000e+04 1.810200000000000000e+04 1.780300000000000000e+04 1.780400000000000000e+04 7.721000000000000000e+04 7.721200000000000000e+04 7.721400000000000000e+04 7.721600000000000000e+04 7.721800000000000000e+04 7.722000000000000000e+04 1.781100000000000000e+04 7.722400000000000000e+04 7.722600000000000000e+04 7.722800000000000000e+04 7.723000000000000000e+04 7.723200000000000000e+04 7.723400000000000000e+04 7.723600000000000000e+04 7.723800000000000000e+04 1.782000000000000000e+04 1.782100000000000000e+04 1.782200000000000000e+04 1.782300000000000000e+04 1.782400000000000000e+04 1.782500000000000000e+04 1.782600000000000000e+04 1.782700000000000000e+04 1.782800000000000000e+04 7.725800000000000000e+04 1.812900000000000000e+04 1.813000000000000000e+04 1.813100000000000000e+04 1.813200000000000000e+04 1.813300000000000000e+04 1.813400000000000000e+04 1.813500000000000000e+04 7.727400000000000000e+04 7.727600000000000000e+04 1.783900000000000000e+04 1.784000000000000000e+04 1.784100000000000000e+04 1.784200000000000000e+04 1.784300000000000000e+04 7.729100000000000000e+04 7.729300000000000000e+04 7.729500000000000000e+04 7.729700000000000000e+04 7.729900000000000000e+04 7.730100000000000000e+04 7.730300000000000000e+04 7.730500000000000000e+04 7.730700000000000000e+04 7.730900000000000000e+04 7.731100000000000000e+04 7.731300000000000000e+04 1.785600000000000000e+04 7.731400000000000000e+04 7.731600000000000000e+04 7.731800000000000000e+04 7.732000000000000000e+04 7.732200000000000000e+04 7.732400000000000000e+04 7.732600000000000000e+04 7.732800000000000000e+04 7.733000000000000000e+04 7.733200000000000000e+04 7.733400000000000000e+04 7.733600000000000000e+04 7.733800000000000000e+04 7.734000000000000000e+04 7.734200000000000000e+04 1.787200000000000000e+04 1.817300000000000000e+04 1.817400000000000000e+04 1.817500000000000000e+04 1.817600000000000000e+04 1.817700000000000000e+04 1.817800000000000000e+04 1.817900000000000000e+04 1.818000000000000000e+04 1.818100000000000000e+04 7.796400000000000000e+04 7.796600000000000000e+04 7.796800000000000000e+04
7.653700000000000000e+04 7.653900000000000000e+04 7.654100000000000000e+04 7.654300000000000000e+04 7.654500000000000000e+04 7.654700000000000000e+04 7.654900000000000000e+04 7.655100000000000000e+04 7.655300000000000000e+04 7.655500000000000000e+04 1.747700000000000000e+04 1.717800000000000000e+04 1.747800000000000000e+04 1.747900000000000000e+04 1.748000000000000000e+04 1.748100000000000000e+04 1.748200000000000000e+04 1.748300000000000000e+04 1.748400000000000000e+04 1.748500000000000000e+04 1.748600000000000000e+04 1.748700000000000000e+04 1.748800000000000000e+04 1.748900000000000000e+04 1.749000000000000000e+04 1.749200000000000000e+04 1.749300000000000000e+04 1.749400000000000000e+04 1.749500000000000000e+04 1.749600000000000000e+04 1.749700000000000000e+04 1.749800000000000000e+04 1.749900000000000000e+04 1.750000000000000000e+04 1.750100000000000000e+04 1.750200000000000000e+04 1.750300000000000000e+04 7.661100000000000000e+04 1.720500000000000000e+04 1.720600000000000000e+04 7.661400000000000000e+04 7.661600000000000000e+04 7.661800000000000000e+04 7.662000000000000000e+04 7.662200000000000000e+04 1.721200000000000000e+04 7.662600000000000000e+04 7.662800000000000000e+04 7.663000000000000000e+04 7.663200000000000000e+04 7.663400000000000000e+04 7.663600000000000000e+04 7.663800000000000000e+04 7.664000000000000000e+04 1.722100000000000000e+04 1.722200000000000000e+04 1.722300000000000000e+04 1.722400000000000000e+04 1.722500000000000000e+04 1.722600000000000000e+04 1.722700000000000000e+04 1.722800000000000000e+04 1.722900000000000000e+04 7.666000000000000000e+04 1.753000000000000000e+04 1.753100000000000000e+04 1.753200000000000000e+04 1.753300000000000000e+04 1.753400000000000000e+04 1.753500000000000000e+04 7.667400000000000000e+04 7.667600000000000000e+04 7.667800000000000000e+04 1.724000000000000000e+04 1.724100000000000000e+04 1.724200000000000000e+04 1.724300000000000000e+04 1.724400000000000000e+04 7.669300000000000000e+04 7.669500000000000000e+04 7.669700000000000000e+04 7.669900000000000000e+04 7.670100000000000000e+04 7.670300000000000000e+04 7.670500000000000000e+04 7.670700000000000000e+04 7.670900000000000000e+04 7.671100000000000000e+04 7.671300000000000000e+04 7.671500000000000000e+04 1.725700000000000000e+04 1.725800000000000000e+04 7.671800000000000000e+04 7.672000000000000000e+04 7.672200000000000000e+04 7.672400000000000000e+04 7.672600000000000000e+04 7.672800000000000000e+04 7.673000000000000000e+04 7.673200000000000000e+04 7.673400000000000000e+04 7.673600000000000000e+04 7.673800000000000000e+04 7.674000000000000000e+04 7.674200000000000000e+04 7.674400000000000000e+04 7.674600000000000000e+04 7.675100000000000000e+04 1.757500000000000000e+04 1.757600000000000000e+04 1.757700000000000000e+04 1.757800000000000000e+04 1.757900000000000000e+04 1.758000000000000000e+04 7.736200000000000000e+04 7.736400000000000000e+04 7.736600000000000000e+04 7.736800000000000000e+04 7.737000000000000000e+04
7.593900000000000000e+04 7.594100000000000000e+04 7.594300000000000000e+04 7.594500000000000000e+04 7.594700000000000000e+04 7.594900000000000000e+04 7.595100000000000000e+04 7.595300000000000000e+04 7.595500000000000000e+04 7.595700000000000000e+04 1.657800000000000000e+04 7.595800000000000000e+04 1.687900000000000000e+04 1.688000000000000000e+04 1.688100000000000000e+04 1.688200000000000000e+04 1.688300000000000000e+04 1.688400000000000000e+04 1.688500000000000000e+04 1.688600000000000000e+04 1.688700000000000000e+04 1.688800000000000000e+04 1.688900000000000000e+04 1.689000000000000000e+04 1.689100000000000000e+04 1.689300000000000000e+04 1.689400000000000000e+04 1.689500000000000000e+04 1.689600000000000000e+04 1.689700000000000000e+04 1.689800000000000000e+04 1.689900000000000000e+04 1.690000000000000000e+04 1.690100000000000000e+04 1.690200000000000000e+04 7.660600000000000000e+04 7.660800000000000000e+04 1.690500000000000000e+04 7.601500000000000000e+04 1.660700000000000000e+04 7.601600000000000000e+04 7.601800000000000000e+04 7.602000000000000000e+04 7.602200000000000000e+04 7.602400000000000000e+04 1.661300000000000000e+04 7.602800000000000000e+04 7.603000000000000000e+04 7.603200000000000000e+04 7.603400000000000000e+04 7.603600000000000000e+04 7.603800000000000000e+04 7.604000000000000000e+04 7.604200000000000000e+04 1.662200000000000000e+04 1.662300000000000000e+04 1.662400000000000000e+04 1.662500000000000000e+04 1.662600000000000000e+04 7.605700000000000000e+04 1.662800000000000000e+04 1.662900000000000000e+04 7.606000000000000000e+04 1.693000000000000000e+04 1.693100000000000000e+04 1.693200000000000000e+04 1.693300000000000000e+04 1.693400000000000000e+04 1.693500000000000000e+04 7.607400000000000000e+04 7.607600000000000000e+04 7.607800000000000000e+04 1.664000000000000000e+04 1.664100000000000000e+04 1.664200000000000000e+04 1.664300000000000000e+04 1.664400000000000000e+04 1.664500000000000000e+04 7.609500000000000000e+04 7.609700000000000000e+04 7.609900000000000000e+04 1.694900000000000000e+04 1.695000000000000000e+04 1.695100000000000000e+04 1.695200000000000000e+04 1.695300000000000000e+04 1.695400000000000000e+04 1.695500000000000000e+04 1.695600000000000000e+04 1.695700000000000000e+04 7.611900000000000000e+04 1.665900000000000000e+04 7.612000000000000000e+04 7.612200000000000000e+04 7.612400000000000000e+04 7.612600000000000000e+04 7.612800000000000000e+04 7.613000000000000000e+04 7.613200000000000000e+04 7.613400000000000000e+04 7.613600000000000000e+04 7.613800000000000000e+04 7.614000000000000000e+04 7.614200000000000000e+04 7.614400000000000000e+04 7.614600000000000000e+04 7.614800000000000000e+04 1.667500000000000000e+04 1.697600000000000000e+04 1.697700000000000000e+04 1.697800000000000000e+04 1.697900000000000000e+04 7.676000000000000000e+04 7.676200000000000000e+04 7.676400000000000000e+04 7.676600000000000000e+04 7.676800000000000000e+04 7.677000000000000000e+04 7.677200000000000000e+04
7.534100000000000000e+04 7.534300000000000000e+04 7.534500000000000000e+04 7.534700000000000000e+04 7.534900000000000000e+04 7.535100000000000000e+04 7.535300000000000000e+04 7.535500000000000000e+04 7.535700000000000000e+04 1.627800000000000000e+04 1.597900000000000000e+04 7.536000000000000000e+04 1.628000000000000000e+04 1.628100000000000000e+04 1.628200000000000000e+04 1.628300000000000000e+04 1.628400000000000000e+04 1.628500000000000000e+04 1.628600000000000000e+04 1.628700000000000000e+04 1.628800000000000000e+04 1.628900000000000000e+04 1.629000000000000000e+04 1.629100000000000000e+04 1.629200000000000000e+04 1.629400000000000000e+04 1.629500000000000000e+04 1.629600000000000000e+04 1.629700000000000000e+04 1.629800000000000000e+04 1.629900000000000000e+04 1.630000000000000000e+04 7.600200000000000000e+04 7.600400000000000000e+04 7.600600000000000000e+04 7.600800000000000000e+04 7.601000000000000000e+04 7.601200000000000000e+04 1.630700000000000000e+04 7.541900000000000000e+04 1.600900000000000000e+04 7.542000000000000000e+04 7.542200000000000000e+04 7.542400000000000000e+04 7.542600000000000000e+04 1.601400000000000000e+04 7.543000000000000000e+04 7.543200000000000000e+04 7.543400000000000000e+04 7.543600000000000000e+04 7.543800000000000000e+04 7.544000000000000000e+04 7.544200000000000000e+04 7.544400000000000000e+04 1.602300000000000000e+04 1.602400000000000000e+04 1.602500000000000000e+04 1.602600000000000000e+04 1.602700000000000000e+04 1.602800000000000000e+04 1.602900000000000000e+04 7.546000000000000000e+04 1.633000000000000000e+04 1.633100000000000000e+04 1.633200000000000000e+04 1.633300000000000000e+04 1.633400000000000000e+04 1.633500000000000000e+04 1.633600000000000000e+04 1.633700000000000000e+04 7.547800000000000000e+04 7.548000000000000000e+04 1.604100000000000000e+04 1.604200000000000000e+04 1.604300000000000000e+04 1.604400000000000000e+04 1.604500000000000000e+04 1.604600000000000000e+04 1.604700000000000000e+04 7.549900000000000000e+04 7.550100000000000000e+04 7.550300000000000000e+04 1.635100000000000000e+04 1.635200000000000000e+04 1.635300000000000000e+04 1.635400000000000000e+04 1.635500000000000000e+04 1.635600000000000000e+04 1.635700000000000000e+04 7.551900000000000000e+04 7.552100000000000000e+04 1.606000000000000000e+04 7.552200000000000000e+04 7.552400000000000000e+04 7.552600000000000000e+04 7.552800000000000000e+04 7.553000000000000000e+04 7.553200000000000000e+04 7.553400000000000000e+04 7.553600000000000000e+04 7.553800000000000000e+04 7.554000000000000000e+04 7.554200000000000000e+04 7.554400000000000000e+04 7.554600000000000000e+04 7.554800000000000000e+04 7.555000000000000000e+04 7.555200000000000000e+04 7.555700000000000000e+04 1.637800000000000000e+04 1.637900000000000000e+04 7.616000000000000000e+04 7.616200000000000000e+04 7.616400000000000000e+04 7.616600000000000000e+04 7.616800000000000000e+04 7.617000000000000000e+04 7.617200000000000000e+04 7.617400000000000000e+04
7.474300000000000000e+04 7.474500000000000000e+04 7.474700000000000000e+04 7.474900000000000000e+04 7.475100000000000000e+04 7.475300000000000000e+04 1.567600000000000000e+04 1.567700000000000000e+04 1.567800000000000000e+04 1.567900000000000000e+04 1.538000000000000000e+04 1.568000000000000000e+04 1.568100000000000000e+04 1.568200000000000000e+04 1.568300000000000000e+04 1.568400000000000000e+04 1.568500000000000000e+04 1.568600000000000000e+04 1.568700000000000000e+04 1.568800000000000000e+04 1.568900000000000000e+04 1.569000000000000000e+04 1.569100000000000000e+04 1.569200000000000000e+04 7.478800000000000000e+04 1.569500000000000000e+04 1.569600000000000000e+04 1.569700000000000000e+04 1.569800000000000000e+04 1.569900000000000000e+04 1.570000000000000000e+04 1.570100000000000000e+04 1.570200000000000000e+04 1.570300000000000000e+04 1.570400000000000000e+04 1.570500000000000000e+04 1.570600000000000000e+04 1.570700000000000000e+04 7.541600000000000000e+04 1.570900000000000000e+04 7.482300000000000000e+04 1.541100000000000000e+04 7.482400000000000000e+04 7.482600000000000000e+04 7.482800000000000000e+04 1.541500000000000000e+04 7.483200000000000000e+04 7.483400000000000000e+04 7.483600000000000000e+04 7.483800000000000000e+04 7.484000000000000000e+04 7.484200000000000000e+04 7.484400000000000000e+04 1.542300000000000000e+04 1.542400000000000000e+04 1.542500000000000000e+04 1.542600000000000000e+04 1.542700000000000000e+04 1.542800000000000000e+04 1.542900000000000000e+04 1.543000000000000000e+04 7.486200000000000000e+04 1.573100000000000000e+04 1.573200000000000000e+04 1.573300000000000000e+04 1.573400000000000000e+04 1.573500000000000000e+04 1.573600000000000000e+04 1.573700000000000000e+04 7.487800000000000000e+04 7.488000000000000000e+04 1.544100000000000000e+04 1.544200000000000000e+04 1.544300000000000000e+04 1.544400000000000000e+04 1.544500000000000000e+04 1.544600000000000000e+04 1.544700000000000000e+04 1.544800000000000000e+04 7.490100000000000000e+04 7.490300000000000000e+04 7.490500000000000000e+04 7.490700000000000000e+04 1.575300000000000000e+04 1.575400000000000000e+04 1.575500000000000000e+04 1.575600000000000000e+04 1.575700000000000000e+04 1.575800000000000000e+04 1.575900000000000000e+04 7.492300000000000000e+04 1.546100000000000000e+04 7.492400000000000000e+04 7.492600000000000000e+04 7.492800000000000000e+04 7.493000000000000000e+04 7.493200000000000000e+04 7.493400000000000000e+04 7.493600000000000000e+04 7.493800000000000000e+04 7.494000000000000000e+04 7.494200000000000000e+04 7.494400000000000000e+04 7.494600000000000000e+04 7.494800000000000000e+04 7.495000000000000000e+04 7.495200000000000000e+04 7.495400000000000000e+04 1.547800000000000000e+04 7.496100000000000000e+04 1.578000000000000000e+04 1.578100000000000000e+04 1.578200000000000000e+04 7.556600000000000000e+04 7.556800000000000000e+04 7.557000000000000000e+04 7.557200000000000000e+04 7.557400000000000000e+04 7.557600000000000000e+04
7.414500000000000000e+04 7.414700000000000000e+04 7.414900000000000000e+04 7.415100000000000000e+04 7.415300000000000000e+04 7.415500000000000000e+04 7.415700000000000000e+04 7.415900000000000000e+04 7.416100000000000000e+04 1.508000000000000000e+04 1.478100000000000000e+04 1.508100000000000000e+04 1.508200000000000000e+04 1.508300000000000000e+04 1.508400000000000000e+04 1.508500000000000000e+04 1.508600000000000000e+04 1.508700000000000000e+04 1.508800000000000000e+04 1.508900000000000000e+04 1.509000000000000000e+04 1.509100000000000000e+04 1.509200000000000000e+04 1.509300000000000000e+04 7.419000000000000000e+04 7.419200000000000000e+04 1.509700000000000000e+04 1.509800000000000000e+04 1.509900000000000000e+04 1.510000000000000000e+04 1.510100000000000000e+04 1.510200000000000000e+04 1.510300000000000000e+04 7.480800000000000000e+04 7.481000000000000000e+04 7.481200000000000000e+04 7.481400000000000000e+04 7.481600000000000000e+04 7.481800000000000000e+04 7.482000000000000000e+04 1.511100000000000000e+04 7.422700000000000000e+04 1.481300000000000000e+04 7.422800000000000000e+04 7.423000000000000000e+04 1.481600000000000000e+04 7.423400000000000000e+04 7.423600000000000000e+04 7.423800000000000000e+04 7.424000000000000000e+04 7.424200000000000000e+04 7.424400000000000000e+04 7.424600000000000000e+04 1.482400000000000000e+04 1.482500000000000000e+04 1.482600000000000000e+04 1.482700000000000000e+04 1.482800000000000000e+04 1.482900000000000000e+04 1.483000000000000000e+04 7.426200000000000000e+04 1.513100000000000000e+04 1.513200000000000000e+04 1.513300000000000000e+04 1.513400000000000000e+04 1.513500000000000000e+04 1.513600000000000000e+04 1.513700000000000000e+04 7.427800000000000000e+04 7.428000000000000000e+04 7.428200000000000000e+04 1.484200000000000000e+04 1.484300000000000000e+04 1.484400000000000000e+04 1.484500000000000000e+04 1.484600000000000000e+04 1.484700000000000000e+04 1.484800000000000000e+04 1.484900000000000000e+04 1.485000000000000000e+04 7.430500000000000000e+04 7.430700000000000000e+04 7.430900000000000000e+04 7.431100000000000000e+04 7.431300000000000000e+04 1.515600000000000000e+04 1.515700000000000000e+04 1.515800000000000000e+04 1.515900000000000000e+04 7.432300000000000000e+04 7.432500000000000000e+04 1.486200000000000000e+04 1.486300000000000000e+04 7.432800000000000000e+04 7.433000000000000000e+04 7.433200000000000000e+04 7.433400000000000000e+04 7.433600000000000000e+04 7.433800000000000000e+04 7.434000000000000000e+04 7.434200000000000000e+04 7.434400000000000000e+04 7.434600000000000000e+04 7.434800000000000000e+04 7.435000000000000000e+04 7.435200000000000000e+04 7.435400000000000000e+04 1.487800000000000000e+04 1.487900000000000000e+04 1.488000000000000000e+04 7.436500000000000000e+04 7.436700000000000000e+04 1.518300000000000000e+04 1.518400000000000000e+04 7.497000000000000000e+04 7.497200000000000000e+04 7.497400000000000000e+04 7.497600000000000000e+04 7.497800000000000000e+04
1.447200000000000000e+04 1.447300000000000000e+04 1.447400000000000000e+04 1.447500000000000000e+04 1.447600000000000000e+04 1.447700000000000000e+04 1.447800000000000000e+04 1.447900000000000000e+04 1.448000000000000000e+04 7.356500000000000000e+04 1.418200000000000000e+04 1.448200000000000000e+04 1.448300000000000000e+04 1.448400000000000000e+04 1.448500000000000000e+04 1.448600000000000000e+04 1.448700000000000000e+04 1.448800000000000000e+04 1.448900000000000000e+04 1.449000000000000000e+04 1.449100000000000000e+04 1.449200000000000000e+04 1.449300000000000000e+04 7.359000000000000000e+04 7.359200000000000000e+04 7.359400000000000000e+04 1.449800000000000000e+04 1.449900000000000000e+04 1.450000000000000000e+04 1.450100000000000000e+04 1.450200000000000000e+04 1.450300000000000000e+04 1.450400000000000000e+04 1.450500000000000000e+04 1.450600000000000000e+04 1.450700000000000000e+04 1.450800000000000000e+04 1.450900000000000000e+04 1.451000000000000000e+04 1.451100000000000000e+04 7.422400000000000000e+04 1.451300000000000000e+04 7.363100000000000000e+04 1.421500000000000000e+04 7.363200000000000000e+04 1.421700000000000000e+04 7.363600000000000000e+04 7.363800000000000000e+04 7.364000000000000000e+04 7.364200000000000000e+04 7.364400000000000000e+04 7.364600000000000000e+04 7.364800000000000000e+04 1.422500000000000000e+04 1.422600000000000000e+04 1.422700000000000000e+04 1.422800000000000000e+04 1.422900000000000000e+04 1.423000000000000000e+04 1.423100000000000000e+04 7.366400000000000000e+04 1.453200000000000000e+04 1.453300000000000000e+04 1.453400000000000000e+04 1.453500000000000000e+04 1.453600000000000000e+04 1.453700000000000000e+04 7.367800000000000000e+04 7.368000000000000000e+04 7.368200000000000000e+04 1.424200000000000000e+04 1.424300000000000000e+04 1.424400000000000000e+04 1.424500000000000000e+04 1.424600000000000000e+04 1.424700000000000000e+04 1.424800000000000000e+04 1.424900000000000000e+04 1.425000000000000000e+04 1.425100000000000000e+04 7.370700000000000000e+04 7.370900000000000000e+04 7.371100000000000000e+04 7.371300000000000000e+04 7.371500000000000000e+04 7.371700000000000000e+04 7.371900000000000000e+04 1.455900000000000000e+04 1.456000000000000000e+04 1.456100000000000000e+04 1.456200000000000000e+04 7.372900000000000000e+04 1.426400000000000000e+04 7.373000000000000000e+04 7.373200000000000000e+04 7.373400000000000000e+04 7.373600000000000000e+04 7.373800000000000000e+04 7.374000000000000000e+04 7.374200000000000000e+04 7.374400000000000000e+04 7.374600000000000000e+04 7.374800000000000000e+04 7.375000000000000000e+04 7.375200000000000000e+04 7.375400000000000000e+04 7.375600000000000000e+04 1.427900000000000000e+04 1.428000000000000000e+04 1.428100000000000000e+04 1.428200000000000000e+04 1.428300000000000000e+04 7.377100000000000000e+04 1.458500000000000000e+04 1.458600000000000000e+04 1.458700000000000000e+04 7.437600000000000000e+04 7.437800000000000000e+04 7.438000000000000000e+04
1.387300000000000000e+04 1.387400000000000000e+04 1.387500000000000000e+04 1.387600000000000000e+04 1.387700000000000000e+04 1.387800000000000000e+04 1.387900000000000000e+04 1.388000000000000000e+04 1.388100000000000000e+04 1.388200000000000000e+04 1.358300000000000000e+04 1.388300000000000000e+04 1.388400000000000000e+04 1.388500000000000000e+04 1.388600000000000000e+04 1.388700000000000000e+04 1.388800000000000000e+04 1.388900000000000000e+04 1.389000000000000000e+04 1.389100000000000000e+04 1.389200000000000000e+04 1.389300000000000000e+04 7.299000000000000000e+04 7.299200000000000000e+04 7.299400000000000000e+04 7.299600000000000000e+04 7.300100000000000000e+04 1.390000000000000000e+04 1.390100000000000000e+04 1.390200000000000000e+04 1.390300000000000000e+04 1.390400000000000000e+04 1.390500000000000000e+04 1.390600000000000000e+04 1.390700000000000000e+04 1.390800000000000000e+04 1.390900000000000000e+04 7.362000000000000000e+04 7.362200000000000000e+04 7.362400000000000000e+04 7.362600000000000000e+04 7.362800000000000000e+04 1.391500000000000000e+04 7.303500000000000000e+04 1.361700000000000000e+04 7.303600000000000000e+04 7.303800000000000000e+04 7.304000000000000000e+04 7.304200000000000000e+04 7.304400000000000000e+04 7.304600000000000000e+04 7.304800000000000000e+04 7.305000000000000000e+04 1.362600000000000000e+04 1.362700000000000000e+04 1.362800000000000000e+04 1.362900000000000000e+04 1.363000000000000000e+04 1.363100000000000000e+04 7.306400000000000000e+04 1.393200000000000000e+04 1.393300000000000000e+04 1.393400000000000000e+04 1.393500000000000000e+04 1.393600000000000000e+04 1.393700000000000000e+04 1.393800000000000000e+04 1.393900000000000000e+04 7.308200000000000000e+04 1.364200000000000000e+04 1.364300000000000000e+04 1.364400000000000000e+04 1.364500000000000000e+04 1.364600000000000000e+04 1.364700000000000000e+04 1.364800000000000000e+04 1.364900000000000000e+04 1.365000000000000000e+04 1.365100000000000000e+04 1.365200000000000000e+04 7.310900000000000000e+04 7.311100000000000000e+04 7.311300000000000000e+04 7.311500000000000000e+04 7.311700000000000000e+04 7.311900000000000000e+04 7.312100000000000000e+04 7.312300000000000000e+04 1.396100000000000000e+04 1.396200000000000000e+04 1.396300000000000000e+04 7.313100000000000000e+04 1.366500000000000000e+04 7.313200000000000000e+04 7.313400000000000000e+04 7.313600000000000000e+04 7.313800000000000000e+04 7.314000000000000000e+04 7.314200000000000000e+04 7.314400000000000000e+04 7.314600000000000000e+04 7.314800000000000000e+04 7.315000000000000000e+04 7.315200000000000000e+04 7.315400000000000000e+04 7.315600000000000000e+04 7.315800000000000000e+04 1.368000000000000000e+04 1.368100000000000000e+04 1.368200000000000000e+04 1.368300000000000000e+04 1.368400000000000000e+04 1.368500000000000000e+04 7.317500000000000000e+04 7.317700000000000000e+04 1.398800000000000000e+04 1.398900000000000000e+04 1.399000000000000000e+04 1.399100000000000000e+04
1.327400000000000000e+04 1.327500000000000000e+04 1.327600000000000000e+04 1.327700000000000000e+04 1.327800000000000000e+04 1.327900000000000000e+04 1.328000000000000000e+04 1.328100000000000000e+04 1.328200000000000000e+04 1.328300000000000000e+04 1.298400000000000000e+04 1.328400000000000000e+04 1.328500000000000000e+04 1.328600000000000000e+04 1.328700000000000000e+04 1.328800000000000000e+04 1.328900000000000000e+04 1.329000000000000000e+04 1.329100000000000000e+04 1.329200000000000000e+04 7.238800000000000000e+04 7.239000000000000000e+04 7.239200000000000000e+04 7.239400000000000000e+04 7.239600000000000000e+04 7.239800000000000000e+04 7.240300000000000000e+04 7.240500000000000000e+04 1.330200000000000000e+04 1.330300000000000000e+04 1.330400000000000000e+04 1.330500000000000000e+04 1.330600000000000000e+04 1.330700000000000000e+04 1.330800000000000000e+04 1.330900000000000000e+04 1.331000000000000000e+04 1.331100000000000000e+04 1.331200000000000000e+04 1.331300000000000000e+04 1.331400000000000000e+04 1.331500000000000000e+04 7.303200000000000000e+04 1.331700000000000000e+04 7.243900000000000000e+04 1.301900000000000000e+04 7.244000000000000000e+04 7.244200000000000000e+04 7.244400000000000000e+04 7.244600000000000000e+04 7.244800000000000000e+04 7.245000000000000000e+04 7.245200000000000000e+04 1.302700000000000000e+04 1.302800000000000000e+04 1.302900000000000000e+04 1.303000000000000000e+04 1.303100000000000000e+04 7.246400000000000000e+04 1.333200000000000000e+04 1.333300000000000000e+04 1.333400000000000000e+04 1.333500000000000000e+04 1.333600000000000000e+04 1.333700000000000000e+04 1.333800000000000000e+04 1.333900000000000000e+04 7.248200000000000000e+04 1.304200000000000000e+04 1.304300000000000000e+04 1.304400000000000000e+04 1.304500000000000000e+04 1.304600000000000000e+04 1.304700000000000000e+04 1.304800000000000000e+04 1.304900000000000000e+04 1.305000000000000000e+04 7.250200000000000000e+04 1.305200000000000000e+04 1.305300000000000000e+04 1.305400000000000000e+04 7.251300000000000000e+04 7.251500000000000000e+04 7.251700000000000000e+04 7.251900000000000000e+04 7.252100000000000000e+04 7.252300000000000000e+04 7.252500000000000000e+04 7.252700000000000000e+04 7.252900000000000000e+04 7.253100000000000000e+04 7.253300000000000000e+04 1.306600000000000000e+04 7.253400000000000000e+04 7.253600000000000000e+04 7.253800000000000000e+04 7.254000000000000000e+04 7.254200000000000000e+04 7.254400000000000000e+04 7.254600000000000000e+04 7.254800000000000000e+04 7.255000000000000000e+04 7.255200000000000000e+04 7.255400000000000000e+04 7.255600000000000000e+04 7.255800000000000000e+04 1.308000000000000000e+04 1.308100000000000000e+04 1.308200000000000000e+04 1.308300000000000000e+04 1.308400000000000000e+04 1.308500000000000000e+04 1.308600000000000000e+04 1.308700000000000000e+04 1.308800000000000000e+04 7.258100000000000000e+04 1.339000000000000000e+04 1.339100000000000000e+04 1.339200000000000000e+04
7.175300000000000000e+04 7.175500000000000000e+04 1.267700000000000000e+04 1.267800000000000000e+04 1.267900000000000000e+04 1.268000000000000000e+04 1.268100000000000000e+04 1.268200000000000000e+04 1.268300000000000000e+04 1.268400000000000000e+04 1.238500000000000000e+04 1.268500000000000000e+04 1.268600000000000000e+04 1.268700000000000000e+04 1.268800000000000000e+04 1.268900000000000000e+04 1.269000000000000000e+04 7.178400000000000000e+04 7.178600000000000000e+04 7.178800000000000000e+04 7.179000000000000000e+04 7.179200000000000000e+04 7.179400000000000000e+04 7.179600000000000000e+04 7.179800000000000000e+04 1.240000000000000000e+04 1.240100000000000000e+04 7.180700000000000000e+04 7.180900000000000000e+04 7.181100000000000000e+04 1.270500000000000000e+04 1.270600000000000000e+04 1.270700000000000000e+04 1.270800000000000000e+04 1.270900000000000000e+04 1.271000000000000000e+04 1.271100000000000000e+04 1.271200000000000000e+04 1.271300000000000000e+04 1.271400000000000000e+04 1.271500000000000000e+04 1.271600000000000000e+04 1.271700000000000000e+04 7.243600000000000000e+04 1.271900000000000000e+04 1.242000000000000000e+04 1.272000000000000000e+04 7.184400000000000000e+04 1.242300000000000000e+04 7.184800000000000000e+04 7.185000000000000000e+04 7.185200000000000000e+04 7.185400000000000000e+04 1.242800000000000000e+04 1.242900000000000000e+04 7.186000000000000000e+04 1.243100000000000000e+04 7.186400000000000000e+04 1.273200000000000000e+04 1.273300000000000000e+04 1.273400000000000000e+04 1.273500000000000000e+04 1.273600000000000000e+04 1.273700000000000000e+04 1.273800000000000000e+04 1.273900000000000000e+04 7.188200000000000000e+04 7.188400000000000000e+04 1.244300000000000000e+04 1.244400000000000000e+04 1.244500000000000000e+04 1.244600000000000000e+04 1.244700000000000000e+04 1.244800000000000000e+04 1.244900000000000000e+04 1.245000000000000000e+04 1.245100000000000000e+04 7.190400000000000000e+04 1.245300000000000000e+04 1.245400000000000000e+04 1.245500000000000000e+04 7.191500000000000000e+04 7.191700000000000000e+04 7.191900000000000000e+04 7.192100000000000000e+04 7.192300000000000000e+04 7.192500000000000000e+04 7.192700000000000000e+04 7.192900000000000000e+04 7.193100000000000000e+04 7.193300000000000000e+04 7.193500000000000000e+04 1.246700000000000000e+04 7.193600000000000000e+04 7.193800000000000000e+04 7.194000000000000000e+04 7.194200000000000000e+04 7.194400000000000000e+04 7.194600000000000000e+04 7.194800000000000000e+04 7.195000000000000000e+04 7.195200000000000000e+04 7.195400000000000000e+04 7.195600000000000000e+04 7.195800000000000000e+04 7.196000000000000000e+04 1.248100000000000000e+04 1.248200000000000000e+04 1.248300000000000000e+04 1.248400000000000000e+04 1.248500000000000000e+04 1.248600000000000000e+04 1.248700000000000000e+04 1.248800000000000000e+04 1.248900000000000000e+04 1.249000000000000000e+04 7.198500000000000000e+04 7.198700000000000000e+04 1.279300000000000000e+04
7.115500000000000000e+04 7.115700000000000000e+04 7.115900000000000000e+04 7.116100000000000000e+04 7.116300000000000000e+04 7.116500000000000000e+04 1.208200000000000000e+04 1.208300000000000000e+04 1.208400000000000000e+04 1.208500000000000000e+04 1.178600000000000000e+04 1.208600000000000000e+04 1.208700000000000000e+04 1.208800000000000000e+04 1.208900000000000000e+04 7.118200000000000000e+04 7.118400000000000000e+04 7.118600000000000000e+04 7.118800000000000000e+04 7.119000000000000000e+04 7.119200000000000000e+04 7.119400000000000000e+04 7.119600000000000000e+04 7.119800000000000000e+04 7.120000000000000000e+04 1.180100000000000000e+04 1.180200000000000000e+04 7.120900000000000000e+04 7.121100000000000000e+04 7.121300000000000000e+04 7.121500000000000000e+04 1.210700000000000000e+04 1.210800000000000000e+04 1.210900000000000000e+04 1.211000000000000000e+04 1.211100000000000000e+04 1.211200000000000000e+04 1.211300000000000000e+04 1.211400000000000000e+04 1.211500000000000000e+04 1.211600000000000000e+04 1.211700000000000000e+04 1.211800000000000000e+04 1.211900000000000000e+04 1.212000000000000000e+04 1.182100000000000000e+04 1.212100000000000000e+04 7.124600000000000000e+04 1.182400000000000000e+04 7.125000000000000000e+04 7.125200000000000000e+04 7.125400000000000000e+04 7.125600000000000000e+04 7.125800000000000000e+04 7.126000000000000000e+04 7.126200000000000000e+04 7.126400000000000000e+04 1.213200000000000000e+04 1.213300000000000000e+04 1.213400000000000000e+04 1.213500000000000000e+04 1.213600000000000000e+04 1.213700000000000000e+04 1.213800000000000000e+04 1.213900000000000000e+04 7.128200000000000000e+04 7.128400000000000000e+04 1.184300000000000000e+04 1.184400000000000000e+04 1.184500000000000000e+04 1.184600000000000000e+04 1.184700000000000000e+04 1.184800000000000000e+04 1.184900000000000000e+04 1.185000000000000000e+04 1.185100000000000000e+04 1.185200000000000000e+04 7.130600000000000000e+04 1.185400000000000000e+04 1.185500000000000000e+04 1.185600000000000000e+04 7.131700000000000000e+04 7.131900000000000000e+04 7.132100000000000000e+04 7.132300000000000000e+04 7.132500000000000000e+04 7.132700000000000000e+04 7.132900000000000000e+04 7.133100000000000000e+04 7.133300000000000000e+04 7.133500000000000000e+04 7.133700000000000000e+04 1.186800000000000000e+04 7.133800000000000000e+04 7.134000000000000000e+04 7.134200000000000000e+04 7.134400000000000000e+04 7.134600000000000000e+04 7.134800000000000000e+04 7.135000000000000000e+04 7.135200000000000000e+04 7.135400000000000000e+04 7.135600000000000000e+04 7.135800000000000000e+04 7.136000000000000000e+04 7.136200000000000000e+04 1.188200000000000000e+04 1.188300000000000000e+04 1.188400000000000000e+04 1.188500000000000000e+04 1.188600000000000000e+04 1.188700000000000000e+04 1.188800000000000000e+04 1.188900000000000000e+04 1.189000000000000000e+04 1.189100000000000000e+04 1.189200000000000000e+04 1.189300000000000000e+04 7.139100000000000000e+04
7.055700000000000000e+04 7.055900000000000000e+04 7.056100000000000000e+04 7.056300000000000000e+04 7.056500000000000000e+04 7.056700000000000000e+04 7.056900000000000000e+04 7.057100000000000000e+04 7.057300000000000000e+04 1.148600000000000000e+04 1.118700000000000000e+04 1.148700000000000000e+04 7.057800000000000000e+04 7.058000000000000000e+04 7.058200000000000000e+04 1.149100000000000000e+04 1.149200000000000000e+04 1.149300000000000000e+04 1.149400000000000000e+04 1.149500000000000000e+04 1.149600000000000000e+04 1.149700000000000000e+04 7.059800000000000000e+04 7.060000000000000000e+04 1.120100000000000000e+04 1.120200000000000000e+04 1.120300000000000000e+04 1.120400000000000000e+04 7.061300000000000000e+04 7.061500000000000000e+04 7.061700000000000000e+04 7.061900000000000000e+04 7.062100000000000000e+04 7.062300000000000000e+04 1.151100000000000000e+04 1.151200000000000000e+04 1.151300000000000000e+04 1.151400000000000000e+04 1.151500000000000000e+04 1.151600000000000000e+04 1.151700000000000000e+04 1.151800000000000000e+04 1.151900000000000000e+04 1.152000000000000000e+04 1.152100000000000000e+04 1.122200000000000000e+04 1.152200000000000000e+04 1.122400000000000000e+04 7.065000000000000000e+04 1.152500000000000000e+04 1.152600000000000000e+04 1.152700000000000000e+04 1.152800000000000000e+04 1.152900000000000000e+04 1.153000000000000000e+04 1.153100000000000000e+04 1.153200000000000000e+04 1.153300000000000000e+04 1.153400000000000000e+04 7.127100000000000000e+04 1.153600000000000000e+04 1.153700000000000000e+04 1.153800000000000000e+04 1.153900000000000000e+04 7.068200000000000000e+04 7.068400000000000000e+04 1.124300000000000000e+04 1.124400000000000000e+04 1.124500000000000000e+04 1.124600000000000000e+04 1.124700000000000000e+04 1.124800000000000000e+04 1.124900000000000000e+04 1.125000000000000000e+04 1.125100000000000000e+04 1.125200000000000000e+04 1.125300000000000000e+04 7.070800000000000000e+04 7.071000000000000000e+04 1.125600000000000000e+04 1.125700000000000000e+04 1.125800000000000000e+04 7.072100000000000000e+04 7.072300000000000000e+04 7.072500000000000000e+04 7.072700000000000000e+04 7.072900000000000000e+04 7.073100000000000000e+04 7.073300000000000000e+04 7.073500000000000000e+04 7.073700000000000000e+04 7.073900000000000000e+04 1.126900000000000000e+04 7.074000000000000000e+04 7.074200000000000000e+04 7.074400000000000000e+04 7.074600000000000000e+04 7.074800000000000000e+04 7.075000000000000000e+04 7.075200000000000000e+04 7.075400000000000000e+04 7.075600000000000000e+04 7.075800000000000000e+04 7.076000000000000000e+04 7.076200000000000000e+04 1.128200000000000000e+04 1.128300000000000000e+04 1.128400000000000000e+04 1.128500000000000000e+04 1.128600000000000000e+04 1.128700000000000000e+04 1.128800000000000000e+04 1.128900000000000000e+04 1.129000000000000000e+04 1.129100000000000000e+04 1.129200000000000000e+04 1.129300000000000000e+04 1.129400000000000000e+04 1.129500000000000000e+04
6.995900000000000000e+04 6.996100000000000000e+04 6.996300000000000000e+04 6.996500000000000000e+04 6.996700000000000000e+04 6.996900000000000000e+04 6.997100000000000000e+04 6.997300000000000000e+04 6.997500000000000000e+04 1.088700000000000000e+04 1.058800000000000000e+04 1.088800000000000000e+04 1.088900000000000000e+04 1.089000000000000000e+04 1.089100000000000000e+04 1.089200000000000000e+04 1.089300000000000000e+04 1.089400000000000000e+04 1.089500000000000000e+04 1.089600000000000000e+04 1.089700000000000000e+04 6.999800000000000000e+04 7.000000000000000000e+04 7.000200000000000000e+04 1.060200000000000000e+04 1.060300000000000000e+04 1.060400000000000000e+04 1.060500000000000000e+04 1.060600000000000000e+04 7.001700000000000000e+04 7.001900000000000000e+04 7.002100000000000000e+04 7.002300000000000000e+04 7.002500000000000000e+04 7.002700000000000000e+04 7.002900000000000000e+04 7.003100000000000000e+04 7.003300000000000000e+04 7.003500000000000000e+04 7.003700000000000000e+04 7.003900000000000000e+04 7.004100000000000000e+04 7.004300000000000000e+04 1.092100000000000000e+04 1.092200000000000000e+04 1.062300000000000000e+04 1.092300000000000000e+04 7.005000000000000000e+04 1.092500000000000000e+04 1.092600000000000000e+04 7.065500000000000000e+04 7.065700000000000000e+04 7.065900000000000000e+04 7.066100000000000000e+04 7.066300000000000000e+04 7.066500000000000000e+04 7.066700000000000000e+04 7.066900000000000000e+04 7.067100000000000000e+04 1.093600000000000000e+04 7.067500000000000000e+04 1.093800000000000000e+04 1.093900000000000000e+04 7.008200000000000000e+04 7.008400000000000000e+04 1.064300000000000000e+04 1.064400000000000000e+04 1.064500000000000000e+04 1.064600000000000000e+04 1.064700000000000000e+04 1.064800000000000000e+04 1.064900000000000000e+04 1.065000000000000000e+04 1.065100000000000000e+04 1.065200000000000000e+04 1.065300000000000000e+04 1.065400000000000000e+04 7.011000000000000000e+04 7.011200000000000000e+04 1.065700000000000000e+04 1.065800000000000000e+04 1.065900000000000000e+04 7.012300000000000000e+04 7.012500000000000000e+04 7.012700000000000000e+04 7.012900000000000000e+04 7.013100000000000000e+04 7.013300000000000000e+04 7.013500000000000000e+04 7.013700000000000000e+04 7.013900000000000000e+04 7.014100000000000000e+04 1.067000000000000000e+04 7.014200000000000000e+04 7.014400000000000000e+04 7.014600000000000000e+04 7.014800000000000000e+04 7.015000000000000000e+04 7.015200000000000000e+04 7.015400000000000000e+04 7.015600000000000000e+04 7.015800000000000000e+04 7.016000000000000000e+04 7.016200000000000000e+04 7.016400000000000000e+04 1.068300000000000000e+04 1.068400000000000000e+04 1.068500000000000000e+04 1.068600000000000000e+04 1.068700000000000000e+04 1.068800000000000000e+04 1.068900000000000000e+04 1.069000000000000000e+04 1.069100000000000000e+04 1.069200000000000000e+04 1.069300000000000000e+04 1.069400000000000000e+04 1.069500000000000000e+04 1.069600000000000000e+04
6.936100000000000000e+04 6.936300000000000000e+04 6.936500000000000000e+04 6.936700000000000000e+04 6.936900000000000000e+04 6.937100000000000000e+04 6.937300000000000000e+04 6.937500000000000000e+04 6.937700000000000000e+04 9.988000000000000000e+03 6.937800000000000000e+04 1.028900000000000000e+04 1.029000000000000000e+04 1.029100000000000000e+04 1.029200000000000000e+04 1.029300000000000000e+04 1.029400000000000000e+04 1.029500000000000000e+04 1.029600000000000000e+04 1.029700000000000000e+04 6.939800000000000000e+04 6.940000000000000000e+04 6.940200000000000000e+04 1.000200000000000000e+04 1.000300000000000000e+04 1.000400000000000000e+04 1.000500000000000000e+04 1.000600000000000000e+04 1.000700000000000000e+04 6.941900000000000000e+04 6.942100000000000000e+04 6.942300000000000000e+04 6.942500000000000000e+04 6.942700000000000000e+04 6.942900000000000000e+04 6.943100000000000000e+04 6.943300000000000000e+04 6.943500000000000000e+04 6.943700000000000000e+04 6.943900000000000000e+04 6.944100000000000000e+04 6.944300000000000000e+04 6.944500000000000000e+04 6.944700000000000000e+04 1.032300000000000000e+04 1.002400000000000000e+04 6.945000000000000000e+04 1.032500000000000000e+04 7.005300000000000000e+04 7.005500000000000000e+04 7.005700000000000000e+04 7.005900000000000000e+04 7.006100000000000000e+04 7.006300000000000000e+04 7.006500000000000000e+04 7.006700000000000000e+04 7.006900000000000000e+04 7.007100000000000000e+04 7.007300000000000000e+04 7.007500000000000000e+04 1.033800000000000000e+04 1.033900000000000000e+04 6.948200000000000000e+04 1.004200000000000000e+04 1.004300000000000000e+04 1.004400000000000000e+04 1.004500000000000000e+04 1.004600000000000000e+04 6.949700000000000000e+04 1.004800000000000000e+04 1.004900000000000000e+04 1.005000000000000000e+04 1.005100000000000000e+04 1.005200000000000000e+04 1.005300000000000000e+04 1.005400000000000000e+04 1.005500000000000000e+04 6.951200000000000000e+04 6.951400000000000000e+04 1.005800000000000000e+04 1.005900000000000000e+04 1.006000000000000000e+04 1.006100000000000000e+04 6.952700000000000000e+04 6.952900000000000000e+04 6.953100000000000000e+04 6.953300000000000000e+04 6.953500000000000000e+04 6.953700000000000000e+04 6.953900000000000000e+04 6.954100000000000000e+04 6.954300000000000000e+04 1.007100000000000000e+04 6.954400000000000000e+04 6.954600000000000000e+04 6.954800000000000000e+04 6.955000000000000000e+04 6.955200000000000000e+04 6.955400000000000000e+04 6.955600000000000000e+04 6.955800000000000000e+04 6.956000000000000000e+04 6.956200000000000000e+04 6.956400000000000000e+04 1.008300000000000000e+04 1.008400000000000000e+04 1.008500000000000000e+04 1.008600000000000000e+04 1.008700000000000000e+04 1.008800000000000000e+04 1.008900000000000000e+04 1.009000000000000000e+04 1.009100000000000000e+04 1.009200000000000000e+04 1.009300000000000000e+04 1.009400000000000000e+04 1.009500000000000000e+04 1.009600000000000000e+04 1.009700000000000000e+04
