ncols 119
nrows 32
xllcorner 450
yllcorner 560
cellsize 10.0
6.000000000000000000e+02 6.000000000000000000e+02 4.000000000000000000e+02 3.000000000000000000e+02 2.500000000000000000e+02 1.500000000000000000e+02 1.000000000000000000e+02 5.000000000000000000e+01 2.000000000000000000e+02 3.500000000000000000e+02 4.500000000000000000e+02 5.000000000000000000e+02 6.000000000000000000e+02 6.000000000000000000e+02 5.500000000000000000e+02 6.000000000000000000e+02 6.000000000000000000e+02 6.000000000000000000e+02 6.000000000000000000e+02 6.000000000000000000e+02 6.000000000000000000e+02 6.000000000000000000e+02 6.000000000000000000e+02 6.000000000000000000e+02 6.000000000000000000e+02 6.000000000000000000e+02 6.000000000000000000e+02 6.000000000000000000e+02 6.000000000000000000e+02 6.000000000000000000e+02 6.500000000000000000e+02 6.000000000000000000e+02 6.000000000000000000e+02 6.000000000000000000e+02 3.850000000000000000e+03 6.000000000000000000e+02 6.000000000000000000e+02 6.000000000000000000e+02 5.500000000000000000e+02 4.500000000000000000e+02 4.000000000000000000e+02 3.500000000000000000e+02 3.000000000000000000e+02 2.500000000000000000e+02 2.000000000000000000e+02 1.000000000000000000e+02 5.000000000000000000e+01 1.500000000000000000e+02 5.000000000000000000e+02 5.000000000000000000e+01 1.000000000000000000e+02 1.500000000000000000e+02 2.000000000000000000e+02 2.500000000000000000e+02 3.000000000000000000e+02 3.500000000000000000e+02 4.000000000000000000e+02 4.500000000000000000e+02 5.000000000000000000e+02 5.500000000000000000e+02 6.000000000000000000e+02 6.000000000000000000e+02 6.000000000000000000e+02 6.000000000000000000e+02 6.000000000000000000e+02 3.900000000000000000e+03 6.000000000000000000e+02 6.000000000000000000e+02 6.500000000000000000e+02 3.850000000000000000e+03 6.000000000000000000e+02 5.000000000000000000e+02 4.000000000000000000e+02 3.500000000000000000e+02 2.500000000000000000e+02 2.000000000000000000e+02 1.500000000000000000e+02 1.000000000000000000e+02 5.000000000000000000e+01 3.000000000000000000e+02 4.500000000000000000e+02 5.500000000000000000e+02 5.000000000000000000e+01 1.000000000000000000e+02 6.000000000000000000e+02 1.500000000000000000e+02 2.000000000000000000e+02 5.500000000000000000e+02 2.500000000000000000e+03 6.000000000000000000e+02 6.000000000000000000e+02 6.000000000000000000e+02 6.000000000000000000e+02 6.000000000000000000e+02 6.000000000000000000e+02 6.000000000000000000e+02 6.000000000000000000e+02 5.000000000000000000e+01 1.000000000000000000e+02 1.700000000000000000e+03 5.000000000000000000e+01 4.450000000000000000e+03 8.000000000000000000e+02 5.500000000000000000e+02 5.500000000000000000e+02 5.500000000000000000e+02 5.500000000000000000e+02 6.000000000000000000e+02 6.000000000000000000e+02 6.000000000000000000e+02 6.000000000000000000e+02 5.500000000000000000e+02 5.000000000000000000e+02 4.000000000000000000e+02 3.500000000000000000e+02 3.000000000000000000e+02 2.500000000000000000e+02 2.000000000000000000e+02 1.500000000000000000e+02
6.500000000000000000e+02 4.500000000000000000e+02 3.500000000000000000e+02 3.000000000000000000e+02 2.000000000000000000e+02 1.500000000000000000e+02 5.000000000000000000e+01 1.000000000000000000e+02 2.500000000000000000e+02 4.000000000000000000e+02 5.000000000000000000e+02 5.500000000000000000e+02 6.500000000000000000e+02 6.500000000000000000e+02 6.000000000000000000e+02 6.500000000000000000e+02 6.500000000000000000e+02 6.500000000000000000e+02 6.500000000000000000e+02 6.500000000000000000e+02 6.500000000000000000e+02 6.500000000000000000e+02 6.500000000000000000e+02 6.500000000000000000e+02 6.500000000000000000e+02 6.500000000000000000e+02 6.500000000000000000e+02 6.500000000000000000e+02 6.500000000000000000e+02 6.500000000000000000e+02 7.000000000000000000e+02 6.500000000000000000e+02 6.500000000000000000e+02 4.500000000000000000e+03 6.500000000000000000e+02 6.500000000000000000e+02 6.500000000000000000e+02 6.000000000000000000e+02 5.000000000000000000e+02 4.500000000000000000e+02 4.000000000000000000e+02 3.500000000000000000e+02 3.000000000000000000e+02 2.500000000000000000e+02 1.500000000000000000e+02 1.000000000000000000e+02 5.000000000000000000e+01 2.000000000000000000e+02 5.500000000000000000e+02 5.000000000000000000e+01 1.000000000000000000e+02 1.500000000000000000e+02 2.000000000000000000e+02 2.500000000000000000e+02 3.000000000000000000e+02 3.500000000000000000e+02 4.000000000000000000e+02 4.500000000000000000e+02 5.000000000000000000e+02 5.500000000000000000e+02 6.000000000000000000e+02 6.500000000000000000e+02 6.500000000000000000e+02 6.500000000000000000e+02 6.500000000000000000e+02 4.550000000000000000e+03 6.500000000000000000e+02 6.500000000000000000e+02 4.550000000000000000e+03 6.500000000000000000e+02 5.500000000000000000e+02 4.500000000000000000e+02 4.000000000000000000e+02 3.000000000000000000e+02 2.500000000000000000e+02 2.000000000000000000e+02 1.500000000000000000e+02 1.000000000000000000e+02 5.000000000000000000e+01 3.500000000000000000e+02 5.000000000000000000e+02 5.000000000000000000e+01 6.000000000000000000e+02 1.000000000000000000e+02 1.500000000000000000e+02 6.500000000000000000e+02 2.000000000000000000e+02 2.500000000000000000e+02 3.100000000000000000e+03 6.500000000000000000e+02 6.500000000000000000e+02 6.500000000000000000e+02 6.500000000000000000e+02 6.500000000000000000e+02 6.500000000000000000e+02 6.500000000000000000e+02 6.500000000000000000e+02 5.000000000000000000e+01 1.000000000000000000e+02 1.850000000000000000e+03 5.000000000000000000e+01 5.350000000000000000e+03 6.000000000000000000e+02 6.000000000000000000e+02 6.000000000000000000e+02 6.000000000000000000e+02 6.500000000000000000e+02 6.500000000000000000e+02 6.500000000000000000e+02 6.500000000000000000e+02 6.000000000000000000e+02 5.500000000000000000e+02 4.500000000000000000e+02 4.000000000000000000e+02 3.500000000000000000e+02 3.000000000000000000e+02 2.500000000000000000e+02 2.000000000000000000e+02 1.500000000000000000e+02
5.000000000000000000e+02 4.000000000000000000e+02 3.500000000000000000e+02 2.500000000000000000e+02 2.000000000000000000e+02 1.000000000000000000e+02 5.000000000000000000e+01 1.500000000000000000e+02 3.000000000000000000e+02 4.500000000000000000e+02 5.500000000000000000e+02 6.000000000000000000e+02 7.000000000000000000e+02 7.000000000000000000e+02 6.500000000000000000e+02 7.000000000000000000e+02 7.000000000000000000e+02 7.000000000000000000e+02 7.000000000000000000e+02 7.000000000000000000e+02 7.000000000000000000e+02 7.000000000000000000e+02 7.000000000000000000e+02 7.000000000000000000e+02 7.000000000000000000e+02 7.000000000000000000e+02 7.000000000000000000e+02 7.000000000000000000e+02 7.000000000000000000e+02 7.000000000000000000e+02 7.500000000000000000e+02 7.000000000000000000e+02 7.000000000000000000e+02 5.200000000000000000e+03 7.000000000000000000e+02 7.000000000000000000e+02 3.400000000000000000e+03 2.750000000000000000e+03 2.200000000000000000e+03 1.700000000000000000e+03 1.250000000000000000e+03 8.500000000000000000e+02 5.000000000000000000e+02 2.000000000000000000e+02 1.500000000000000000e+02 1.000000000000000000e+02 5.000000000000000000e+01 2.500000000000000000e+02 5.000000000000000000e+01 6.000000000000000000e+02 1.000000000000000000e+02 1.500000000000000000e+02 2.000000000000000000e+02 2.500000000000000000e+02 3.000000000000000000e+02 3.500000000000000000e+02 4.000000000000000000e+02 4.500000000000000000e+02 5.000000000000000000e+02 5.500000000000000000e+02 6.000000000000000000e+02 6.500000000000000000e+02 7.000000000000000000e+02 7.000000000000000000e+02 7.000000000000000000e+02 5.250000000000000000e+03 7.000000000000000000e+02 7.000000000000000000e+02 5.250000000000000000e+03 6.000000000000000000e+02 5.000000000000000000e+02 4.500000000000000000e+02 3.500000000000000000e+02 3.000000000000000000e+02 2.500000000000000000e+02 2.000000000000000000e+02 1.500000000000000000e+02 1.000000000000000000e+02 5.000000000000000000e+01 4.000000000000000000e+02 5.500000000000000000e+02 5.000000000000000000e+01 1.000000000000000000e+02 6.500000000000000000e+02 1.500000000000000000e+02 2.000000000000000000e+02 7.000000000000000000e+02 2.500000000000000000e+02 3.400000000000000000e+03 7.000000000000000000e+02 7.000000000000000000e+02 7.000000000000000000e+02 7.000000000000000000e+02 7.000000000000000000e+02 7.000000000000000000e+02 7.000000000000000000e+02 5.000000000000000000e+01 7.000000000000000000e+02 1.000000000000000000e+02 2.000000000000000000e+03 5.000000000000000000e+01 6.050000000000000000e+03 6.500000000000000000e+02 6.500000000000000000e+02 6.500000000000000000e+02 7.000000000000000000e+02 7.000000000000000000e+02 7.000000000000000000e+02 7.000000000000000000e+02 6.500000000000000000e+02 6.000000000000000000e+02 5.000000000000000000e+02 4.500000000000000000e+02 4.000000000000000000e+02 3.500000000000000000e+02 3.000000000000000000e+02 2.500000000000000000e+02 2.000000000000000000e+02 1.500000000000000000e+02
4.500000000000000000e+02 4.000000000000000000e+02 3.000000000000000000e+02 2.500000000000000000e+02 1.500000000000000000e+02 1.000000000000000000e+02 5.000000000000000000e+01 2.000000000000000000e+02 3.500000000000000000e+02 5.000000000000000000e+02 6.000000000000000000e+02 6.500000000000000000e+02 7.500000000000000000e+02 7.500000000000000000e+02 7.000000000000000000e+02 7.500000000000000000e+02 7.500000000000000000e+02 7.500000000000000000e+02 7.500000000000000000e+02 7.500000000000000000e+02 7.500000000000000000e+02 7.500000000000000000e+02 7.500000000000000000e+02 7.500000000000000000e+02 7.500000000000000000e+02 7.500000000000000000e+02 7.500000000000000000e+02 7.500000000000000000e+02 7.500000000000000000e+02 7.500000000000000000e+02 8.000000000000000000e+02 7.500000000000000000e+02 5.950000000000000000e+03 7.500000000000000000e+02 7.500000000000000000e+02 4.150000000000000000e+03 7.000000000000000000e+02 6.500000000000000000e+02 6.000000000000000000e+02 5.500000000000000000e+02 5.000000000000000000e+02 4.500000000000000000e+02 4.000000000000000000e+02 3.500000000000000000e+02 1.500000000000000000e+02 1.000000000000000000e+02 5.000000000000000000e+01 3.000000000000000000e+02 5.000000000000000000e+01 1.000000000000000000e+02 6.500000000000000000e+02 1.500000000000000000e+02 2.000000000000000000e+02 2.500000000000000000e+02 3.000000000000000000e+02 3.500000000000000000e+02 4.000000000000000000e+02 4.500000000000000000e+02 5.000000000000000000e+02 5.500000000000000000e+02 6.000000000000000000e+02 6.500000000000000000e+02 7.000000000000000000e+02 7.500000000000000000e+02 7.500000000000000000e+02 7.500000000000000000e+02 6.000000000000000000e+03 6.000000000000000000e+03 6.500000000000000000e+02 5.500000000000000000e+02 5.000000000000000000e+02 4.000000000000000000e+02 3.500000000000000000e+02 3.000000000000000000e+02 2.500000000000000000e+02 2.000000000000000000e+02 1.500000000000000000e+02 1.000000000000000000e+02 5.000000000000000000e+01 4.500000000000000000e+02 6.000000000000000000e+02 5.000000000000000000e+01 1.000000000000000000e+02 1.500000000000000000e+02 7.000000000000000000e+02 2.000000000000000000e+02 2.500000000000000000e+02 7.500000000000000000e+02 3.700000000000000000e+03 7.500000000000000000e+02 7.500000000000000000e+02 7.500000000000000000e+02 7.500000000000000000e+02 7.500000000000000000e+02 7.500000000000000000e+02 7.500000000000000000e+02 5.000000000000000000e+01 1.000000000000000000e+02 7.500000000000000000e+02 2.150000000000000000e+03 5.000000000000000000e+01 6.800000000000000000e+03 7.000000000000000000e+02 7.000000000000000000e+02 7.500000000000000000e+02 7.500000000000000000e+02 7.500000000000000000e+02 7.500000000000000000e+02 7.000000000000000000e+02 6.500000000000000000e+02 5.500000000000000000e+02 5.000000000000000000e+02 4.500000000000000000e+02 4.000000000000000000e+02 3.500000000000000000e+02 3.000000000000000000e+02 2.500000000000000000e+02 2.000000000000000000e+02 1.500000000000000000e+02
4.500000000000000000e+02 3.500000000000000000e+02 3.000000000000000000e+02 2.000000000000000000e+02 1.500000000000000000e+02 5.000000000000000000e+01 1.000000000000000000e+02 2.500000000000000000e+02 4.000000000000000000e+02 5.500000000000000000e+02 6.500000000000000000e+02 7.000000000000000000e+02 8.000000000000000000e+02 8.000000000000000000e+02 7.500000000000000000e+02 8.000000000000000000e+02 8.000000000000000000e+02 8.000000000000000000e+02 8.000000000000000000e+02 8.000000000000000000e+02 8.000000000000000000e+02 8.000000000000000000e+02 8.000000000000000000e+02 8.000000000000000000e+02 8.000000000000000000e+02 8.000000000000000000e+02 8.000000000000000000e+02 8.000000000000000000e+02 8.000000000000000000e+02 8.000000000000000000e+02 8.500000000000000000e+02 8.000000000000000000e+02 6.750000000000000000e+03 8.000000000000000000e+02 4.800000000000000000e+03 6.000000000000000000e+02 5.500000000000000000e+02 5.000000000000000000e+02 4.500000000000000000e+02 4.000000000000000000e+02 3.500000000000000000e+02 3.000000000000000000e+02 2.500000000000000000e+02 2.000000000000000000e+02 1.500000000000000000e+02 1.000000000000000000e+02 5.000000000000000000e+01 5.000000000000000000e+01 3.500000000000000000e+02 1.000000000000000000e+02 1.500000000000000000e+02 7.000000000000000000e+02 2.000000000000000000e+02 2.500000000000000000e+02 3.000000000000000000e+02 3.500000000000000000e+02 4.000000000000000000e+02 4.500000000000000000e+02 5.000000000000000000e+02 5.500000000000000000e+02 6.000000000000000000e+02 6.500000000000000000e+02 7.000000000000000000e+02 7.500000000000000000e+02 8.000000000000000000e+02 8.000000000000000000e+02 1.280000000000000000e+04 7.000000000000000000e+02 6.000000000000000000e+02 5.500000000000000000e+02 4.500000000000000000e+02 4.000000000000000000e+02 3.500000000000000000e+02 3.000000000000000000e+02 2.500000000000000000e+02 2.000000000000000000e+02 1.500000000000000000e+02 1.000000000000000000e+02 5.000000000000000000e+01 5.000000000000000000e+02 6.500000000000000000e+02 5.000000000000000000e+01 1.000000000000000000e+02 1.500000000000000000e+02 2.000000000000000000e+02 7.500000000000000000e+02 2.500000000000000000e+02 3.000000000000000000e+02 4.500000000000000000e+03 8.000000000000000000e+02 8.000000000000000000e+02 8.000000000000000000e+02 8.000000000000000000e+02 8.000000000000000000e+02 8.000000000000000000e+02 8.000000000000000000e+02 5.000000000000000000e+01 1.000000000000000000e+02 1.500000000000000000e+02 2.950000000000000000e+03 5.000000000000000000e+01 7.600000000000000000e+03 7.500000000000000000e+02 8.000000000000000000e+02 8.000000000000000000e+02 8.000000000000000000e+02 8.000000000000000000e+02 7.500000000000000000e+02 7.000000000000000000e+02 6.000000000000000000e+02 5.500000000000000000e+02 5.000000000000000000e+02 4.500000000000000000e+02 4.000000000000000000e+02 3.500000000000000000e+02 3.000000000000000000e+02 2.500000000000000000e+02 2.000000000000000000e+02 1.500000000000000000e+02
4.000000000000000000e+02 3.500000000000000000e+02 2.500000000000000000e+02 2.000000000000000000e+02 1.000000000000000000e+02 5.000000000000000000e+01 1.500000000000000000e+02 3.000000000000000000e+02 4.500000000000000000e+02 6.000000000000000000e+02 7.000000000000000000e+02 7.500000000000000000e+02 8.500000000000000000e+02 8.500000000000000000e+02 8.000000000000000000e+02 8.500000000000000000e+02 8.500000000000000000e+02 8.500000000000000000e+02 8.500000000000000000e+02 8.500000000000000000e+02 8.500000000000000000e+02 8.500000000000000000e+02 8.500000000000000000e+02 8.500000000000000000e+02 8.500000000000000000e+02 8.500000000000000000e+02 8.500000000000000000e+02 8.500000000000000000e+02 8.500000000000000000e+02 8.500000000000000000e+02 9.000000000000000000e+02 7.600000000000000000e+03 8.500000000000000000e+02 5.500000000000000000e+03 6.500000000000000000e+02 6.000000000000000000e+02 5.500000000000000000e+02 5.000000000000000000e+02 4.500000000000000000e+02 4.000000000000000000e+02 3.500000000000000000e+02 3.000000000000000000e+02 2.500000000000000000e+02 2.000000000000000000e+02 1.500000000000000000e+02 1.000000000000000000e+02 5.000000000000000000e+01 5.000000000000000000e+01 1.000000000000000000e+02 4.000000000000000000e+02 1.500000000000000000e+02 2.000000000000000000e+02 7.500000000000000000e+02 2.500000000000000000e+02 3.000000000000000000e+02 3.500000000000000000e+02 4.000000000000000000e+02 4.500000000000000000e+02 5.000000000000000000e+02 5.500000000000000000e+02 6.000000000000000000e+02 6.500000000000000000e+02 7.000000000000000000e+02 7.500000000000000000e+02 8.000000000000000000e+02 8.500000000000000000e+02 1.435000000000000000e+04 6.500000000000000000e+02 6.000000000000000000e+02 5.000000000000000000e+02 4.500000000000000000e+02 4.000000000000000000e+02 3.500000000000000000e+02 3.000000000000000000e+02 2.500000000000000000e+02 2.000000000000000000e+02 1.500000000000000000e+02 1.000000000000000000e+02 5.000000000000000000e+01 5.500000000000000000e+02 5.000000000000000000e+01 7.000000000000000000e+02 1.000000000000000000e+02 1.500000000000000000e+02 2.000000000000000000e+02 2.500000000000000000e+02 8.000000000000000000e+02 3.000000000000000000e+02 4.850000000000000000e+03 8.500000000000000000e+02 8.500000000000000000e+02 8.500000000000000000e+02 8.500000000000000000e+02 8.500000000000000000e+02 8.500000000000000000e+02 8.500000000000000000e+02 5.000000000000000000e+01 1.000000000000000000e+02 1.500000000000000000e+02 3.150000000000000000e+03 1.000000000000000000e+02 8.400000000000000000e+03 8.500000000000000000e+02 8.500000000000000000e+02 8.500000000000000000e+02 8.500000000000000000e+02 8.000000000000000000e+02 7.500000000000000000e+02 6.500000000000000000e+02 6.000000000000000000e+02 5.500000000000000000e+02 5.000000000000000000e+02 4.500000000000000000e+02 4.000000000000000000e+02 3.500000000000000000e+02 3.000000000000000000e+02 2.500000000000000000e+02 2.000000000000000000e+02 1.500000000000000000e+02
4.000000000000000000e+02 3.000000000000000000e+02 2.500000000000000000e+02 1.500000000000000000e+02 1.000000000000000000e+02 5.000000000000000000e+01 2.000000000000000000e+02 3.500000000000000000e+02 5.000000000000000000e+02 6.500000000000000000e+02 5.000000000000000000e+01 1.500000000000000000e+03 9.000000000000000000e+02 9.000000000000000000e+02 8.500000000000000000e+02 9.000000000000000000e+02 9.000000000000000000e+02 9.000000000000000000e+02 9.000000000000000000e+02 9.000000000000000000e+02 9.000000000000000000e+02 9.000000000000000000e+02 9.000000000000000000e+02 9.000000000000000000e+02 9.000000000000000000e+02 9.000000000000000000e+02 9.000000000000000000e+02 9.000000000000000000e+02 9.000000000000000000e+02 9.000000000000000000e+02 9.500000000000000000e+02 1.460000000000000000e+04 6.100000000000000000e+03 5.500000000000000000e+02 5.000000000000000000e+02 4.500000000000000000e+02 4.000000000000000000e+02 3.500000000000000000e+02 3.000000000000000000e+02 2.500000000000000000e+02 2.000000000000000000e+02 1.500000000000000000e+02 1.000000000000000000e+02 5.000000000000000000e+01 1.500000000000000000e+02 1.000000000000000000e+02 5.000000000000000000e+01 5.000000000000000000e+01 1.000000000000000000e+02 1.500000000000000000e+02 4.500000000000000000e+02 2.000000000000000000e+02 2.500000000000000000e+02 8.000000000000000000e+02 3.000000000000000000e+02 3.500000000000000000e+02 4.000000000000000000e+02 4.500000000000000000e+02 5.000000000000000000e+02 5.500000000000000000e+02 6.000000000000000000e+02 6.500000000000000000e+02 7.000000000000000000e+02 7.500000000000000000e+02 8.000000000000000000e+02 8.500000000000000000e+02 1.590000000000000000e+04 6.500000000000000000e+02 5.500000000000000000e+02 5.000000000000000000e+02 4.500000000000000000e+02 4.000000000000000000e+02 3.500000000000000000e+02 3.000000000000000000e+02 2.500000000000000000e+02 2.000000000000000000e+02 1.500000000000000000e+02 1.000000000000000000e+02 5.000000000000000000e+01 6.000000000000000000e+02 5.000000000000000000e+01 1.000000000000000000e+02 7.500000000000000000e+02 1.500000000000000000e+02 2.000000000000000000e+02 2.500000000000000000e+02 3.000000000000000000e+02 8.500000000000000000e+02 5.200000000000000000e+03 9.000000000000000000e+02 9.000000000000000000e+02 9.000000000000000000e+02 9.000000000000000000e+02 9.000000000000000000e+02 9.000000000000000000e+02 9.000000000000000000e+02 5.000000000000000000e+01 1.000000000000000000e+02 1.500000000000000000e+02 3.350000000000000000e+03 1.500000000000000000e+02 9.300000000000000000e+03 9.000000000000000000e+02 9.000000000000000000e+02 9.000000000000000000e+02 8.500000000000000000e+02 8.000000000000000000e+02 7.000000000000000000e+02 6.500000000000000000e+02 6.000000000000000000e+02 5.500000000000000000e+02 5.000000000000000000e+02 4.500000000000000000e+02 4.000000000000000000e+02 3.500000000000000000e+02 3.000000000000000000e+02 2.500000000000000000e+02 2.000000000000000000e+02 1.500000000000000000e+02
3.500000000000000000e+02 3.000000000000000000e+02 2.000000000000000000e+02 1.500000000000000000e+02 5.000000000000000000e+01 1.000000000000000000e+02 2.500000000000000000e+02 4.000000000000000000e+02 5.500000000000000000e+02 7.000000000000000000e+02 5.000000000000000000e+01 1.000000000000000000e+02 2.450000000000000000e+03 9.500000000000000000e+02 9.000000000000000000e+02 9.500000000000000000e+02 9.500000000000000000e+02 9.500000000000000000e+02 1.850000000000000000e+03 5.000000000000000000e+01 9.500000000000000000e+02 9.500000000000000000e+02 9.500000000000000000e+02 9.500000000000000000e+02 9.500000000000000000e+02 9.500000000000000000e+02 9.500000000000000000e+02 9.500000000000000000e+02 9.500000000000000000e+02 9.500000000000000000e+02 1.560000000000000000e+04 5.000000000000000000e+01 9.000000000000000000e+02 8.500000000000000000e+02 8.000000000000000000e+02 7.500000000000000000e+02 7.000000000000000000e+02 6.500000000000000000e+02 6.000000000000000000e+02 5.500000000000000000e+02 5.000000000000000000e+02 4.500000000000000000e+02 4.000000000000000000e+02 3.500000000000000000e+02 1.500000000000000000e+02 1.000000000000000000e+02 5.000000000000000000e+01 5.000000000000000000e+01 1.000000000000000000e+02 1.500000000000000000e+02 2.000000000000000000e+02 5.000000000000000000e+02 2.500000000000000000e+02 3.000000000000000000e+02 8.500000000000000000e+02 3.500000000000000000e+02 4.000000000000000000e+02 4.500000000000000000e+02 5.000000000000000000e+02 5.500000000000000000e+02 6.000000000000000000e+02 6.500000000000000000e+02 7.000000000000000000e+02 7.500000000000000000e+02 8.000000000000000000e+02 8.500000000000000000e+02 1.745000000000000000e+04 6.000000000000000000e+02 5.500000000000000000e+02 5.000000000000000000e+02 4.500000000000000000e+02 4.000000000000000000e+02 3.500000000000000000e+02 3.000000000000000000e+02 2.500000000000000000e+02 2.000000000000000000e+02 1.500000000000000000e+02 1.000000000000000000e+02 5.000000000000000000e+01 6.500000000000000000e+02 5.000000000000000000e+01 1.000000000000000000e+02 1.500000000000000000e+02 8.000000000000000000e+02 2.000000000000000000e+02 2.500000000000000000e+02 3.000000000000000000e+02 3.500000000000000000e+02 6.100000000000000000e+03 9.500000000000000000e+02 9.500000000000000000e+02 9.500000000000000000e+02 9.500000000000000000e+02 9.500000000000000000e+02 9.500000000000000000e+02 9.500000000000000000e+02 5.000000000000000000e+01 1.000000000000000000e+02 1.500000000000000000e+02 3.550000000000000000e+03 2.000000000000000000e+02 1.025000000000000000e+04 9.500000000000000000e+02 9.500000000000000000e+02 9.000000000000000000e+02 8.500000000000000000e+02 7.500000000000000000e+02 7.000000000000000000e+02 6.500000000000000000e+02 6.000000000000000000e+02 5.500000000000000000e+02 5.000000000000000000e+02 4.500000000000000000e+02 4.000000000000000000e+02 3.500000000000000000e+02 3.000000000000000000e+02 2.500000000000000000e+02 2.000000000000000000e+02 1.500000000000000000e+02
3.500000000000000000e+02 2.500000000000000000e+02 2.000000000000000000e+02 1.000000000000000000e+02 5.000000000000000000e+01 1.500000000000000000e+02 3.000000000000000000e+02 4.500000000000000000e+02 6.000000000000000000e+02 7.500000000000000000e+02 5.000000000000000000e+01 1.000000000000000000e+02 2.600000000000000000e+03 1.000000000000000000e+03 9.500000000000000000e+02 1.000000000000000000e+03 1.000000000000000000e+03 2.850000000000000000e+03 1.000000000000000000e+02 5.000000000000000000e+01 1.000000000000000000e+03 1.000000000000000000e+03 1.000000000000000000e+03 1.000000000000000000e+03 1.000000000000000000e+03 1.000000000000000000e+03 1.000000000000000000e+03 1.000000000000000000e+03 1.000000000000000000e+03 1.000000000000000000e+03 1.740000000000000000e+04 1.700000000000000000e+03 7.500000000000000000e+02 7.000000000000000000e+02 6.500000000000000000e+02 6.000000000000000000e+02 5.500000000000000000e+02 5.000000000000000000e+02 4.500000000000000000e+02 4.000000000000000000e+02 3.500000000000000000e+02 3.000000000000000000e+02 2.500000000000000000e+02 2.000000000000000000e+02 1.500000000000000000e+02 5.000000000000000000e+01 5.000000000000000000e+01 1.000000000000000000e+02 1.000000000000000000e+02 1.500000000000000000e+02 2.000000000000000000e+02 2.500000000000000000e+02 5.500000000000000000e+02 3.000000000000000000e+02 3.500000000000000000e+02 9.000000000000000000e+02 4.000000000000000000e+02 4.500000000000000000e+02 5.000000000000000000e+02 5.500000000000000000e+02 6.000000000000000000e+02 6.500000000000000000e+02 7.000000000000000000e+02 7.500000000000000000e+02 8.000000000000000000e+02 8.500000000000000000e+02 1.895000000000000000e+04 6.000000000000000000e+02 5.500000000000000000e+02 5.000000000000000000e+02 4.500000000000000000e+02 4.000000000000000000e+02 3.500000000000000000e+02 3.000000000000000000e+02 2.500000000000000000e+02 2.000000000000000000e+02 1.500000000000000000e+02 1.000000000000000000e+02 5.000000000000000000e+01 7.000000000000000000e+02 5.000000000000000000e+01 1.000000000000000000e+02 1.500000000000000000e+02 2.000000000000000000e+02 8.500000000000000000e+02 2.500000000000000000e+02 3.000000000000000000e+02 3.500000000000000000e+02 6.500000000000000000e+03 1.000000000000000000e+03 1.000000000000000000e+03 1.000000000000000000e+03 1.000000000000000000e+03 1.000000000000000000e+03 1.000000000000000000e+03 1.000000000000000000e+03 5.000000000000000000e+01 1.000000000000000000e+02 1.500000000000000000e+02 3.750000000000000000e+03 1.050000000000000000e+04 1.000000000000000000e+03 1.000000000000000000e+03 9.500000000000000000e+02 9.000000000000000000e+02 8.000000000000000000e+02 7.500000000000000000e+02 7.000000000000000000e+02 6.500000000000000000e+02 6.000000000000000000e+02 5.500000000000000000e+02 5.000000000000000000e+02 4.500000000000000000e+02 4.000000000000000000e+02 3.500000000000000000e+02 3.000000000000000000e+02 2.500000000000000000e+02 2.000000000000000000e+02 1.500000000000000000e+02
3.000000000000000000e+02 2.500000000000000000e+02 1.500000000000000000e+02 5.000000000000000000e+01 1.000000000000000000e+02 2.000000000000000000e+02 3.500000000000000000e+02 5.000000000000000000e+02 6.500000000000000000e+02 8.000000000000000000e+02 5.000000000000000000e+01 1.000000000000000000e+02 2.750000000000000000e+03 1.050000000000000000e+03 1.000000000000000000e+03 1.050000000000000000e+03 1.050000000000000000e+03 3.000000000000000000e+03 1.000000000000000000e+02 1.050000000000000000e+03 5.000000000000000000e+01 1.050000000000000000e+03 1.050000000000000000e+03 1.050000000000000000e+03 1.050000000000000000e+03 1.050000000000000000e+03 1.050000000000000000e+03 1.050000000000000000e+03 1.050000000000000000e+03 1.915000000000000000e+04 7.000000000000000000e+02 6.500000000000000000e+02 6.000000000000000000e+02 5.500000000000000000e+02 5.000000000000000000e+02 4.500000000000000000e+02 4.000000000000000000e+02 3.500000000000000000e+02 3.000000000000000000e+02 2.500000000000000000e+02 2.000000000000000000e+02 1.500000000000000000e+02 1.000000000000000000e+02 5.000000000000000000e+01 1.000000000000000000e+02 5.000000000000000000e+01 5.000000000000000000e+01 1.000000000000000000e+02 1.500000000000000000e+02 1.500000000000000000e+02 2.000000000000000000e+02 2.500000000000000000e+02 3.000000000000000000e+02 6.000000000000000000e+02 3.500000000000000000e+02 4.000000000000000000e+02 9.500000000000000000e+02 4.500000000000000000e+02 5.000000000000000000e+02 5.500000000000000000e+02 6.000000000000000000e+02 6.500000000000000000e+02 7.000000000000000000e+02 7.500000000000000000e+02 8.000000000000000000e+02 8.500000000000000000e+02 2.045000000000000000e+04 6.000000000000000000e+02 5.500000000000000000e+02 5.000000000000000000e+02 4.500000000000000000e+02 4.000000000000000000e+02 3.500000000000000000e+02 3.000000000000000000e+02 2.500000000000000000e+02 2.000000000000000000e+02 1.500000000000000000e+02 1.000000000000000000e+02 5.000000000000000000e+01 7.500000000000000000e+02 5.000000000000000000e+01 1.000000000000000000e+02 1.500000000000000000e+02 2.000000000000000000e+02 2.500000000000000000e+02 9.000000000000000000e+02 3.000000000000000000e+02 3.500000000000000000e+02 6.900000000000000000e+03 1.050000000000000000e+03 1.050000000000000000e+03 1.050000000000000000e+03 1.050000000000000000e+03 5.000000000000000000e+01 2.050000000000000000e+03 1.050000000000000000e+03 5.000000000000000000e+01 1.000000000000000000e+02 1.500000000000000000e+02 1.445000000000000000e+04 1.050000000000000000e+03 1.050000000000000000e+03 1.000000000000000000e+03 9.500000000000000000e+02 8.500000000000000000e+02 8.000000000000000000e+02 7.500000000000000000e+02 7.000000000000000000e+02 6.500000000000000000e+02 6.000000000000000000e+02 5.500000000000000000e+02 5.000000000000000000e+02 4.500000000000000000e+02 4.000000000000000000e+02 3.500000000000000000e+02 3.000000000000000000e+02 2.500000000000000000e+02 2.000000000000000000e+02 9.000000000000000000e+02
3.000000000000000000e+02 2.000000000000000000e+02 1.000000000000000000e+02 5.000000000000000000e+01 1.500000000000000000e+02 2.500000000000000000e+02 4.000000000000000000e+02 5.500000000000000000e+02 7.000000000000000000e+02 8.500000000000000000e+02 5.000000000000000000e+01 1.000000000000000000e+02 2.900000000000000000e+03 1.100000000000000000e+03 1.050000000000000000e+03 1.100000000000000000e+03 1.100000000000000000e+03 3.150000000000000000e+03 1.100000000000000000e+03 1.000000000000000000e+02 5.000000000000000000e+01 1.100000000000000000e+03 1.100000000000000000e+03 1.100000000000000000e+03 1.100000000000000000e+03 1.100000000000000000e+03 1.100000000000000000e+03 1.100000000000000000e+03 2.110000000000000000e+04 8.500000000000000000e+02 8.000000000000000000e+02 7.500000000000000000e+02 7.000000000000000000e+02 6.500000000000000000e+02 6.000000000000000000e+02 5.500000000000000000e+02 5.000000000000000000e+02 4.500000000000000000e+02 4.000000000000000000e+02 3.500000000000000000e+02 3.000000000000000000e+02 2.500000000000000000e+02 2.000000000000000000e+02 1.500000000000000000e+02 1.000000000000000000e+02 5.000000000000000000e+01 5.000000000000000000e+01 1.000000000000000000e+02 1.500000000000000000e+02 2.000000000000000000e+02 2.000000000000000000e+02 2.500000000000000000e+02 3.000000000000000000e+02 3.500000000000000000e+02 6.500000000000000000e+02 4.000000000000000000e+02 4.500000000000000000e+02 1.000000000000000000e+03 5.000000000000000000e+02 5.500000000000000000e+02 6.000000000000000000e+02 6.500000000000000000e+02 7.000000000000000000e+02 7.500000000000000000e+02 8.000000000000000000e+02 8.500000000000000000e+02 2.195000000000000000e+04 6.000000000000000000e+02 5.500000000000000000e+02 5.000000000000000000e+02 4.500000000000000000e+02 4.000000000000000000e+02 3.500000000000000000e+02 3.000000000000000000e+02 2.500000000000000000e+02 2.000000000000000000e+02 1.500000000000000000e+02 1.000000000000000000e+02 5.000000000000000000e+01 8.000000000000000000e+02 5.000000000000000000e+01 1.000000000000000000e+02 1.500000000000000000e+02 2.000000000000000000e+02 2.500000000000000000e+02 3.000000000000000000e+02 9.500000000000000000e+02 3.500000000000000000e+02 7.300000000000000000e+03 1.100000000000000000e+03 1.100000000000000000e+03 1.100000000000000000e+03 1.100000000000000000e+03 5.000000000000000000e+01 2.150000000000000000e+03 1.100000000000000000e+03 5.000000000000000000e+01 1.000000000000000000e+02 1.500000000000000000e+02 1.570000000000000000e+04 1.100000000000000000e+03 1.050000000000000000e+03 1.000000000000000000e+03 9.000000000000000000e+02 8.500000000000000000e+02 8.000000000000000000e+02 7.500000000000000000e+02 7.000000000000000000e+02 6.500000000000000000e+02 6.000000000000000000e+02 5.500000000000000000e+02 5.000000000000000000e+02 4.500000000000000000e+02 4.000000000000000000e+02 3.500000000000000000e+02 3.000000000000000000e+02 2.500000000000000000e+02 9.500000000000000000e+02 2.000000000000000000e+02
2.500000000000000000e+02 1.500000000000000000e+02 1.000000000000000000e+02 5.000000000000000000e+01 2.000000000000000000e+02 3.000000000000000000e+02 4.500000000000000000e+02 6.000000000000000000e+02 7.500000000000000000e+02 9.000000000000000000e+02 5.000000000000000000e+01 1.000000000000000000e+02 3.050000000000000000e+03 1.150000000000000000e+03 1.100000000000000000e+03 1.150000000000000000e+03 1.150000000000000000e+03 4.300000000000000000e+03 1.500000000000000000e+02 1.000000000000000000e+02 5.000000000000000000e+01 1.150000000000000000e+03 1.150000000000000000e+03 1.150000000000000000e+03 1.150000000000000000e+03 5.000000000000000000e+01 1.150000000000000000e+03 2.335000000000000000e+04 5.000000000000000000e+01 8.500000000000000000e+02 8.000000000000000000e+02 7.500000000000000000e+02 7.000000000000000000e+02 6.500000000000000000e+02 6.000000000000000000e+02 5.500000000000000000e+02 5.000000000000000000e+02 4.500000000000000000e+02 4.000000000000000000e+02 3.500000000000000000e+02 3.000000000000000000e+02 2.500000000000000000e+02 2.000000000000000000e+02 1.500000000000000000e+02 1.000000000000000000e+02 5.000000000000000000e+01 5.000000000000000000e+01 1.000000000000000000e+02 1.500000000000000000e+02 2.000000000000000000e+02 2.500000000000000000e+02 2.500000000000000000e+02 3.000000000000000000e+02 3.500000000000000000e+02 4.000000000000000000e+02 7.000000000000000000e+02 4.500000000000000000e+02 5.000000000000000000e+02 1.050000000000000000e+03 5.500000000000000000e+02 6.000000000000000000e+02 6.500000000000000000e+02 7.000000000000000000e+02 7.500000000000000000e+02 8.000000000000000000e+02 8.500000000000000000e+02 2.345000000000000000e+04 6.000000000000000000e+02 5.500000000000000000e+02 5.000000000000000000e+02 4.500000000000000000e+02 4.000000000000000000e+02 3.500000000000000000e+02 3.000000000000000000e+02 2.500000000000000000e+02 2.000000000000000000e+02 1.500000000000000000e+02 1.000000000000000000e+02 5.000000000000000000e+01 5.000000000000000000e+01 8.500000000000000000e+02 1.000000000000000000e+02 1.500000000000000000e+02 2.000000000000000000e+02 2.500000000000000000e+02 3.000000000000000000e+02 3.500000000000000000e+02 1.000000000000000000e+03 7.700000000000000000e+03 1.150000000000000000e+03 1.150000000000000000e+03 1.150000000000000000e+03 1.150000000000000000e+03 5.000000000000000000e+01 1.000000000000000000e+02 3.300000000000000000e+03 5.000000000000000000e+01 1.000000000000000000e+02 1.500000000000000000e+02 1.700000000000000000e+04 1.100000000000000000e+03 1.050000000000000000e+03 9.500000000000000000e+02 9.000000000000000000e+02 8.500000000000000000e+02 8.000000000000000000e+02 7.500000000000000000e+02 7.000000000000000000e+02 6.500000000000000000e+02 6.000000000000000000e+02 5.500000000000000000e+02 5.000000000000000000e+02 4.500000000000000000e+02 4.000000000000000000e+02 3.500000000000000000e+02 3.000000000000000000e+02 1.000000000000000000e+03 2.500000000000000000e+02 2.000000000000000000e+02
2.000000000000000000e+02 1.500000000000000000e+02 5.000000000000000000e+01 1.000000000000000000e+02 2.500000000000000000e+02 3.500000000000000000e+02 5.000000000000000000e+02 6.500000000000000000e+02 8.000000000000000000e+02 9.500000000000000000e+02 5.000000000000000000e+01 1.000000000000000000e+02 3.200000000000000000e+03 1.200000000000000000e+03 1.150000000000000000e+03 1.200000000000000000e+03 1.200000000000000000e+03 4.500000000000000000e+03 1.500000000000000000e+02 1.000000000000000000e+02 5.000000000000000000e+01 1.200000000000000000e+03 1.200000000000000000e+03 1.200000000000000000e+03 1.200000000000000000e+03 5.000000000000000000e+01 1.250000000000000000e+03 2.520000000000000000e+04 1.750000000000000000e+03 8.500000000000000000e+02 8.000000000000000000e+02 7.500000000000000000e+02 7.000000000000000000e+02 6.500000000000000000e+02 6.000000000000000000e+02 5.500000000000000000e+02 5.000000000000000000e+02 4.500000000000000000e+02 4.000000000000000000e+02 3.500000000000000000e+02 3.000000000000000000e+02 2.500000000000000000e+02 2.000000000000000000e+02 1.500000000000000000e+02 5.000000000000000000e+01 1.000000000000000000e+02 5.000000000000000000e+01 1.000000000000000000e+02 1.500000000000000000e+02 2.000000000000000000e+02 2.500000000000000000e+02 3.000000000000000000e+02 3.000000000000000000e+02 3.500000000000000000e+02 4.000000000000000000e+02 4.500000000000000000e+02 7.500000000000000000e+02 5.000000000000000000e+02 5.500000000000000000e+02 1.100000000000000000e+03 6.000000000000000000e+02 6.500000000000000000e+02 7.000000000000000000e+02 7.500000000000000000e+02 8.000000000000000000e+02 8.500000000000000000e+02 2.495000000000000000e+04 6.000000000000000000e+02 5.500000000000000000e+02 5.000000000000000000e+02 4.500000000000000000e+02 4.000000000000000000e+02 3.500000000000000000e+02 3.000000000000000000e+02 2.500000000000000000e+02 2.000000000000000000e+02 1.500000000000000000e+02 1.000000000000000000e+02 5.000000000000000000e+01 5.000000000000000000e+01 1.000000000000000000e+02 9.000000000000000000e+02 1.500000000000000000e+02 2.000000000000000000e+02 2.500000000000000000e+02 3.000000000000000000e+02 3.500000000000000000e+02 4.000000000000000000e+02 8.750000000000000000e+03 1.200000000000000000e+03 1.200000000000000000e+03 1.200000000000000000e+03 1.200000000000000000e+03 5.000000000000000000e+01 1.000000000000000000e+02 3.450000000000000000e+03 5.000000000000000000e+01 1.000000000000000000e+02 1.500000000000000000e+02 1.830000000000000000e+04 1.100000000000000000e+03 1.000000000000000000e+03 9.500000000000000000e+02 9.000000000000000000e+02 8.500000000000000000e+02 8.000000000000000000e+02 7.500000000000000000e+02 7.000000000000000000e+02 6.500000000000000000e+02 6.000000000000000000e+02 5.500000000000000000e+02 5.000000000000000000e+02 4.500000000000000000e+02 4.000000000000000000e+02 3.500000000000000000e+02 1.050000000000000000e+03 3.000000000000000000e+02 2.500000000000000000e+02 2.000000000000000000e+02
2.000000000000000000e+02 1.000000000000000000e+02 5.000000000000000000e+01 1.500000000000000000e+02 3.000000000000000000e+02 4.000000000000000000e+02 5.500000000000000000e+02 7.000000000000000000e+02 8.500000000000000000e+02 1.000000000000000000e+03 5.000000000000000000e+01 1.000000000000000000e+02 3.350000000000000000e+03 1.250000000000000000e+03 1.200000000000000000e+03 1.250000000000000000e+03 1.250000000000000000e+03 4.700000000000000000e+03 1.500000000000000000e+02 1.000000000000000000e+02 5.000000000000000000e+01 1.250000000000000000e+03 1.250000000000000000e+03 1.250000000000000000e+03 1.250000000000000000e+03 5.000000000000000000e+01 2.655000000000000000e+04 5.000000000000000000e+01 8.500000000000000000e+02 8.000000000000000000e+02 7.500000000000000000e+02 7.000000000000000000e+02 6.500000000000000000e+02 6.000000000000000000e+02 5.500000000000000000e+02 5.000000000000000000e+02 4.500000000000000000e+02 4.000000000000000000e+02 3.500000000000000000e+02 3.000000000000000000e+02 2.500000000000000000e+02 2.000000000000000000e+02 1.500000000000000000e+02 1.000000000000000000e+02 5.000000000000000000e+01 5.000000000000000000e+01 1.500000000000000000e+02 1.000000000000000000e+02 1.500000000000000000e+02 2.000000000000000000e+02 2.500000000000000000e+02 3.000000000000000000e+02 3.500000000000000000e+02 3.500000000000000000e+02 4.000000000000000000e+02 4.500000000000000000e+02 5.000000000000000000e+02 8.000000000000000000e+02 5.500000000000000000e+02 6.000000000000000000e+02 1.150000000000000000e+03 6.500000000000000000e+02 7.000000000000000000e+02 7.500000000000000000e+02 8.000000000000000000e+02 8.500000000000000000e+02 2.645000000000000000e+04 6.000000000000000000e+02 5.500000000000000000e+02 5.000000000000000000e+02 4.500000000000000000e+02 4.000000000000000000e+02 3.500000000000000000e+02 3.000000000000000000e+02 2.500000000000000000e+02 2.000000000000000000e+02 1.500000000000000000e+02 1.000000000000000000e+02 5.000000000000000000e+01 5.000000000000000000e+01 1.000000000000000000e+02 1.500000000000000000e+02 9.500000000000000000e+02 2.000000000000000000e+02 2.500000000000000000e+02 3.000000000000000000e+02 3.500000000000000000e+02 4.000000000000000000e+02 9.200000000000000000e+03 1.250000000000000000e+03 1.250000000000000000e+03 1.250000000000000000e+03 1.250000000000000000e+03 5.000000000000000000e+01 1.000000000000000000e+02 3.600000000000000000e+03 5.000000000000000000e+01 1.000000000000000000e+02 1.500000000000000000e+02 1.960000000000000000e+04 1.050000000000000000e+03 1.000000000000000000e+03 9.500000000000000000e+02 9.000000000000000000e+02 8.500000000000000000e+02 8.000000000000000000e+02 7.500000000000000000e+02 7.000000000000000000e+02 6.500000000000000000e+02 6.000000000000000000e+02 5.500000000000000000e+02 5.000000000000000000e+02 4.500000000000000000e+02 4.000000000000000000e+02 1.100000000000000000e+03 3.500000000000000000e+02 3.000000000000000000e+02 2.500000000000000000e+02 2.000000000000000000e+02
1.500000000000000000e+02 1.000000000000000000e+02 5.000000000000000000e+01 2.000000000000000000e+02 3.500000000000000000e+02 4.500000000000000000e+02 6.000000000000000000e+02 7.500000000000000000e+02 9.000000000000000000e+02 1.050000000000000000e+03 5.000000000000000000e+01 1.000000000000000000e+02 3.500000000000000000e+03 1.300000000000000000e+03 1.250000000000000000e+03 1.300000000000000000e+03 1.300000000000000000e+03 4.900000000000000000e+03 1.500000000000000000e+02 1.000000000000000000e+02 1.300000000000000000e+03 5.000000000000000000e+01 1.300000000000000000e+03 1.300000000000000000e+03 1.300000000000000000e+03 5.000000000000000000e+01 2.670000000000000000e+04 1.650000000000000000e+03 7.500000000000000000e+02 7.000000000000000000e+02 6.500000000000000000e+02 6.000000000000000000e+02 5.500000000000000000e+02 5.000000000000000000e+02 4.500000000000000000e+02 4.000000000000000000e+02 3.500000000000000000e+02 3.000000000000000000e+02 2.500000000000000000e+02 2.000000000000000000e+02 1.500000000000000000e+02 1.000000000000000000e+02 5.000000000000000000e+01 1.000000000000000000e+02 5.000000000000000000e+01 5.000000000000000000e+01 1.000000000000000000e+02 2.000000000000000000e+02 1.500000000000000000e+02 2.000000000000000000e+02 2.500000000000000000e+02 3.000000000000000000e+02 3.500000000000000000e+02 4.000000000000000000e+02 4.000000000000000000e+02 4.500000000000000000e+02 5.000000000000000000e+02 5.500000000000000000e+02 8.500000000000000000e+02 6.000000000000000000e+02 6.500000000000000000e+02 1.200000000000000000e+03 7.000000000000000000e+02 7.500000000000000000e+02 8.000000000000000000e+02 8.500000000000000000e+02 2.795000000000000000e+04 6.000000000000000000e+02 5.500000000000000000e+02 5.000000000000000000e+02 4.500000000000000000e+02 4.000000000000000000e+02 3.500000000000000000e+02 3.000000000000000000e+02 2.500000000000000000e+02 2.000000000000000000e+02 1.500000000000000000e+02 1.000000000000000000e+02 5.000000000000000000e+01 5.000000000000000000e+01 1.000000000000000000e+02 1.500000000000000000e+02 2.000000000000000000e+02 1.000000000000000000e+03 2.500000000000000000e+02 3.000000000000000000e+02 3.500000000000000000e+02 4.000000000000000000e+02 9.650000000000000000e+03 1.300000000000000000e+03 1.300000000000000000e+03 1.300000000000000000e+03 1.300000000000000000e+03 5.000000000000000000e+01 1.000000000000000000e+02 3.750000000000000000e+03 5.000000000000000000e+01 1.000000000000000000e+02 1.500000000000000000e+02 2.085000000000000000e+04 1.050000000000000000e+03 1.000000000000000000e+03 9.500000000000000000e+02 9.000000000000000000e+02 8.500000000000000000e+02 8.000000000000000000e+02 7.500000000000000000e+02 7.000000000000000000e+02 6.500000000000000000e+02 6.000000000000000000e+02 5.500000000000000000e+02 5.000000000000000000e+02 4.500000000000000000e+02 1.150000000000000000e+03 4.000000000000000000e+02 3.500000000000000000e+02 3.000000000000000000e+02 2.500000000000000000e+02 2.000000000000000000e+02
1.500000000000000000e+02 5.000000000000000000e+01 1.000000000000000000e+02 2.500000000000000000e+02 4.000000000000000000e+02 5.000000000000000000e+02 6.500000000000000000e+02 8.000000000000000000e+02 9.500000000000000000e+02 1.100000000000000000e+03 1.000000000000000000e+02 5.000000000000000000e+01 3.650000000000000000e+03 1.350000000000000000e+03 1.300000000000000000e+03 1.350000000000000000e+03 1.350000000000000000e+03 5.100000000000000000e+03 1.500000000000000000e+02 1.350000000000000000e+03 1.000000000000000000e+02 5.000000000000000000e+01 1.350000000000000000e+03 1.350000000000000000e+03 1.350000000000000000e+03 5.000000000000000000e+01 2.845000000000000000e+04 5.000000000000000000e+01 8.500000000000000000e+02 8.000000000000000000e+02 7.500000000000000000e+02 7.000000000000000000e+02 6.500000000000000000e+02 6.000000000000000000e+02 5.500000000000000000e+02 5.000000000000000000e+02 4.500000000000000000e+02 4.000000000000000000e+02 3.500000000000000000e+02 3.000000000000000000e+02 2.500000000000000000e+02 2.000000000000000000e+02 1.500000000000000000e+02 1.000000000000000000e+02 5.000000000000000000e+01 5.000000000000000000e+01 1.000000000000000000e+02 1.500000000000000000e+02 2.500000000000000000e+02 2.000000000000000000e+02 2.500000000000000000e+02 3.000000000000000000e+02 3.500000000000000000e+02 4.000000000000000000e+02 4.500000000000000000e+02 4.500000000000000000e+02 5.000000000000000000e+02 5.500000000000000000e+02 6.000000000000000000e+02 9.000000000000000000e+02 6.500000000000000000e+02 7.000000000000000000e+02 1.250000000000000000e+03 7.500000000000000000e+02 8.000000000000000000e+02 8.500000000000000000e+02 2.945000000000000000e+04 6.000000000000000000e+02 5.500000000000000000e+02 5.000000000000000000e+02 4.500000000000000000e+02 4.000000000000000000e+02 3.500000000000000000e+02 3.000000000000000000e+02 2.500000000000000000e+02 2.000000000000000000e+02 1.500000000000000000e+02 5.000000000000000000e+01 1.000000000000000000e+02 5.000000000000000000e+01 1.000000000000000000e+02 1.500000000000000000e+02 2.000000000000000000e+02 2.500000000000000000e+02 1.050000000000000000e+03 3.000000000000000000e+02 3.500000000000000000e+02 4.000000000000000000e+02 1.010000000000000000e+04 1.350000000000000000e+03 1.350000000000000000e+03 1.350000000000000000e+03 1.350000000000000000e+03 5.000000000000000000e+01 1.000000000000000000e+02 3.900000000000000000e+03 5.000000000000000000e+01 1.000000000000000000e+02 1.500000000000000000e+02 2.315000000000000000e+04 1.050000000000000000e+03 1.000000000000000000e+03 9.500000000000000000e+02 9.000000000000000000e+02 8.500000000000000000e+02 8.000000000000000000e+02 7.500000000000000000e+02 7.000000000000000000e+02 6.500000000000000000e+02 6.000000000000000000e+02 5.500000000000000000e+02 5.000000000000000000e+02 1.200000000000000000e+03 4.500000000000000000e+02 4.000000000000000000e+02 3.500000000000000000e+02 3.000000000000000000e+02 2.500000000000000000e+02 2.000000000000000000e+02
1.000000000000000000e+02 5.000000000000000000e+01 1.500000000000000000e+02 3.000000000000000000e+02 4.500000000000000000e+02 5.500000000000000000e+02 7.000000000000000000e+02 8.500000000000000000e+02 1.000000000000000000e+03 1.150000000000000000e+03 1.500000000000000000e+02 5.000000000000000000e+01 3.750000000000000000e+03 1.400000000000000000e+03 1.350000000000000000e+03 1.400000000000000000e+03 1.400000000000000000e+03 5.300000000000000000e+03 1.400000000000000000e+03 1.500000000000000000e+02 1.000000000000000000e+02 5.000000000000000000e+01 1.400000000000000000e+03 1.400000000000000000e+03 1.400000000000000000e+03 5.000000000000000000e+01 2.860000000000000000e+04 1.750000000000000000e+03 8.500000000000000000e+02 8.000000000000000000e+02 7.500000000000000000e+02 7.000000000000000000e+02 6.500000000000000000e+02 6.000000000000000000e+02 5.500000000000000000e+02 5.000000000000000000e+02 4.500000000000000000e+02 4.000000000000000000e+02 3.500000000000000000e+02 3.000000000000000000e+02 2.500000000000000000e+02 2.000000000000000000e+02 1.500000000000000000e+02 5.000000000000000000e+01 1.000000000000000000e+02 5.000000000000000000e+01 1.000000000000000000e+02 1.500000000000000000e+02 2.000000000000000000e+02 3.000000000000000000e+02 2.500000000000000000e+02 3.000000000000000000e+02 3.500000000000000000e+02 4.000000000000000000e+02 4.500000000000000000e+02 5.000000000000000000e+02 5.000000000000000000e+02 5.500000000000000000e+02 6.000000000000000000e+02 6.500000000000000000e+02 9.500000000000000000e+02 7.000000000000000000e+02 7.500000000000000000e+02 1.300000000000000000e+03 8.000000000000000000e+02 8.500000000000000000e+02 3.095000000000000000e+04 6.000000000000000000e+02 5.500000000000000000e+02 5.000000000000000000e+02 4.500000000000000000e+02 4.000000000000000000e+02 3.500000000000000000e+02 3.000000000000000000e+02 2.500000000000000000e+02 2.000000000000000000e+02 1.000000000000000000e+02 5.000000000000000000e+01 1.500000000000000000e+02 5.000000000000000000e+01 1.000000000000000000e+02 1.500000000000000000e+02 2.000000000000000000e+02 2.500000000000000000e+02 3.000000000000000000e+02 1.100000000000000000e+03 3.500000000000000000e+02 4.000000000000000000e+02 1.055000000000000000e+04 1.400000000000000000e+03 1.400000000000000000e+03 1.400000000000000000e+03 1.400000000000000000e+03 5.000000000000000000e+01 1.000000000000000000e+02 4.050000000000000000e+03 5.000000000000000000e+01 1.000000000000000000e+02 2.345000000000000000e+04 5.000000000000000000e+01 1.050000000000000000e+03 1.000000000000000000e+03 9.500000000000000000e+02 9.000000000000000000e+02 8.500000000000000000e+02 8.000000000000000000e+02 7.500000000000000000e+02 7.000000000000000000e+02 6.500000000000000000e+02 6.000000000000000000e+02 5.500000000000000000e+02 1.250000000000000000e+03 5.000000000000000000e+02 4.500000000000000000e+02 4.000000000000000000e+02 3.500000000000000000e+02 3.000000000000000000e+02 2.500000000000000000e+02 2.000000000000000000e+02
5.000000000000000000e+01 1.000000000000000000e+02 2.000000000000000000e+02 3.500000000000000000e+02 5.000000000000000000e+02 6.000000000000000000e+02 7.500000000000000000e+02 9.000000000000000000e+02 1.050000000000000000e+03 1.200000000000000000e+03 2.000000000000000000e+02 5.000000000000000000e+01 3.850000000000000000e+03 1.450000000000000000e+03 1.400000000000000000e+03 1.450000000000000000e+03 1.450000000000000000e+03 6.750000000000000000e+03 2.000000000000000000e+02 1.500000000000000000e+02 1.000000000000000000e+02 5.000000000000000000e+01 1.450000000000000000e+03 1.450000000000000000e+03 1.450000000000000000e+03 1.000000000000000000e+02 3.125000000000000000e+04 8.500000000000000000e+02 8.000000000000000000e+02 7.500000000000000000e+02 7.000000000000000000e+02 6.500000000000000000e+02 6.000000000000000000e+02 5.500000000000000000e+02 5.000000000000000000e+02 4.500000000000000000e+02 4.000000000000000000e+02 3.500000000000000000e+02 3.000000000000000000e+02 2.500000000000000000e+02 2.000000000000000000e+02 1.500000000000000000e+02 1.000000000000000000e+02 5.000000000000000000e+01 5.000000000000000000e+01 1.500000000000000000e+02 1.000000000000000000e+02 1.500000000000000000e+02 2.000000000000000000e+02 2.500000000000000000e+02 3.500000000000000000e+02 3.000000000000000000e+02 3.500000000000000000e+02 4.000000000000000000e+02 4.500000000000000000e+02 5.000000000000000000e+02 5.500000000000000000e+02 5.500000000000000000e+02 6.000000000000000000e+02 6.500000000000000000e+02 7.000000000000000000e+02 1.000000000000000000e+03 7.500000000000000000e+02 8.000000000000000000e+02 1.350000000000000000e+03 8.500000000000000000e+02 3.245000000000000000e+04 6.000000000000000000e+02 5.500000000000000000e+02 5.000000000000000000e+02 4.500000000000000000e+02 4.000000000000000000e+02 3.500000000000000000e+02 3.000000000000000000e+02 2.500000000000000000e+02 1.500000000000000000e+02 1.000000000000000000e+02 5.000000000000000000e+01 2.000000000000000000e+02 5.000000000000000000e+01 1.000000000000000000e+02 1.500000000000000000e+02 2.000000000000000000e+02 2.500000000000000000e+02 3.000000000000000000e+02 3.500000000000000000e+02 1.150000000000000000e+03 4.000000000000000000e+02 1.100000000000000000e+04 1.450000000000000000e+03 1.450000000000000000e+03 1.450000000000000000e+03 1.450000000000000000e+03 5.000000000000000000e+01 1.000000000000000000e+02 4.200000000000000000e+03 5.000000000000000000e+01 1.000000000000000000e+02 2.365000000000000000e+04 1.100000000000000000e+03 1.050000000000000000e+03 1.000000000000000000e+03 9.500000000000000000e+02 9.000000000000000000e+02 8.500000000000000000e+02 8.000000000000000000e+02 7.500000000000000000e+02 7.000000000000000000e+02 6.500000000000000000e+02 6.000000000000000000e+02 1.300000000000000000e+03 5.500000000000000000e+02 5.000000000000000000e+02 4.500000000000000000e+02 4.000000000000000000e+02 3.500000000000000000e+02 3.000000000000000000e+02 2.500000000000000000e+02 3.000000000000000000e+02
5.000000000000000000e+01 1.500000000000000000e+02 2.500000000000000000e+02 4.000000000000000000e+02 5.500000000000000000e+02 6.500000000000000000e+02 8.000000000000000000e+02 9.500000000000000000e+02 1.100000000000000000e+03 1.250000000000000000e+03 2.500000000000000000e+02 5.000000000000000000e+01 3.950000000000000000e+03 1.500000000000000000e+03 1.450000000000000000e+03 1.500000000000000000e+03 1.500000000000000000e+03 7.000000000000000000e+03 2.000000000000000000e+02 1.500000000000000000e+02 5.000000000000000000e+01 1.000000000000000000e+02 1.500000000000000000e+03 1.500000000000000000e+03 1.500000000000000000e+03 1.500000000000000000e+02 3.215000000000000000e+04 8.500000000000000000e+02 8.000000000000000000e+02 7.500000000000000000e+02 7.000000000000000000e+02 6.500000000000000000e+02 6.000000000000000000e+02 5.500000000000000000e+02 5.000000000000000000e+02 4.500000000000000000e+02 4.000000000000000000e+02 3.500000000000000000e+02 3.000000000000000000e+02 2.500000000000000000e+02 2.000000000000000000e+02 1.500000000000000000e+02 1.000000000000000000e+02 5.000000000000000000e+01 5.000000000000000000e+01 1.000000000000000000e+02 2.000000000000000000e+02 1.500000000000000000e+02 2.000000000000000000e+02 2.500000000000000000e+02 3.000000000000000000e+02 4.000000000000000000e+02 3.500000000000000000e+02 4.000000000000000000e+02 4.500000000000000000e+02 5.000000000000000000e+02 5.500000000000000000e+02 6.000000000000000000e+02 6.000000000000000000e+02 6.500000000000000000e+02 7.000000000000000000e+02 7.500000000000000000e+02 1.050000000000000000e+03 8.000000000000000000e+02 8.500000000000000000e+02 1.400000000000000000e+03 3.395000000000000000e+04 6.000000000000000000e+02 5.500000000000000000e+02 5.000000000000000000e+02 4.500000000000000000e+02 4.000000000000000000e+02 3.500000000000000000e+02 3.000000000000000000e+02 2.000000000000000000e+02 1.500000000000000000e+02 1.000000000000000000e+02 5.000000000000000000e+01 2.500000000000000000e+02 5.000000000000000000e+01 1.000000000000000000e+02 1.500000000000000000e+02 2.000000000000000000e+02 2.500000000000000000e+02 3.000000000000000000e+02 3.500000000000000000e+02 4.000000000000000000e+02 1.200000000000000000e+03 1.145000000000000000e+04 1.500000000000000000e+03 1.500000000000000000e+03 1.500000000000000000e+03 1.500000000000000000e+03 5.000000000000000000e+01 1.000000000000000000e+02 4.350000000000000000e+03 5.000000000000000000e+01 1.000000000000000000e+02 2.490000000000000000e+04 1.100000000000000000e+03 1.050000000000000000e+03 1.000000000000000000e+03 9.500000000000000000e+02 9.000000000000000000e+02 8.500000000000000000e+02 8.000000000000000000e+02 7.500000000000000000e+02 7.000000000000000000e+02 6.500000000000000000e+02 1.350000000000000000e+03 6.000000000000000000e+02 5.500000000000000000e+02 5.000000000000000000e+02 4.500000000000000000e+02 2.100000000000000000e+03 1.700000000000000000e+03 1.350000000000000000e+03 1.050000000000000000e+03 7.000000000000000000e+02
5.000000000000000000e+01 2.000000000000000000e+02 3.000000000000000000e+02 4.500000000000000000e+02 6.000000000000000000e+02 7.000000000000000000e+02 8.500000000000000000e+02 1.000000000000000000e+03 1.150000000000000000e+03 1.300000000000000000e+03 3.000000000000000000e+02 1.000000000000000000e+02 4.000000000000000000e+03 1.550000000000000000e+03 1.500000000000000000e+03 3.050000000000000000e+03 5.000000000000000000e+01 7.250000000000000000e+03 2.000000000000000000e+02 1.000000000000000000e+02 5.000000000000000000e+01 1.500000000000000000e+02 1.550000000000000000e+03 1.550000000000000000e+03 1.550000000000000000e+03 3.315000000000000000e+04 8.000000000000000000e+02 7.500000000000000000e+02 7.000000000000000000e+02 6.500000000000000000e+02 6.000000000000000000e+02 5.500000000000000000e+02 5.000000000000000000e+02 4.500000000000000000e+02 4.000000000000000000e+02 3.500000000000000000e+02 3.000000000000000000e+02 2.500000000000000000e+02 2.000000000000000000e+02 1.500000000000000000e+02 1.000000000000000000e+02 5.000000000000000000e+01 1.000000000000000000e+02 5.000000000000000000e+01 5.000000000000000000e+01 1.000000000000000000e+02 1.500000000000000000e+02 2.500000000000000000e+02 2.000000000000000000e+02 2.500000000000000000e+02 3.000000000000000000e+02 3.500000000000000000e+02 4.500000000000000000e+02 4.000000000000000000e+02 4.500000000000000000e+02 5.000000000000000000e+02 5.500000000000000000e+02 6.000000000000000000e+02 6.500000000000000000e+02 6.500000000000000000e+02 7.000000000000000000e+02 7.500000000000000000e+02 8.000000000000000000e+02 1.100000000000000000e+03 8.500000000000000000e+02 9.000000000000000000e+02 3.600000000000000000e+04 6.000000000000000000e+02 5.500000000000000000e+02 5.000000000000000000e+02 4.500000000000000000e+02 4.000000000000000000e+02 3.500000000000000000e+02 2.500000000000000000e+02 2.000000000000000000e+02 1.500000000000000000e+02 1.000000000000000000e+02 5.000000000000000000e+01 3.000000000000000000e+02 5.000000000000000000e+01 1.000000000000000000e+02 1.500000000000000000e+02 2.000000000000000000e+02 2.500000000000000000e+02 3.000000000000000000e+02 3.500000000000000000e+02 4.000000000000000000e+02 4.500000000000000000e+02 1.270000000000000000e+04 1.550000000000000000e+03 1.550000000000000000e+03 1.550000000000000000e+03 1.550000000000000000e+03 5.000000000000000000e+01 1.000000000000000000e+02 4.500000000000000000e+03 5.000000000000000000e+01 1.000000000000000000e+02 2.615000000000000000e+04 1.100000000000000000e+03 1.050000000000000000e+03 1.000000000000000000e+03 9.500000000000000000e+02 9.000000000000000000e+02 8.500000000000000000e+02 8.000000000000000000e+02 7.500000000000000000e+02 7.000000000000000000e+02 1.400000000000000000e+03 6.500000000000000000e+02 6.000000000000000000e+02 5.500000000000000000e+02 3.150000000000000000e+03 2.650000000000000000e+03 5.000000000000000000e+02 4.500000000000000000e+02 4.000000000000000000e+02 3.500000000000000000e+02 3.000000000000000000e+02
1.000000000000000000e+02 2.500000000000000000e+02 3.500000000000000000e+02 5.000000000000000000e+02 6.500000000000000000e+02 7.500000000000000000e+02 9.000000000000000000e+02 1.050000000000000000e+03 1.200000000000000000e+03 1.350000000000000000e+03 3.500000000000000000e+02 1.500000000000000000e+02 5.600000000000000000e+03 5.000000000000000000e+01 1.550000000000000000e+03 3.150000000000000000e+03 5.000000000000000000e+01 7.500000000000000000e+03 1.500000000000000000e+02 1.000000000000000000e+02 5.000000000000000000e+01 1.750000000000000000e+03 5.000000000000000000e+01 1.600000000000000000e+03 3.570000000000000000e+04 9.500000000000000000e+02 9.000000000000000000e+02 8.500000000000000000e+02 8.000000000000000000e+02 7.500000000000000000e+02 7.000000000000000000e+02 6.500000000000000000e+02 6.000000000000000000e+02 5.500000000000000000e+02 5.000000000000000000e+02 4.500000000000000000e+02 4.000000000000000000e+02 3.500000000000000000e+02 3.000000000000000000e+02 2.500000000000000000e+02 2.000000000000000000e+02 1.500000000000000000e+02 5.000000000000000000e+01 5.000000000000000000e+01 1.000000000000000000e+02 1.000000000000000000e+02 1.500000000000000000e+02 2.000000000000000000e+02 3.000000000000000000e+02 2.500000000000000000e+02 3.000000000000000000e+02 3.500000000000000000e+02 4.000000000000000000e+02 5.000000000000000000e+02 4.500000000000000000e+02 5.000000000000000000e+02 5.500000000000000000e+02 6.000000000000000000e+02 6.500000000000000000e+02 7.000000000000000000e+02 7.000000000000000000e+02 7.500000000000000000e+02 8.000000000000000000e+02 8.500000000000000000e+02 1.150000000000000000e+03 9.000000000000000000e+02 3.755000000000000000e+04 6.000000000000000000e+02 5.500000000000000000e+02 5.000000000000000000e+02 4.500000000000000000e+02 4.000000000000000000e+02 3.000000000000000000e+02 2.500000000000000000e+02 2.000000000000000000e+02 1.500000000000000000e+02 1.000000000000000000e+02 5.000000000000000000e+01 3.500000000000000000e+02 5.000000000000000000e+01 1.000000000000000000e+02 1.500000000000000000e+02 2.000000000000000000e+02 2.500000000000000000e+02 3.000000000000000000e+02 3.500000000000000000e+02 4.000000000000000000e+02 4.500000000000000000e+02 1.320000000000000000e+04 1.600000000000000000e+03 1.600000000000000000e+03 5.000000000000000000e+01 3.150000000000000000e+03 5.000000000000000000e+01 1.000000000000000000e+02 4.650000000000000000e+03 5.000000000000000000e+01 1.000000000000000000e+02 2.740000000000000000e+04 1.100000000000000000e+03 1.050000000000000000e+03 1.000000000000000000e+03 9.500000000000000000e+02 9.000000000000000000e+02 8.500000000000000000e+02 8.000000000000000000e+02 7.500000000000000000e+02 1.450000000000000000e+03 7.000000000000000000e+02 6.500000000000000000e+02 4.350000000000000000e+03 3.750000000000000000e+03 5.500000000000000000e+02 5.000000000000000000e+02 4.500000000000000000e+02 4.000000000000000000e+02 3.500000000000000000e+02 3.000000000000000000e+02 2.500000000000000000e+02
1.500000000000000000e+02 3.000000000000000000e+02 4.000000000000000000e+02 5.500000000000000000e+02 7.000000000000000000e+02 8.000000000000000000e+02 9.500000000000000000e+02 1.100000000000000000e+03 1.250000000000000000e+03 1.400000000000000000e+03 5.000000000000000000e+01 6.150000000000000000e+03 5.000000000000000000e+01 1.000000000000000000e+02 1.600000000000000000e+03 3.250000000000000000e+03 5.000000000000000000e+01 7.700000000000000000e+03 1.500000000000000000e+02 5.000000000000000000e+01 1.850000000000000000e+03 1.000000000000000000e+02 5.000000000000000000e+01 4.315000000000000000e+04 5.200000000000000000e+03 4.800000000000000000e+03 4.400000000000000000e+03 3.800000000000000000e+03 3.450000000000000000e+03 3.100000000000000000e+03 2.600000000000000000e+03 6.000000000000000000e+02 5.500000000000000000e+02 5.000000000000000000e+02 4.500000000000000000e+02 4.000000000000000000e+02 3.500000000000000000e+02 3.000000000000000000e+02 2.500000000000000000e+02 2.000000000000000000e+02 1.500000000000000000e+02 1.000000000000000000e+02 5.000000000000000000e+01 5.000000000000000000e+01 1.000000000000000000e+02 1.500000000000000000e+02 1.500000000000000000e+02 2.000000000000000000e+02 2.500000000000000000e+02 3.500000000000000000e+02 3.000000000000000000e+02 3.500000000000000000e+02 4.000000000000000000e+02 4.500000000000000000e+02 5.500000000000000000e+02 5.000000000000000000e+02 5.500000000000000000e+02 6.000000000000000000e+02 6.500000000000000000e+02 7.000000000000000000e+02 7.500000000000000000e+02 7.500000000000000000e+02 8.000000000000000000e+02 8.500000000000000000e+02 9.000000000000000000e+02 1.200000000000000000e+03 3.910000000000000000e+04 6.000000000000000000e+02 1.050000000000000000e+03 5.000000000000000000e+02 1.550000000000000000e+03 1.100000000000000000e+03 7.500000000000000000e+02 4.500000000000000000e+02 2.000000000000000000e+02 1.500000000000000000e+02 1.000000000000000000e+02 5.000000000000000000e+01 5.000000000000000000e+01 4.000000000000000000e+02 1.000000000000000000e+02 1.500000000000000000e+02 2.000000000000000000e+02 2.500000000000000000e+02 3.000000000000000000e+02 3.500000000000000000e+02 4.000000000000000000e+02 4.500000000000000000e+02 1.370000000000000000e+04 1.650000000000000000e+03 1.650000000000000000e+03 5.000000000000000000e+01 3.250000000000000000e+03 5.000000000000000000e+01 1.000000000000000000e+02 4.800000000000000000e+03 5.000000000000000000e+01 1.000000000000000000e+02 3.080000000000000000e+04 2.150000000000000000e+03 1.050000000000000000e+03 1.000000000000000000e+03 9.500000000000000000e+02 9.000000000000000000e+02 8.500000000000000000e+02 8.000000000000000000e+02 1.500000000000000000e+03 7.500000000000000000e+02 5.750000000000000000e+03 5.050000000000000000e+03 6.500000000000000000e+02 6.000000000000000000e+02 5.500000000000000000e+02 5.000000000000000000e+02 4.500000000000000000e+02 4.000000000000000000e+02 3.500000000000000000e+02 3.000000000000000000e+02 2.500000000000000000e+02
2.000000000000000000e+02 3.500000000000000000e+02 4.500000000000000000e+02 6.000000000000000000e+02 7.500000000000000000e+02 8.500000000000000000e+02 1.000000000000000000e+03 1.150000000000000000e+03 1.300000000000000000e+03 1.450000000000000000e+03 5.000000000000000000e+01 6.300000000000000000e+03 5.000000000000000000e+01 1.500000000000000000e+02 1.650000000000000000e+03 3.350000000000000000e+03 5.000000000000000000e+01 7.750000000000000000e+03 4.830000000000000000e+04 4.760000000000000000e+04 4.520000000000000000e+04 4.465000000000000000e+04 4.415000000000000000e+04 4.000000000000000000e+02 6.000000000000000000e+02 3.500000000000000000e+02 3.500000000000000000e+02 5.500000000000000000e+02 3.000000000000000000e+02 3.000000000000000000e+02 4.500000000000000000e+02 1.950000000000000000e+03 5.000000000000000000e+02 4.500000000000000000e+02 4.000000000000000000e+02 3.500000000000000000e+02 3.000000000000000000e+02 2.500000000000000000e+02 2.000000000000000000e+02 1.500000000000000000e+02 1.000000000000000000e+02 5.000000000000000000e+01 5.000000000000000000e+01 1.000000000000000000e+02 1.000000000000000000e+02 1.500000000000000000e+02 2.000000000000000000e+02 2.000000000000000000e+02 2.500000000000000000e+02 3.000000000000000000e+02 4.000000000000000000e+02 3.500000000000000000e+02 4.000000000000000000e+02 4.500000000000000000e+02 5.000000000000000000e+02 6.000000000000000000e+02 5.500000000000000000e+02 6.000000000000000000e+02 6.500000000000000000e+02 7.000000000000000000e+02 7.500000000000000000e+02 8.000000000000000000e+02 8.000000000000000000e+02 8.500000000000000000e+02 9.000000000000000000e+02 9.500000000000000000e+02 4.095000000000000000e+04 1.150000000000000000e+03 5.000000000000000000e+01 1.800000000000000000e+03 2.000000000000000000e+02 1.500000000000000000e+02 1.000000000000000000e+02 5.000000000000000000e+01 2.000000000000000000e+02 1.500000000000000000e+02 1.000000000000000000e+02 5.000000000000000000e+01 5.000000000000000000e+01 1.000000000000000000e+02 4.500000000000000000e+02 1.500000000000000000e+02 2.000000000000000000e+02 2.500000000000000000e+02 3.000000000000000000e+02 3.500000000000000000e+02 4.000000000000000000e+02 4.500000000000000000e+02 1.585000000000000000e+04 5.000000000000000000e+01 1.700000000000000000e+03 5.000000000000000000e+01 1.000000000000000000e+02 3.300000000000000000e+03 1.000000000000000000e+02 4.950000000000000000e+03 5.000000000000000000e+01 3.100000000000000000e+04 5.000000000000000000e+01 5.000000000000000000e+01 1.050000000000000000e+03 1.000000000000000000e+03 9.500000000000000000e+02 9.000000000000000000e+02 8.500000000000000000e+02 1.040000000000000000e+04 8.850000000000000000e+03 7.950000000000000000e+03 7.500000000000000000e+02 7.000000000000000000e+02 6.500000000000000000e+02 6.000000000000000000e+02 5.500000000000000000e+02 5.000000000000000000e+02 4.500000000000000000e+02 4.000000000000000000e+02 3.500000000000000000e+02 3.000000000000000000e+02 2.500000000000000000e+02
2.500000000000000000e+02 4.000000000000000000e+02 5.000000000000000000e+02 6.500000000000000000e+02 8.000000000000000000e+02 9.000000000000000000e+02 1.050000000000000000e+03 1.200000000000000000e+03 1.350000000000000000e+03 1.500000000000000000e+03 1.000000000000000000e+02 6.400000000000000000e+03 5.000000000000000000e+01 2.000000000000000000e+02 6.370000000000000000e+04 5.865000000000000000e+04 5.805000000000000000e+04 4.975000000000000000e+04 4.500000000000000000e+02 4.500000000000000000e+02 5.000000000000000000e+02 4.000000000000000000e+02 4.000000000000000000e+02 5.500000000000000000e+02 3.500000000000000000e+02 5.500000000000000000e+02 3.000000000000000000e+02 3.000000000000000000e+02 5.000000000000000000e+02 2.500000000000000000e+02 2.500000000000000000e+02 4.000000000000000000e+02 1.400000000000000000e+03 1.200000000000000000e+03 8.500000000000000000e+02 3.000000000000000000e+02 2.500000000000000000e+02 2.000000000000000000e+02 1.500000000000000000e+02 1.000000000000000000e+02 5.000000000000000000e+01 5.000000000000000000e+01 5.000000000000000000e+01 1.000000000000000000e+02 1.500000000000000000e+02 1.500000000000000000e+02 2.000000000000000000e+02 2.500000000000000000e+02 2.500000000000000000e+02 3.000000000000000000e+02 3.500000000000000000e+02 4.500000000000000000e+02 4.000000000000000000e+02 4.500000000000000000e+02 5.000000000000000000e+02 5.500000000000000000e+02 6.500000000000000000e+02 6.000000000000000000e+02 6.500000000000000000e+02 7.000000000000000000e+02 7.500000000000000000e+02 8.000000000000000000e+02 8.500000000000000000e+02 8.500000000000000000e+02 9.000000000000000000e+02 9.500000000000000000e+02 4.315000000000000000e+04 5.000000000000000000e+01 2.050000000000000000e+03 2.000000000000000000e+02 1.500000000000000000e+02 1.000000000000000000e+02 5.000000000000000000e+01 2.500000000000000000e+02 2.000000000000000000e+02 1.500000000000000000e+02 1.000000000000000000e+02 5.000000000000000000e+01 5.000000000000000000e+01 1.000000000000000000e+02 1.500000000000000000e+02 5.000000000000000000e+02 2.000000000000000000e+02 2.500000000000000000e+02 3.000000000000000000e+02 3.500000000000000000e+02 4.000000000000000000e+02 4.500000000000000000e+02 1.640000000000000000e+04 5.000000000000000000e+01 1.750000000000000000e+03 5.000000000000000000e+01 1.000000000000000000e+02 1.500000000000000000e+02 3.350000000000000000e+03 5.100000000000000000e+03 5.000000000000000000e+01 3.115000000000000000e+04 1.000000000000000000e+02 1.100000000000000000e+03 1.050000000000000000e+03 1.000000000000000000e+03 1.340000000000000000e+04 1.245000000000000000e+04 1.145000000000000000e+04 1.500000000000000000e+02 1.000000000000000000e+02 1.000000000000000000e+02 1.400000000000000000e+03 1.300000000000000000e+03 6.000000000000000000e+02 5.500000000000000000e+02 5.000000000000000000e+02 4.500000000000000000e+02 4.000000000000000000e+02 3.500000000000000000e+02 3.000000000000000000e+02 2.500000000000000000e+02 2.000000000000000000e+02
3.000000000000000000e+02 4.500000000000000000e+02 5.500000000000000000e+02 7.000000000000000000e+02 8.500000000000000000e+02 9.500000000000000000e+02 1.100000000000000000e+03 1.250000000000000000e+03 1.400000000000000000e+03 1.550000000000000000e+03 1.500000000000000000e+02 7.250000000000000000e+04 6.605000000000000000e+04 6.525000000000000000e+04 5.000000000000000000e+02 5.000000000000000000e+02 5.000000000000000000e+02 4.500000000000000000e+02 5.000000000000000000e+02 4.000000000000000000e+02 4.000000000000000000e+02 4.500000000000000000e+02 3.500000000000000000e+02 3.500000000000000000e+02 5.000000000000000000e+02 3.000000000000000000e+02 5.000000000000000000e+02 2.500000000000000000e+02 2.500000000000000000e+02 4.500000000000000000e+02 2.000000000000000000e+02 2.000000000000000000e+02 3.500000000000000000e+02 1.500000000000000000e+02 3.000000000000000000e+02 5.000000000000000000e+02 2.500000000000000000e+02 2.000000000000000000e+02 1.500000000000000000e+02 1.000000000000000000e+02 5.000000000000000000e+01 5.000000000000000000e+01 1.000000000000000000e+02 1.000000000000000000e+02 1.500000000000000000e+02 2.000000000000000000e+02 2.000000000000000000e+02 2.500000000000000000e+02 3.000000000000000000e+02 3.000000000000000000e+02 3.500000000000000000e+02 4.000000000000000000e+02 5.000000000000000000e+02 4.500000000000000000e+02 9.500000000000000000e+02 1.500000000000000000e+03 2.100000000000000000e+03 2.800000000000000000e+03 3.450000000000000000e+03 4.150000000000000000e+03 4.900000000000000000e+03 5.700000000000000000e+03 6.550000000000000000e+03 7.450000000000000000e+03 8.350000000000000000e+03 9.500000000000000000e+02 4.415000000000000000e+04 2.300000000000000000e+03 2.000000000000000000e+02 1.500000000000000000e+02 1.000000000000000000e+02 5.000000000000000000e+01 3.000000000000000000e+02 2.500000000000000000e+02 2.000000000000000000e+02 1.500000000000000000e+02 1.000000000000000000e+02 5.000000000000000000e+01 5.000000000000000000e+01 1.000000000000000000e+02 1.500000000000000000e+02 2.000000000000000000e+02 5.500000000000000000e+02 2.500000000000000000e+02 3.000000000000000000e+02 3.500000000000000000e+02 4.000000000000000000e+02 4.500000000000000000e+02 1.695000000000000000e+04 5.000000000000000000e+01 1.800000000000000000e+03 5.000000000000000000e+01 1.000000000000000000e+02 1.500000000000000000e+02 2.000000000000000000e+02 8.700000000000000000e+03 5.000000000000000000e+01 4.850000000000000000e+04 1.715000000000000000e+04 1.595000000000000000e+04 1.480000000000000000e+04 1.370000000000000000e+04 2.000000000000000000e+02 1.000000000000000000e+02 1.000000000000000000e+02 8.500000000000000000e+02 5.000000000000000000e+01 5.000000000000000000e+01 5.000000000000000000e+01 5.000000000000000000e+01 6.500000000000000000e+02 6.000000000000000000e+02 5.500000000000000000e+02 5.000000000000000000e+02 4.500000000000000000e+02 4.000000000000000000e+02 3.500000000000000000e+02 3.000000000000000000e+02 2.500000000000000000e+02
3.500000000000000000e+02 5.000000000000000000e+02 6.000000000000000000e+02 7.500000000000000000e+02 9.000000000000000000e+02 1.000000000000000000e+03 1.150000000000000000e+03 1.300000000000000000e+03 1.450000000000000000e+03 7.590000000000000000e+04 7.415000000000000000e+04 6.000000000000000000e+02 5.000000000000000000e+02 5.000000000000000000e+02 5.000000000000000000e+02 4.500000000000000000e+02 4.500000000000000000e+02 4.500000000000000000e+02 4.000000000000000000e+02 4.500000000000000000e+02 3.500000000000000000e+02 3.500000000000000000e+02 4.000000000000000000e+02 3.000000000000000000e+02 3.000000000000000000e+02 4.500000000000000000e+02 2.500000000000000000e+02 4.500000000000000000e+02 2.000000000000000000e+02 2.000000000000000000e+02 4.000000000000000000e+02 1.500000000000000000e+02 1.500000000000000000e+02 3.000000000000000000e+02 1.000000000000000000e+02 2.500000000000000000e+02 2.000000000000000000e+02 1.500000000000000000e+02 1.000000000000000000e+02 5.000000000000000000e+01 5.000000000000000000e+01 5.000000000000000000e+01 1.000000000000000000e+02 1.500000000000000000e+02 1.500000000000000000e+02 2.000000000000000000e+02 2.500000000000000000e+02 2.500000000000000000e+02 3.000000000000000000e+02 3.500000000000000000e+02 3.500000000000000000e+02 4.000000000000000000e+02 4.500000000000000000e+02 5.500000000000000000e+02 5.000000000000000000e+01 1.000000000000000000e+02 1.500000000000000000e+02 2.000000000000000000e+02 2.500000000000000000e+02 3.000000000000000000e+02 3.500000000000000000e+02 4.000000000000000000e+02 4.500000000000000000e+02 5.000000000000000000e+02 5.500000000000000000e+02 8.950000000000000000e+03 4.760000000000000000e+04 1.500000000000000000e+02 1.000000000000000000e+02 5.000000000000000000e+01 4.000000000000000000e+02 3.500000000000000000e+02 3.000000000000000000e+02 2.500000000000000000e+02 2.000000000000000000e+02 1.500000000000000000e+02 1.000000000000000000e+02 5.000000000000000000e+01 5.000000000000000000e+01 1.000000000000000000e+02 1.500000000000000000e+02 2.000000000000000000e+02 2.500000000000000000e+02 6.000000000000000000e+02 3.000000000000000000e+02 3.500000000000000000e+02 4.000000000000000000e+02 4.500000000000000000e+02 1.750000000000000000e+04 5.000000000000000000e+01 1.850000000000000000e+03 5.000000000000000000e+01 1.000000000000000000e+02 1.500000000000000000e+02 2.000000000000000000e+02 5.000000000000000000e+01 5.730000000000000000e+04 1.000000000000000000e+02 5.000000000000000000e+01 5.000000000000000000e+01 5.000000000000000000e+01 5.000000000000000000e+01 5.000000000000000000e+01 5.000000000000000000e+01 5.000000000000000000e+01 5.000000000000000000e+01 7.500000000000000000e+02 7.000000000000000000e+02 6.500000000000000000e+02 6.000000000000000000e+02 5.500000000000000000e+02 5.000000000000000000e+02 4.500000000000000000e+02 4.000000000000000000e+02 3.500000000000000000e+02 3.000000000000000000e+02 2.500000000000000000e+02 2.000000000000000000e+02 1.500000000000000000e+02
4.000000000000000000e+02 5.500000000000000000e+02 6.500000000000000000e+02 8.000000000000000000e+02 9.500000000000000000e+02 1.050000000000000000e+03 1.200000000000000000e+03 1.350000000000000000e+03 7.835000000000000000e+04 5.000000000000000000e+02 5.000000000000000000e+02 5.000000000000000000e+02 5.500000000000000000e+02 4.500000000000000000e+02 4.500000000000000000e+02 4.500000000000000000e+02 4.000000000000000000e+02 4.000000000000000000e+02 4.000000000000000000e+02 3.500000000000000000e+02 4.000000000000000000e+02 3.000000000000000000e+02 3.000000000000000000e+02 3.500000000000000000e+02 2.500000000000000000e+02 2.500000000000000000e+02 4.000000000000000000e+02 2.000000000000000000e+02 4.000000000000000000e+02 1.500000000000000000e+02 1.500000000000000000e+02 3.500000000000000000e+02 1.000000000000000000e+02 1.000000000000000000e+02 2.500000000000000000e+02 5.000000000000000000e+01 2.000000000000000000e+02 1.500000000000000000e+02 1.000000000000000000e+02 5.000000000000000000e+01 5.000000000000000000e+01 1.000000000000000000e+02 1.000000000000000000e+02 1.500000000000000000e+02 2.000000000000000000e+02 2.000000000000000000e+02 2.500000000000000000e+02 3.000000000000000000e+02 3.000000000000000000e+02 3.500000000000000000e+02 4.000000000000000000e+02 4.000000000000000000e+02 4.500000000000000000e+02 5.000000000000000000e+02 6.000000000000000000e+02 5.000000000000000000e+01 5.000000000000000000e+01 1.000000000000000000e+02 1.500000000000000000e+02 2.000000000000000000e+02 2.500000000000000000e+02 3.000000000000000000e+02 3.500000000000000000e+02 4.000000000000000000e+02 4.500000000000000000e+02 5.000000000000000000e+02 5.670000000000000000e+04 1.000000000000000000e+02 5.000000000000000000e+01 5.000000000000000000e+02 5.000000000000000000e+01 3.500000000000000000e+02 3.000000000000000000e+02 2.500000000000000000e+02 2.000000000000000000e+02 1.500000000000000000e+02 1.000000000000000000e+02 5.000000000000000000e+01 5.000000000000000000e+01 1.000000000000000000e+02 1.500000000000000000e+02 2.000000000000000000e+02 2.500000000000000000e+02 3.000000000000000000e+02 6.500000000000000000e+02 3.500000000000000000e+02 4.000000000000000000e+02 4.500000000000000000e+02 1.805000000000000000e+04 5.000000000000000000e+01 1.900000000000000000e+03 5.000000000000000000e+01 1.000000000000000000e+02 1.500000000000000000e+02 2.000000000000000000e+02 2.500000000000000000e+02 5.865000000000000000e+04 1.150000000000000000e+03 1.100000000000000000e+03 1.050000000000000000e+03 1.000000000000000000e+03 9.500000000000000000e+02 9.000000000000000000e+02 8.500000000000000000e+02 8.000000000000000000e+02 7.500000000000000000e+02 7.000000000000000000e+02 6.500000000000000000e+02 6.000000000000000000e+02 5.500000000000000000e+02 5.000000000000000000e+02 4.500000000000000000e+02 4.000000000000000000e+02 3.500000000000000000e+02 3.000000000000000000e+02 2.500000000000000000e+02 2.000000000000000000e+02 1.500000000000000000e+02 1.000000000000000000e+02
4.500000000000000000e+02 6.000000000000000000e+02 7.000000000000000000e+02 8.500000000000000000e+02 1.000000000000000000e+03 1.100000000000000000e+03 1.250000000000000000e+03 8.060000000000000000e+04 4.500000000000000000e+02 4.500000000000000000e+02 4.500000000000000000e+02 4.500000000000000000e+02 4.500000000000000000e+02 5.000000000000000000e+02 4.000000000000000000e+02 4.000000000000000000e+02 4.000000000000000000e+02 3.500000000000000000e+02 3.500000000000000000e+02 3.500000000000000000e+02 3.000000000000000000e+02 3.500000000000000000e+02 2.500000000000000000e+02 2.500000000000000000e+02 3.000000000000000000e+02 2.000000000000000000e+02 2.000000000000000000e+02 3.500000000000000000e+02 1.500000000000000000e+02 3.500000000000000000e+02 1.000000000000000000e+02 1.000000000000000000e+02 3.000000000000000000e+02 5.000000000000000000e+01 5.000000000000000000e+01 2.000000000000000000e+02 1.500000000000000000e+02 1.000000000000000000e+02 5.000000000000000000e+01 5.000000000000000000e+01 5.000000000000000000e+01 1.000000000000000000e+02 1.500000000000000000e+02 1.500000000000000000e+02 2.000000000000000000e+02 2.500000000000000000e+02 2.500000000000000000e+02 3.000000000000000000e+02 3.500000000000000000e+02 3.500000000000000000e+02 4.000000000000000000e+02 4.500000000000000000e+02 4.500000000000000000e+02 5.000000000000000000e+02 5.500000000000000000e+02 6.500000000000000000e+02 1.000000000000000000e+02 5.000000000000000000e+01 5.000000000000000000e+01 5.000000000000000000e+01 5.000000000000000000e+01 5.000000000000000000e+01 5.000000000000000000e+01 1.000000000000000000e+02 1.500000000000000000e+02 2.000000000000000000e+02 5.750000000000000000e+04 5.000000000000000000e+01 6.000000000000000000e+02 5.000000000000000000e+01 4.000000000000000000e+02 3.500000000000000000e+02 3.000000000000000000e+02 2.500000000000000000e+02 2.000000000000000000e+02 1.500000000000000000e+02 1.000000000000000000e+02 5.000000000000000000e+01 5.000000000000000000e+01 1.000000000000000000e+02 1.500000000000000000e+02 2.000000000000000000e+02 2.500000000000000000e+02 3.000000000000000000e+02 3.500000000000000000e+02 7.000000000000000000e+02 4.000000000000000000e+02 4.500000000000000000e+02 1.860000000000000000e+04 5.000000000000000000e+01 1.950000000000000000e+03 5.000000000000000000e+01 1.000000000000000000e+02 1.500000000000000000e+02 2.000000000000000000e+02 2.500000000000000000e+02 6.005000000000000000e+04 1.100000000000000000e+03 1.050000000000000000e+03 1.000000000000000000e+03 9.500000000000000000e+02 9.000000000000000000e+02 8.500000000000000000e+02 8.000000000000000000e+02 7.500000000000000000e+02 7.000000000000000000e+02 6.500000000000000000e+02 6.000000000000000000e+02 5.500000000000000000e+02 5.000000000000000000e+02 4.500000000000000000e+02 4.000000000000000000e+02 3.500000000000000000e+02 3.000000000000000000e+02 2.500000000000000000e+02 2.000000000000000000e+02 1.500000000000000000e+02 1.000000000000000000e+02 5.000000000000000000e+01
5.000000000000000000e+02 6.500000000000000000e+02 7.500000000000000000e+02 9.000000000000000000e+02 1.050000000000000000e+03 8.415000000000000000e+04 8.175000000000000000e+04 4.000000000000000000e+02 4.000000000000000000e+02 4.000000000000000000e+02 4.000000000000000000e+02 4.000000000000000000e+02 4.000000000000000000e+02 4.000000000000000000e+02 4.500000000000000000e+02 3.500000000000000000e+02 3.500000000000000000e+02 3.500000000000000000e+02 3.000000000000000000e+02 3.000000000000000000e+02 3.000000000000000000e+02 2.500000000000000000e+02 3.000000000000000000e+02 2.000000000000000000e+02 2.000000000000000000e+02 2.500000000000000000e+02 1.500000000000000000e+02 1.500000000000000000e+02 3.000000000000000000e+02 1.000000000000000000e+02 3.000000000000000000e+02 5.000000000000000000e+01 5.000000000000000000e+01 2.500000000000000000e+02 2.000000000000000000e+02 1.500000000000000000e+02 1.000000000000000000e+02 5.000000000000000000e+01 5.000000000000000000e+01 1.000000000000000000e+02 5.000000000000000000e+01 1.000000000000000000e+02 1.500000000000000000e+02 2.000000000000000000e+02 2.000000000000000000e+02 2.500000000000000000e+02 3.000000000000000000e+02 3.000000000000000000e+02 3.500000000000000000e+02 4.000000000000000000e+02 4.000000000000000000e+02 4.500000000000000000e+02 5.000000000000000000e+02 5.000000000000000000e+02 5.500000000000000000e+02 6.000000000000000000e+02 7.000000000000000000e+02 1.500000000000000000e+02 1.000000000000000000e+02 1.000000000000000000e+02 1.000000000000000000e+02 1.000000000000000000e+02 1.000000000000000000e+02 5.000000000000000000e+01 5.000000000000000000e+01 5.000000000000000000e+01 5.830000000000000000e+04 7.000000000000000000e+02 5.000000000000000000e+01 4.500000000000000000e+02 4.000000000000000000e+02 3.500000000000000000e+02 3.000000000000000000e+02 2.500000000000000000e+02 2.000000000000000000e+02 1.500000000000000000e+02 1.000000000000000000e+02 5.000000000000000000e+01 5.000000000000000000e+01 1.000000000000000000e+02 1.500000000000000000e+02 2.000000000000000000e+02 2.500000000000000000e+02 3.000000000000000000e+02 3.500000000000000000e+02 4.000000000000000000e+02 7.500000000000000000e+02 4.500000000000000000e+02 1.915000000000000000e+04 5.000000000000000000e+01 2.000000000000000000e+03 5.000000000000000000e+01 1.000000000000000000e+02 1.500000000000000000e+02 2.000000000000000000e+02 6.055000000000000000e+04 1.100000000000000000e+03 1.050000000000000000e+03 1.000000000000000000e+03 9.500000000000000000e+02 9.000000000000000000e+02 8.500000000000000000e+02 8.000000000000000000e+02 7.500000000000000000e+02 7.000000000000000000e+02 6.500000000000000000e+02 6.000000000000000000e+02 5.500000000000000000e+02 5.000000000000000000e+02 4.500000000000000000e+02 4.000000000000000000e+02 3.500000000000000000e+02 3.000000000000000000e+02 2.500000000000000000e+02 2.000000000000000000e+02 1.500000000000000000e+02 1.000000000000000000e+02 5.000000000000000000e+01 3.000000000000000000e+02
5.500000000000000000e+02 5.000000000000000000e+01 8.870000000000000000e+04 8.725000000000000000e+04 8.500000000000000000e+04 3.000000000000000000e+02 3.500000000000000000e+02 3.500000000000000000e+02 3.500000000000000000e+02 3.500000000000000000e+02 3.500000000000000000e+02 3.500000000000000000e+02 3.500000000000000000e+02 3.500000000000000000e+02 3.500000000000000000e+02 4.000000000000000000e+02 3.000000000000000000e+02 3.000000000000000000e+02 3.000000000000000000e+02 2.500000000000000000e+02 2.500000000000000000e+02 2.500000000000000000e+02 2.000000000000000000e+02 2.500000000000000000e+02 1.500000000000000000e+02 1.500000000000000000e+02 2.000000000000000000e+02 1.000000000000000000e+02 1.000000000000000000e+02 2.500000000000000000e+02 5.000000000000000000e+01 2.500000000000000000e+02 2.000000000000000000e+02 1.500000000000000000e+02 1.000000000000000000e+02 5.000000000000000000e+01 5.000000000000000000e+01 1.000000000000000000e+02 5.000000000000000000e+01 5.000000000000000000e+01 1.500000000000000000e+02 1.000000000000000000e+02 1.500000000000000000e+02 2.000000000000000000e+02 2.500000000000000000e+02 2.500000000000000000e+02 3.000000000000000000e+02 3.500000000000000000e+02 3.500000000000000000e+02 4.000000000000000000e+02 4.500000000000000000e+02 4.500000000000000000e+02 5.000000000000000000e+02 5.500000000000000000e+02 5.500000000000000000e+02 6.000000000000000000e+02 6.500000000000000000e+02 7.500000000000000000e+02 2.000000000000000000e+02 1.500000000000000000e+02 1.500000000000000000e+02 1.500000000000000000e+02 1.500000000000000000e+02 1.500000000000000000e+02 1.000000000000000000e+02 1.000000000000000000e+02 5.890000000000000000e+04 5.500000000000000000e+02 5.000000000000000000e+02 4.500000000000000000e+02 4.000000000000000000e+02 3.500000000000000000e+02 3.000000000000000000e+02 2.500000000000000000e+02 2.000000000000000000e+02 1.500000000000000000e+02 1.000000000000000000e+02 5.000000000000000000e+01 5.000000000000000000e+01 1.000000000000000000e+02 1.500000000000000000e+02 2.000000000000000000e+02 2.500000000000000000e+02 3.000000000000000000e+02 3.500000000000000000e+02 4.000000000000000000e+02 4.500000000000000000e+02 8.000000000000000000e+02 1.970000000000000000e+04 5.000000000000000000e+01 2.050000000000000000e+03 5.000000000000000000e+01 1.000000000000000000e+02 1.500000000000000000e+02 2.000000000000000000e+02 6.290000000000000000e+04 1.000000000000000000e+03 9.500000000000000000e+02 9.000000000000000000e+02 8.500000000000000000e+02 8.000000000000000000e+02 7.500000000000000000e+02 7.000000000000000000e+02 6.500000000000000000e+02 6.000000000000000000e+02 5.500000000000000000e+02 5.000000000000000000e+02 4.500000000000000000e+02 4.000000000000000000e+02 3.500000000000000000e+02 3.000000000000000000e+02 2.500000000000000000e+02 2.000000000000000000e+02 1.500000000000000000e+02 1.000000000000000000e+02 5.000000000000000000e+01 5.000000000000000000e+01 3.500000000000000000e+02 3.000000000000000000e+02
9.050000000000000000e+04 8.945000000000000000e+04 2.500000000000000000e+02 2.500000000000000000e+02 2.500000000000000000e+02 2.500000000000000000e+02 2.500000000000000000e+02 3.000000000000000000e+02 3.000000000000000000e+02 3.000000000000000000e+02 3.000000000000000000e+02 3.000000000000000000e+02 3.000000000000000000e+02 3.000000000000000000e+02 3.000000000000000000e+02 3.000000000000000000e+02 3.500000000000000000e+02 2.500000000000000000e+02 2.500000000000000000e+02 2.500000000000000000e+02 2.000000000000000000e+02 2.000000000000000000e+02 2.000000000000000000e+02 1.500000000000000000e+02 2.000000000000000000e+02 1.000000000000000000e+02 1.000000000000000000e+02 1.500000000000000000e+02 5.000000000000000000e+01 5.000000000000000000e+01 2.000000000000000000e+02 1.500000000000000000e+02 1.000000000000000000e+02 5.000000000000000000e+01 5.000000000000000000e+01 1.000000000000000000e+02 1.500000000000000000e+02 1.000000000000000000e+02 5.000000000000000000e+01 5.000000000000000000e+01 1.000000000000000000e+02 2.000000000000000000e+02 1.500000000000000000e+02 2.000000000000000000e+02 2.500000000000000000e+02 3.000000000000000000e+02 3.000000000000000000e+02 3.500000000000000000e+02 4.000000000000000000e+02 4.000000000000000000e+02 4.500000000000000000e+02 5.000000000000000000e+02 5.000000000000000000e+02 5.500000000000000000e+02 6.000000000000000000e+02 6.000000000000000000e+02 6.500000000000000000e+02 7.000000000000000000e+02 8.000000000000000000e+02 2.500000000000000000e+02 2.000000000000000000e+02 4.000000000000000000e+02 6.000000000000000000e+02 8.000000000000000000e+02 1.000000000000000000e+03 1.150000000000000000e+03 5.910000000000000000e+04 5.000000000000000000e+01 5.000000000000000000e+02 1.950000000000000000e+03 1.500000000000000000e+03 1.100000000000000000e+03 7.500000000000000000e+02 4.500000000000000000e+02 2.000000000000000000e+02 1.500000000000000000e+02 1.000000000000000000e+02 5.000000000000000000e+01 5.000000000000000000e+01 1.000000000000000000e+02 1.500000000000000000e+02 2.000000000000000000e+02 2.500000000000000000e+02 3.000000000000000000e+02 3.500000000000000000e+02 4.000000000000000000e+02 4.500000000000000000e+02 5.000000000000000000e+02 2.060000000000000000e+04 5.000000000000000000e+01 2.100000000000000000e+03 5.000000000000000000e+01 1.000000000000000000e+02 1.500000000000000000e+02 2.000000000000000000e+02 6.410000000000000000e+04 9.500000000000000000e+02 9.000000000000000000e+02 8.500000000000000000e+02 8.000000000000000000e+02 7.500000000000000000e+02 7.000000000000000000e+02 6.500000000000000000e+02 6.000000000000000000e+02 5.500000000000000000e+02 5.000000000000000000e+02 4.500000000000000000e+02 4.000000000000000000e+02 3.500000000000000000e+02 3.000000000000000000e+02 2.500000000000000000e+02 2.000000000000000000e+02 1.500000000000000000e+02 1.000000000000000000e+02 5.000000000000000000e+01 1.000000000000000000e+02 4.000000000000000000e+02 3.500000000000000000e+02 3.000000000000000000e+02
1.500000000000000000e+02 2.000000000000000000e+02 2.000000000000000000e+02 2.000000000000000000e+02 2.000000000000000000e+02 2.000000000000000000e+02 2.000000000000000000e+02 2.000000000000000000e+02 2.500000000000000000e+02 2.500000000000000000e+02 2.500000000000000000e+02 2.500000000000000000e+02 2.500000000000000000e+02 2.500000000000000000e+02 2.500000000000000000e+02 2.500000000000000000e+02 2.500000000000000000e+02 3.000000000000000000e+02 2.000000000000000000e+02 2.000000000000000000e+02 2.000000000000000000e+02 1.500000000000000000e+02 1.500000000000000000e+02 1.500000000000000000e+02 1.000000000000000000e+02 1.500000000000000000e+02 5.000000000000000000e+01 5.000000000000000000e+01 1.000000000000000000e+02 5.000000000000000000e+01 5.000000000000000000e+01 5.000000000000000000e+01 5.000000000000000000e+01 1.000000000000000000e+02 1.500000000000000000e+02 2.000000000000000000e+02 1.500000000000000000e+02 5.000000000000000000e+01 1.000000000000000000e+02 5.000000000000000000e+01 1.000000000000000000e+02 1.500000000000000000e+02 2.500000000000000000e+02 2.000000000000000000e+02 2.500000000000000000e+02 3.000000000000000000e+02 3.500000000000000000e+02 3.500000000000000000e+02 4.000000000000000000e+02 4.500000000000000000e+02 4.500000000000000000e+02 5.000000000000000000e+02 5.500000000000000000e+02 5.500000000000000000e+02 6.000000000000000000e+02 6.500000000000000000e+02 6.500000000000000000e+02 7.000000000000000000e+02 7.500000000000000000e+02 8.500000000000000000e+02 3.000000000000000000e+02 5.000000000000000000e+01 1.000000000000000000e+02 1.500000000000000000e+02 2.000000000000000000e+02 2.500000000000000000e+02 6.110000000000000000e+04 5.500000000000000000e+02 2.250000000000000000e+03 2.500000000000000000e+02 2.000000000000000000e+02 1.500000000000000000e+02 1.000000000000000000e+02 5.000000000000000000e+01 2.000000000000000000e+02 1.500000000000000000e+02 1.000000000000000000e+02 5.000000000000000000e+01 5.000000000000000000e+01 1.000000000000000000e+02 1.500000000000000000e+02 3.500000000000000000e+02 6.000000000000000000e+02 9.000000000000000000e+02 1.250000000000000000e+03 1.650000000000000000e+03 2.100000000000000000e+03 5.000000000000000000e+02 2.120000000000000000e+04 5.000000000000000000e+01 2.150000000000000000e+03 5.000000000000000000e+01 1.000000000000000000e+02 1.500000000000000000e+02 6.450000000000000000e+04 9.500000000000000000e+02 9.000000000000000000e+02 8.500000000000000000e+02 8.000000000000000000e+02 7.500000000000000000e+02 7.000000000000000000e+02 6.500000000000000000e+02 6.000000000000000000e+02 5.500000000000000000e+02 5.000000000000000000e+02 4.500000000000000000e+02 4.000000000000000000e+02 3.500000000000000000e+02 3.000000000000000000e+02 2.500000000000000000e+02 2.000000000000000000e+02 1.500000000000000000e+02 1.000000000000000000e+02 5.000000000000000000e+01 1.500000000000000000e+02 4.500000000000000000e+02 4.000000000000000000e+02 3.500000000000000000e+02 3.000000000000000000e+02
