ncols 119
nrows 32
xllcorner 1080
yllcorner 560
cellsize 10.0
1.266824200237451625e-01 1.250085803439738574e-01 1.438324831077819332e-01 1.221194859850251585e-01 1.230623704529720669e-01 1.254624954629585953e-01 1.478952532464969660e-01 1.293572906466234906e-01 1.313961108671792555e-01 1.333359972596430687e-01 1.361808527951440806e-01 1.380934117670525041e-01 1.407143975447055773e-01 1.429017386407437362e-01 1.443484531428124995e-01 1.446710145561686811e-01 1.487398181453144508e-01 1.500326046191906570e-01 1.505663989431162975e-01 1.427570363878242210e-01 1.419182223421280031e-01 1.472553992870178907e-01 1.376041656552804138e-01 1.357858455678183363e-01 1.387110127777878843e-01 1.479883704255192389e-01 1.332026027453921679e-01 1.325364483389881165e-01 1.318187904958165457e-01 1.310615303674453613e-01 1.301609377323217631e-01 1.291015056718187448e-01 1.279237012834062159e-01 1.268172818505771404e-01 1.148429069680774045e-01 1.156117123177154427e-01 1.335960347546476801e-01 1.084856888639646882e-01 1.465564092684413788e-01 1.222525813508261172e-01 1.263465826602046815e-01 1.274611999166127274e-01 1.297431959210181285e-01 1.321600196675858652e-01 1.353623186897879582e-01 1.381771841933830125e-01 1.413147724277462325e-01 1.448964465152969006e-01 1.482905418596827951e-01 1.523864267778906323e-01 1.566813286559888274e-01 1.667895035105408930e-01 1.819188193078296045e-01 3.328990700141574166e-01 1.698423277748889682e+00 1.757569130036159777e+00 2.172617424637481420e+00 1.795826187657724837e+00 2.432375668061356411e+00 2.622834792799436876e+00 2.577782472283559834e+00 2.014512426508290766e+00 2.312398818933657729e+00 1.085392534167543444e+00 1.007035192520643552e+00 8.611557605252638803e-01 2.097677556039216074e-01 1.836266784709290611e-01 1.770283049598503355e-01 1.735461733778494997e-01 1.696822548537544884e-01 1.657048792845402518e-01 1.619416863659361994e-01 1.579758339247739618e-01 1.547618712543060993e-01 1.517138536322355513e-01 1.487635517269770558e-01 1.459571125863825813e-01 1.432624774074970631e-01 1.406356702056140162e-01 1.380225683532602388e-01 1.352897591347330675e-01 1.324204471823969831e-01 1.327962936032870966e-01 1.251517465020592634e-01 1.452534832173311974e-01 1.264530237965322546e-01 1.275096232734236334e-01 1.270195091778671126e-01 1.268606194954000344e-01 1.266051297723123914e-01 1.264091504649974274e-01 1.263286590735520909e-01 1.263641089411156604e-01 1.264945052960083638e-01 1.267007273753830987e-01 1.269750062114436973e-01 1.273196930377106795e-01 1.277415983636912555e-01 1.282462075963756443e-01 1.288336348768543138e-01 1.294966338464688671e-01 1.302203649121138063e-01 1.309837720314116771e-01 1.317630118816630058e-01 1.325377951753733130e-01 1.333007081312519160e-01 1.346888225456156218e-01 1.349296449440273438e-01 1.358625590147821971e-01 1.368806489102831481e-01 1.391703350365936231e-01 1.381450718520894072e-01 1.428833435504257843e-01 1.616840804297791645e-01 1.459089974942775203e-01 1.493787949836348772e-01 1.513020612157308653e-01 1.528944101026613600e-01
1.241622176906591185e-01 1.228610862795981307e-01 1.417546018285484322e-01 1.201052565618678653e-01 1.200278354214298765e-01 1.420296643918057822e-01 1.261844705939637878e-01 1.265458933568932298e-01 1.281172888662882314e-01 1.307949583984152897e-01 1.326106528621822933e-01 1.352541790288622203e-01 1.376515216378084716e-01 1.395865037868012359e-01 1.407663248242707610e-01 1.408255006867345782e-01 1.453357580174769736e-01 1.465033883350052302e-01 1.401715463357174063e-01 1.468708068704210612e-01 1.376728644084987963e-01 1.362942308217071907e-01 1.417371422026051930e-01 1.316458140395026233e-01 1.299126088069000595e-01 1.469407039186995667e-01 1.296949217831393775e-01 1.290909544084108962e-01 1.284076640337347974e-01 1.276659159904703633e-01 1.267845447489938382e-01 1.257330073659723435e-01 1.244319683095082563e-01 1.246493692477364662e-01 1.106798244129230807e-01 1.115453922201683074e-01 1.309631527182627264e-01 1.040786151423996886e-01 1.449512386422301402e-01 1.225068272880806969e-01 1.228848274992601630e-01 1.247686589036235694e-01 1.268735726969869859e-01 1.297966731048003086e-01 1.323021756967257268e-01 1.351098586677908775e-01 1.383145484590175833e-01 1.412667748631794840e-01 1.447596984818849408e-01 1.481823716051209050e-01 1.528793462326336616e-01 1.592430467115914794e-01 1.686143197218399059e-01 7.705281421459213576e-01 6.813000221406683155e-01 7.733423208603472654e-01 1.713207360127306345e+00 1.801053276352591936e+00 1.590151892918344023e+00 1.810966700488253256e+00 1.858964072968025905e+00 1.857614197174272563e+00 1.353460665900993121e+00 1.383044908328785461e+00 1.055411157188026472e+00 1.984587117596745554e-01 2.074696833564671494e-01 1.756507966117488717e-01 1.730360846647308326e-01 1.700153280988929982e-01 1.668900846713484709e-01 1.633830790956875834e-01 1.596390714365553409e-01 1.560851411670613753e-01 1.523004323578956987e-01 1.492584276211702254e-01 1.463891809504371255e-01 1.436355461388618415e-01 1.410283351282814179e-01 1.385435979439976206e-01 1.361477802161255302e-01 1.337912687411998425e-01 1.313439549086297120e-01 1.287778220810494867e-01 1.294292795042479571e-01 1.219884324305346157e-01 1.444941889092531406e-01 1.252735620073170963e-01 1.250648968818875995e-01 1.246299504099697836e-01 1.242193945390853566e-01 1.239292247982107659e-01 1.237975847516616795e-01 1.238061722476624937e-01 1.239128148162858267e-01 1.240849192919100397e-01 1.243119592422018416e-01 1.246003552368044609e-01 1.249632581175543766e-01 1.254118576433689014e-01 1.259500775491704527e-01 1.265723436495960752e-01 1.272634324368279723e-01 1.279998230927053282e-01 1.287531854719733970e-01 1.294979814210768521e-01 1.302251726303424728e-01 1.315724890043195316e-01 1.318135254158586400e-01 1.327677829754748406e-01 1.338169060697078638e-01 1.360633058358647340e-01 1.346924767592059813e-01 1.559921786070048721e-01 1.408912867446377726e-01 1.438659780642999597e-01 1.459936228420323223e-01 1.481481172592250262e-01 1.495705124058917257e-01
1.216813290581389845e-01 1.191055113536655663e-01 1.418317457503530110e-01 1.201827980018858322e-01 1.186375707499432858e-01 1.468275908592103218e-01 1.211406619785956318e-01 1.231643010885685174e-01 1.257866777729176599e-01 1.274821360864001052e-01 1.300522141869638604e-01 1.324937202220592691e-01 1.346638024713223969e-01 1.363529256875290196e-01 1.372802667065597115e-01 1.370946046066570390e-01 1.420525982703348122e-01 1.431422718844940767e-01 1.362608890492073843e-01 1.360284634407196436e-01 1.425399093286076890e-01 1.323460083317547775e-01 1.307274408473858007e-01 1.363419583121191214e-01 1.260560287576664162e-01 1.448176114303425799e-01 1.264528533228282126e-01 1.258867594410080226e-01 1.252354372295969298e-01 1.245161780165753296e-01 1.236704349758756954e-01 1.226900134051456120e-01 1.215807389973616037e-01 1.082285493156097678e-01 1.223642299234901643e-01 1.076699045176556652e-01 1.288023169382364885e-01 1.004036260645871786e-01 1.439431098749190951e-01 1.184102779994048449e-01 1.204160804811451602e-01 1.222655244062434837e-01 1.249019832127315210e-01 1.270969854202947391e-01 1.295810139229437441e-01 1.324309210831068895e-01 1.350000612989879778e-01 1.380483256708070761e-01 1.409508665681714623e-01 1.449912661442720185e-01 1.495408670135320583e-01 1.548517646149335514e-01 1.606782036681954906e-01 1.854515827803983330e-01 7.232928039679523691e-01 1.188575815198783303e+00 1.263910002394639909e+00 1.521810136690861626e+00 1.722513675309014447e+00 1.523927258487725034e+00 1.957402332689194058e+00 1.156773948239453453e+00 1.106636543754009772e+00 7.674861475575313063e-01 4.460754320930630512e-01 1.862435597832537149e-01 1.809832681265602650e-01 1.724238999092025104e-01 1.697880305114506383e-01 1.668555069501775900e-01 1.638255312485748239e-01 1.608741283760851681e-01 1.575721541607739695e-01 1.540290801279104171e-01 1.506847618117173604e-01 1.470945560705157751e-01 1.442376740227971632e-01 1.415560856162902392e-01 1.390043617699538991e-01 1.366063431511267690e-01 1.343449053951812078e-01 1.321916322045525449e-01 1.300961473036054139e-01 1.279314374307491953e-01 1.256766428956748449e-01 1.266573809452724020e-01 1.194967588566607369e-01 1.442191097501365760e-01 1.238197352275287461e-01 1.225545780914939070e-01 1.219774819805270333e-01 1.216138016582080650e-01 1.214611838868783766e-01 1.214773889203090429e-01 1.215901667740157815e-01 1.217486242606358043e-01 1.219408041943312732e-01 1.221803690551935828e-01 1.224893356112576187e-01 1.228859773453709336e-01 1.233785569947904864e-01 1.239632746938179181e-01 1.246243855302667791e-01 1.253352053639269770e-01 1.260607344955811671e-01 1.267654832382060504e-01 1.274325400871148539e-01 1.287008530326061162e-01 1.289341239678406525e-01 1.299239252877390505e-01 1.310435843875543405e-01 1.334015826934835669e-01 1.322478800160683532e-01 1.534372879243840193e-01 1.393655745547113245e-01 1.407245958034741840e-01 1.430472586936300805e-01 1.450386687693163701e-01 1.463503270062867512e-01
1.198049079093720243e-01 1.179719467871546412e-01 1.165547609998309336e-01 1.432839955954396116e-01 1.424989526342620438e-01 1.162293438763192799e-01 1.185757326824915803e-01 1.212124706449730360e-01 1.227880109184361912e-01 1.252224861505009668e-01 1.275944776957663729e-01 1.298217905749895762e-01 1.317629228429733623e-01 1.332127437927932423e-01 1.339000144534677195e-01 1.334855048395888477e-01 1.388653755864995565e-01 1.398816669637088228e-01 1.325022050146514585e-01 1.323802965234227857e-01 1.313774325151456923e-01 1.379257523118606610e-01 1.271280377814542895e-01 1.254372498772820810e-01 1.308938428418681410e-01 1.428368334218804159e-01 1.234543133865050879e-01 1.229208980059302986e-01 1.223014307591062666e-01 1.216084402285557281e-01 1.207997871118946381e-01 1.198853496874476426e-01 1.189073990916814927e-01 1.046581289970546919e-01 1.059204216611631805e-01 1.192649708116584883e-01 1.272490480833192994e-01 9.695776443884926432e-02 1.424093417881966139e-01 1.163014962077246750e-01 1.181977925923160533e-01 1.206219072163170064e-01 1.225250901527002861e-01 1.246961587005692706e-01 1.272086071459248013e-01 1.294182305704895952e-01 1.320671054994630722e-01 1.345359437667425773e-01 1.380973248232986450e-01 1.420692268488471799e-01 1.464990383599767965e-01 1.514100047489269629e-01 1.566322286118556339e-01 1.646923906580252672e-01 3.431555690908061895e-01 4.250284873068044256e-01 1.005006087433012896e+00 1.344196545899768225e+00 1.180208231648626649e+00 1.539559624512548019e+00 7.961631455551102521e-01 1.136061004188002377e+00 7.926736585301584759e-01 2.371573835786917328e-01 1.852718451105578312e-01 1.793652289251636001e-01 1.741240582546112192e-01 1.702089254067068735e-01 1.670233409790695678e-01 1.640014731530569370e-01 1.610077755955588441e-01 1.580601805918701863e-01 1.552944922339840883e-01 1.521994865369266647e-01 1.488632589499198910e-01 1.457317777940753123e-01 1.423430235521903342e-01 1.396789426699922010e-01 1.371931745835505978e-01 1.348505844631368855e-01 1.326706202724682593e-01 1.306398771325777142e-01 1.287324332126690563e-01 1.269003360775022848e-01 1.250297949516723517e-01 1.231317010427658842e-01 1.246594107846227123e-01 1.190165768869484442e-01 1.449320867532429002e-01 1.202227741606526623e-01 1.197847855155617786e-01 1.194009845747621840e-01 1.192825027977269248e-01 1.193597171733172396e-01 1.195193645417295392e-01 1.196886743190394981e-01 1.198598304138749210e-01 1.200592786899043196e-01 1.203210339756043412e-01 1.206717191687406293e-01 1.211242132422770956e-01 1.216763881414663767e-01 1.223117125976629360e-01 1.229995302534044321e-01 1.236954738456912672e-01 1.243468433224398373e-01 1.249139850571376054e-01 1.260192953997122112e-01 1.262287687129856895e-01 1.272683125391874392e-01 1.284762245637915690e-01 1.310435560077059802e-01 1.311679642294396042e-01 1.582376808948252611e-01 1.345907443645553425e-01 1.376635092134631810e-01 1.401034863613212222e-01 1.420430280644748577e-01 1.432726448345732206e-01
1.173453347694748961e-01 1.164350199922242340e-01 1.148198554975490560e-01 1.505286622711190514e-01 1.140771388081320420e-01 1.151478459254645231e-01 1.173275718869243589e-01 1.186410897716104751e-01 1.208616972667834882e-01 1.230745923682436405e-01 1.252313300436607713e-01 1.272389307528857538e-01 1.289533352008808975e-01 1.301727652502968624e-01 1.306348425597448626e-01 1.300126652890711554e-01 1.357462543580691683e-01 1.373386215872871297e-01 1.288340887121802170e-01 1.288294898591463289e-01 1.279920326538643571e-01 1.266257706426986152e-01 1.333543687383032528e-01 1.222894256653467293e-01 1.208142662867849187e-01 1.425951025906315173e-01 1.206608136763626105e-01 1.201864122652567535e-01 1.196044810162012334e-01 1.189404572027064344e-01 1.181560464343472533e-01 1.172776718175813360e-01 1.164104408508061239e-01 1.013344438042127482e-01 1.030149839458076033e-01 1.039847133784750355e-01 1.292457603836790481e-01 9.378340839215329461e-02 1.406828702586170043e-01 1.145355533351782862e-01 1.169009141066748303e-01 1.185347203990135406e-01 1.204028432331004511e-01 1.226014089842181048e-01 1.244797242713180652e-01 1.267590912105156786e-01 1.288303014582771466e-01 1.319669492983781001e-01 1.354697899849197362e-01 1.393500329123014692e-01 1.435533287757943810e-01 1.479738488027433907e-01 1.527728042134641473e-01 1.576809281477780378e-01 1.740802966984841826e-01 1.796942250516592177e-01 9.091938500755714081e-01 5.634015882422288568e-01 6.220741034003203218e-01 1.114791689067475167e+00 9.172607236067925607e-01 8.490368694521426285e-01 6.256055363695942617e-01 2.223993119431947607e-01 1.796208744929796153e-01 1.742666879313259920e-01 1.710514149646537307e-01 1.677070964726598279e-01 1.644244266641690655e-01 1.613188673521145922e-01 1.583561855145308450e-01 1.554791391412763124e-01 1.526870474940366373e-01 1.501290405019615193e-01 1.472500288062229545e-01 1.441259106571695370e-01 1.412080294949975001e-01 1.380246223845044418e-01 1.355583809477724777e-01 1.332740891549075157e-01 1.311443918852312762e-01 1.291847925025071675e-01 1.273837715708766305e-01 1.257182034742995447e-01 1.241446127927058191e-01 1.225553783382091616e-01 1.209207588201611366e-01 1.220119202664356195e-01 1.426970832157302693e-01 1.210475409160188393e-01 1.191655444375663286e-01 1.172168091960578001e-01 1.172153499390891640e-01 1.174296076070482225e-01 1.176872689013370998e-01 1.178919614063219240e-01 1.180542535726352704e-01 1.182215973433891343e-01 1.184429327959617417e-01 1.187538027487008430e-01 1.191714697595154943e-01 1.196950519016129200e-01 1.203068488915818857e-01 1.209718992076815880e-01 1.216352985601086428e-01 1.222209787773592127e-01 1.226431655790092556e-01 1.234066997051304349e-01 1.235943426765483966e-01 1.247151950442566826e-01 1.259689102147499018e-01 1.282379037063084981e-01 1.504226241866837011e-01 1.307808530518925760e-01 1.327307533796242556e-01 1.351938875791620642e-01 1.374663524497748701e-01 1.392956633020884238e-01 1.404042168710583904e-01
1.149302315903085181e-01 1.142278436442975970e-01 1.132747930528351238e-01 1.495882015572140011e-01 1.126110708889989376e-01 1.142525944287794970e-01 1.151329383845620252e-01 1.170433019224603605e-01 1.190187050947970476e-01 1.210104654080464970e-01 1.229519314822996867e-01 1.247423555180395410e-01 1.262363464660618828e-01 1.272362676551026528e-01 1.274900467659945968e-01 1.266896742437027823e-01 1.329545591578695785e-01 1.263749926878661722e-01 1.355367267716391655e-01 1.253216503904295009e-01 1.246956796021865127e-01 1.235410488626363795e-01 1.220644719901966407e-01 1.289957745689165047e-01 1.178762449862389428e-01 1.410406789365152291e-01 1.181387019809377326e-01 1.176937414537849308e-01 1.171533453470822855e-01 1.165217290179606374e-01 1.157240112043831648e-01 1.148133118851814294e-01 1.140323529903370936e-01 9.819677630893841602e-02 1.002502057330564855e-01 1.015285194960285770e-01 1.287397706062094194e-01 9.357869280293376613e-02 1.386949005000739088e-01 1.137635025447156639e-01 1.151416208723272244e-01 1.166225720812862354e-01 1.185327473778756691e-01 1.201300263881882047e-01 1.220832570371697401e-01 1.237916832266231087e-01 1.265324157776464009e-01 1.296059978531307055e-01 1.330123838595870245e-01 1.367054009591926744e-01 1.406030103729698499e-01 1.448069788776323863e-01 1.491512619636855552e-01 1.538635187237265001e-01 1.590998701873950760e-01 1.699220431602973536e-01 1.837966745616912423e-01 2.332758472658410798e-01 2.508063652451353875e-01 3.929192427508059748e-01 3.094709491975977111e-01 4.144339278206910504e-01 2.055913657520302140e-01 1.776358926863558230e-01 1.741197518723368587e-01 1.711364321939289335e-01 1.681036074347698750e-01 1.650528497177153053e-01 1.619292409336596794e-01 1.588102021297849997e-01 1.558403192807326365e-01 1.530226065193806551e-01 1.503156081190711590e-01 1.477090884555890271e-01 1.453670475186041589e-01 1.427062792874964625e-01 1.397948542318051268e-01 1.370884686992027146e-01 1.341112015805319690e-01 1.318436619693367229e-01 1.297606392103920203e-01 1.278395805124949991e-01 1.260913580157830005e-01 1.245038209001805840e-01 1.230534264973018876e-01 1.216987133291150269e-01 1.203558683826176368e-01 1.191016603305463245e-01 1.213133626873766774e-01 1.477430073317254899e-01 9.883741492715475419e-02 1.163333796765082528e-01 1.152136612953299499e-01 1.156677678898725692e-01 1.160809613766167897e-01 1.163369842245128849e-01 1.164966251707832967e-01 1.166373776038808902e-01 1.168238112126360750e-01 1.170993887465304195e-01 1.174847417044206505e-01 1.179793775034451431e-01 1.185639836224365445e-01 1.192005405500612958e-01 1.198282040512814173e-01 1.203527048883573092e-01 1.206448494971102958e-01 1.206603040436828450e-01 1.209561043216542120e-01 1.222606328044379964e-01 1.236727746752382118e-01 1.271899090079264549e-01 1.530618299464121257e-01 1.277798398099999344e-01 1.307328080763876799e-01 1.331524816334414274e-01 1.352797165125556311e-01 1.369618451689769978e-01 1.378911631709016372e-01
1.125183369516193493e-01 1.121072057694160462e-01 1.113531000759124812e-01 1.494488698332629983e-01 1.114995952864151624e-01 1.121848410988353084e-01 1.137681865408370768e-01 1.154618758288835645e-01 1.172277186242929592e-01 1.190141467529248209e-01 1.207493359241279401e-01 1.223301475884491646e-01 1.236121695285619382e-01 1.244025300007288726e-01 1.244586238312624799e-01 1.234879703167591630e-01 1.302911079384914406e-01 1.232019806328990275e-01 1.237574193106883436e-01 1.329138588660338793e-01 1.214834919338807773e-01 1.205676513437692610e-01 1.193204788593440063e-01 1.178505876109367662e-01 1.245108156001074190e-01 1.396561999674362786e-01 1.158479994218740150e-01 1.154414338305432691e-01 1.149677783011798654e-01 1.143775109188914646e-01 1.134805560694637783e-01 1.124297684806345732e-01 1.117161672351771468e-01 9.519299283607676743e-02 9.766693577411168781e-02 9.935929094368863013e-02 1.289607579682661154e-01 9.350406323193112545e-02 1.364703805420660609e-01 1.128651425650939316e-01 1.131723752075383671e-01 1.148507921302141938e-01 1.162816632272092865e-01 1.179877765867864969e-01 1.193850654684630169e-01 1.217611635945593518e-01 1.244310834150993278e-01 1.273951755112669726e-01 1.306185530021631291e-01 1.340438763652231358e-01 1.377436905347871332e-01 1.416180621943486651e-01 1.456135159281976010e-01 1.498385532668402575e-01 1.540795935301343678e-01 1.583616985165323399e-01 1.808475109838275641e-01 3.207011153979917872e-01 3.943506973867457743e-01 3.055197739300852255e-01 4.070730307186288255e-01 3.443291297614075597e-01 1.782712547705689321e-01 1.748589233686974331e-01 1.711590225868913073e-01 1.682182198604522116e-01 1.652734630940166927e-01 1.623698259011543410e-01 1.594012995295568114e-01 1.564179962872666863e-01 1.534730669822288174e-01 1.506786563595521322e-01 1.480409422184655044e-01 1.455251901271396031e-01 1.431159713382082754e-01 1.409892003166585417e-01 1.385432225405410223e-01 1.358407218178994957e-01 1.333401352540026508e-01 1.305649227474707796e-01 1.284897237120866398e-01 1.265972671576136854e-01 1.248655856099252087e-01 1.232969297081650401e-01 1.218693515179306019e-01 1.205408530096331587e-01 1.192469659493105710e-01 1.180010933006720997e-01 1.178579340393459962e-01 1.439177225507581870e-01 1.155915869174164723e-01 9.724582933446368482e-02 1.144711750061915140e-01 1.140714008279590796e-01 1.146975102378001710e-01 1.149952841369568657e-01 1.151482840990762924e-01 1.152647293046253352e-01 1.154199679313661353e-01 1.156620973376706607e-01 1.160132813338133478e-01 1.164721688726375604e-01 1.170174516854184665e-01 1.176121861066330015e-01 1.182051890397841643e-01 1.187062207627245514e-01 1.191729064186569931e-01 1.181213147935438051e-01 1.183957034087406851e-01 1.199708708558844122e-01 1.208569811332367294e-01 1.447636712255807867e-01 1.402941814012754196e-01 1.393301324682333087e-01 1.404672773328909663e-01 1.404520361979969545e-01 1.397077640310349089e-01 1.381988277830096534e-01 1.356258689357258962e-01
1.102433947442956613e-01 1.099909919904865641e-01 1.095625529800117043e-01 1.494293455240478241e-01 1.094588791041676140e-01 1.109460317834410487e-01 1.123806829700016996e-01 1.139012564419857876e-01 1.154843550508495575e-01 1.170818277062649071e-01 1.186220807634080637e-01 1.200027408989604860e-01 1.210818384308103152e-01 1.216712722958958048e-01 1.215365054073999085e-01 1.203986463124225303e-01 1.277535530593440771e-01 1.201630161037698374e-01 1.208338399567387977e-01 1.206124601919732753e-01 1.298905063204350008e-01 1.177013789586766751e-01 1.167156955068901908e-01 1.155720574511546195e-01 1.143891594912775089e-01 1.398754950924829543e-01 1.137550525339073304e-01 1.134309750007111844e-01 1.130698411575651180e-01 1.125217818638997863e-01 1.113492461734801042e-01 1.101617473040246015e-01 1.094817947985224915e-01 9.226096075054822376e-02 9.522973752354757515e-02 9.752934152135717127e-02 1.296154090417890592e-01 9.462079649511931367e-02 1.402079783488846265e-01 1.082186941952251735e-01 1.111634375903574057e-01 1.128123831134065641e-01 1.144139265287623664e-01 1.155726960372663731e-01 1.176246252323145253e-01 1.199189320434773109e-01 1.224662010008283342e-01 1.252448910065879495e-01 1.282158442043230540e-01 1.314303145091172687e-01 1.348171713511372716e-01 1.383320917375178150e-01 1.419930822261425696e-01 1.456273039607300923e-01 1.490097353653257184e-01 1.517985662851863982e-01 1.546931949627287362e-01 1.656698429908587955e-01 2.230039097852632990e-01 1.869862272230355671e-01 2.050202460504286783e-01 2.022456841637425562e-01 1.730348907218836885e-01 1.708813543306816896e-01 1.681630392971436849e-01 1.654631093474710768e-01 1.625787229056827599e-01 1.597001372678792108e-01 1.568668250644690287e-01 1.540231138733240135e-01 1.512063015272760991e-01 1.484563511159521509e-01 1.458573771666304419e-01 1.434142060850532585e-01 1.410964797625885170e-01 1.388861879053751858e-01 1.369681177935259953e-01 1.347287660674576226e-01 1.322267192726991614e-01 1.299208845682002511e-01 1.273356937132742173e-01 1.254344206991999389e-01 1.237038775621593367e-01 1.221161230465455799e-01 1.206567028801959207e-01 1.192758434572722681e-01 1.178630195749666987e-01 1.161547544601270743e-01 1.133552889872144753e-01 1.434701382351665500e-01 1.175394476694264362e-01 1.171560332884570149e-01 9.501160560702585911e-02 1.130451761973668701e-01 1.135576817140954431e-01 1.138288325786521171e-01 1.139617361779072802e-01 1.140545129363176591e-01 1.141809336027859861e-01 1.143888121423169563e-01 1.146997451071068846e-01 1.151102702002369665e-01 1.155968199389850598e-01 1.161309546581901081e-01 1.167044275948222049e-01 1.171877696359787946e-01 1.237187075964368277e-01 9.838358312432415875e-02 1.167512022671225447e-01 1.184432409801415426e-01 1.199067122289800696e-01 1.575405231171377041e-01 1.264661330330711653e-01 1.283747717857624815e-01 1.306388800520549565e-01 1.328988007481415601e-01 1.348781887813992886e-01 1.362191579924695861e-01 1.364578147165328992e-01
1.093359220511624513e-01 1.079772405440858202e-01 1.078036195227008165e-01 1.494194976427393462e-01 1.082722030155635062e-01 1.096969631902858233e-01 1.110078652963817358e-01 1.123771460344152873e-01 1.137945550427727631e-01 1.152162398985511482e-01 1.165724050317230170e-01 1.177626486194978672e-01 1.186479466931512627e-01 1.190444789211719812e-01 1.187241187260936193e-01 1.174197643982596295e-01 1.253274453172326108e-01 1.172555798357483581e-01 1.180380234818915186e-01 1.179561463347263417e-01 1.173090945102338578e-01 1.267754305479309174e-01 1.141930815739371358e-01 1.132916992036934883e-01 1.123244138257101787e-01 1.389927838593133236e-01 1.119096318851578176e-01 1.116523555332948336e-01 1.114310857824279410e-01 1.108421127218541802e-01 1.108920295352312790e-01 1.085190675564034202e-01 1.075671064128990856e-01 8.941078389903669987e-02 9.282847873120426974e-02 9.599210513555377078e-02 1.296357708281440924e-01 1.362944448833329769e-01 1.044581578124527677e-01 1.078964248835152517e-01 1.097973127820833783e-01 1.113605438434018824e-01 1.123306409030992437e-01 1.140942142014073346e-01 1.160418011848771969e-01 1.181986113438859703e-01 1.205569453048942336e-01 1.230921966825096192e-01 1.258421809726657514e-01 1.287524894228411210e-01 1.317838931285750248e-01 1.349268974368624252e-01 1.380262617909483180e-01 1.408833620089285921e-01 1.431589656975287839e-01 1.445864840289716180e-01 1.515170918774825237e-01 1.699566475910186114e-01 1.715099866732564260e-01 1.849491343064259552e-01 1.756026188939200094e-01 1.701203298158004140e-01 1.694515262427170044e-01 1.676983852476484349e-01 1.653182333739824095e-01 1.626744042354628106e-01 1.599490191952946672e-01 1.571340304398309851e-01 1.543497237517755527e-01 1.516317143874830187e-01 1.489444045259481209e-01 1.463143220817935686e-01 1.437697665649673717e-01 1.413735146308343904e-01 1.391283608268991112e-01 1.370071720185224717e-01 1.349908648686074242e-01 1.332703426303864236e-01 1.312247095003523933e-01 1.289087632814401030e-01 1.267787174752336710e-01 1.243594553513729939e-01 1.225957596701759966e-01 1.209740132873687035e-01 1.194574955258394244e-01 1.180206738946293632e-01 1.166025479975548312e-01 1.150834296487761865e-01 1.133447065828299682e-01 1.117627005713367067e-01 1.484869970225297098e-01 9.622755790287933209e-02 9.295072348196235790e-02 1.120378899521524280e-01 1.125327447924734242e-01 1.127740638612322599e-01 1.128852652187178895e-01 1.129572768423661167e-01 1.130567417423315874e-01 1.132278105181299677e-01 1.134903342982372942e-01 1.138383110428756589e-01 1.142451892431539107e-01 1.146967733197648970e-01 1.153379626758201382e-01 1.170999914303471612e-01 1.228393285752718000e-01 9.509246843446855779e-02 1.155904990891830908e-01 1.175088425635136408e-01 1.569819442602252146e-01 1.173984341146664251e-01 1.208193578502026605e-01 1.230182123918302922e-01 1.248056111908886767e-01 1.264785711529001766e-01 1.279543122924354792e-01 1.289104704420672987e-01 1.288724641890590383e-01
1.102578482321895231e-01 1.072151649296455844e-01 1.061362204600970333e-01 1.495532625190445219e-01 1.071699162361527957e-01 1.084907396404101165e-01 1.096763760265019871e-01 1.109035074918444108e-01 1.121659393431029966e-01 1.134221574944793282e-01 1.146040930176391026e-01 1.156135708392053152e-01 1.163146174177863978e-01 1.165272212423196507e-01 1.160277428998968408e-01 1.145567635272376761e-01 1.229571347033472234e-01 1.144723334927551239e-01 1.153546653457365734e-01 1.154117041622577666e-01 1.149271439285687590e-01 1.141020879430025420e-01 1.237511219432138598e-01 1.110547736308982181e-01 1.102746058246866778e-01 1.381627055955399197e-01 1.102313460315792470e-01 1.100215097826489352e-01 1.099184472342541741e-01 1.097498429989475915e-01 9.328102920948287691e-02 1.134077824666045314e-01 1.063279459314998843e-01 8.683803480017412979e-02 9.032985155415518275e-02 9.310234098206372766e-02 1.471819741018234040e-01 1.049461670376211214e-01 1.063343271030865317e-01 1.076422534652043544e-01 1.089404510738307269e-01 1.096691918550544709e-01 1.111455488477653547e-01 1.127651684681670458e-01 1.145570297638947577e-01 1.165218398943902445e-01 1.186451373029200340e-01 1.209561010167180539e-01 1.234115030643495592e-01 1.259753487015166096e-01 1.286246116454476673e-01 1.312250766799647750e-01 1.335992645414451896e-01 1.354628512714343702e-01 1.365366706848208656e-01 1.433636391464612192e-01 1.628735053556608359e-01 1.630937889054574486e-01 1.641064615693750006e-01 1.687598098924597556e-01 1.658323399714856095e-01 1.670636980281824668e-01 1.665301189769702872e-01 1.648218007882956138e-01 1.625533513614284831e-01 1.600018059690042349e-01 1.573210682173508124e-01 1.546273424337263058e-01 1.519114755481171530e-01 1.492549695913809316e-01 1.466848892525035031e-01 1.441748393782431859e-01 1.417419196899122047e-01 1.394050329632976482e-01 1.372109944623978728e-01 1.351605730839366970e-01 1.332289904060232621e-01 1.313968103641608154e-01 1.298584691976496786e-01 1.279884210994308436e-01 1.258370617538558944e-01 1.238538608649006334e-01 1.215622791512833145e-01 1.198827327906720336e-01 1.183056650105481222e-01 1.168114470148184508e-01 1.154283118418590465e-01 1.141794082587762882e-01 1.130685819456904717e-01 1.121568145780476589e-01 1.449925714001193966e-01 9.390023339357417287e-02 9.123754172547998698e-02 1.111862169028298014e-01 1.115952920159582196e-01 1.117888701411327013e-01 1.118776921811630437e-01 1.119318659701439567e-01 1.120051123032401730e-01 1.121359908208679201e-01 1.123431303373817330e-01 1.126197064420117883e-01 1.129338853339250104e-01 1.132396595455664179e-01 1.134624198174353504e-01 1.285586731610713906e-01 9.399673000270925005e-02 9.569293840000245299e-02 1.156223493380474365e-01 1.558775125734077616e-01 1.163932236333301007e-01 1.200828509387863730e-01 1.226053204102598299e-01 1.241131023800359223e-01 1.252656095894428556e-01 1.263874712780147236e-01 1.273826734053760124e-01 1.279313593153817707e-01 1.276690199530743086e-01
1.114324856668496982e-01 1.081441008479455262e-01 1.055549345170651021e-01 1.499006557649118498e-01 1.061942940257952633e-01 1.073485224752123712e-01 1.083991651481081564e-01 1.094888547322381556e-01 1.106043737405009442e-01 1.117039866750312305e-01 1.127209319441677682e-01 1.135593694438301188e-01 1.140867792863141522e-01 1.141275496351260577e-01 1.134623712658340555e-01 1.118324305654477269e-01 1.216169240424592318e-01 1.117636969917644996e-01 1.127512804504757771e-01 1.129600146118769771e-01 1.126496501262446159e-01 1.120018680384878840e-01 1.111439063981654318e-01 1.208539944418455941e-01 1.082412574648881076e-01 1.372572928349330146e-01 1.086605410557463514e-01 1.084168198374237807e-01 1.081034564823118993e-01 1.072102034485990646e-01 8.819777674648227039e-02 1.162314679617446056e-01 1.068868255434643477e-01 8.479272567095075264e-02 8.818641780227916283e-02 9.086172116523175135e-02 1.448351704402255913e-01 1.057840017827247903e-01 1.064227474133554036e-01 1.072242005902986905e-01 1.075973459864222603e-01 1.087491037502152924e-01 1.100425854824429311e-01 1.114912249759805463e-01 1.130921536846362374e-01 1.148335951534120991e-01 1.167372324139656359e-01 1.187674337413535258e-01 1.208910807053780179e-01 1.230790461301970035e-01 1.252162013712100341e-01 1.271488900395278676e-01 1.286400081282362551e-01 1.294430475475089881e-01 1.362260284563818757e-01 1.568139301020362031e-01 1.563837722214594661e-01 1.577805027750022182e-01 1.589807480974685105e-01 1.652212156852729263e-01 1.628563079177963724e-01 1.643928890766184203e-01 1.639480756890366320e-01 1.622579339810688859e-01 1.599520132512614601e-01 1.574175943972897784e-01 1.547867109118671591e-01 1.521322798344549032e-01 1.495181833713667419e-01 1.469331743509705857e-01 1.444314301770249220e-01 1.420310317492794738e-01 1.397097554824149324e-01 1.374771738759480166e-01 1.353449113835953621e-01 1.333476993708852809e-01 1.314843171672527844e-01 1.297314906502604892e-01 1.280695830741212793e-01 1.266941113995262436e-01 1.249764482865501070e-01 1.229617666983194718e-01 1.210895332261239243e-01 1.188827201652631199e-01 1.172413430812649926e-01 1.156901842650357309e-01 1.143159167951764976e-01 1.133304967250699513e-01 1.127622780946964387e-01 1.122194074620272153e-01 1.430010356176933117e-01 8.936762792683386469e-02 9.222805508752769665e-02 1.105069917542093605e-01 1.107223878478312690e-01 1.108474107053961100e-01 1.109134206376921061e-01 1.109506074786234947e-01 1.109960656341107132e-01 1.110829522435467509e-01 1.112313396512329966e-01 1.114397359096992030e-01 1.116874231330987205e-01 1.119568754708971658e-01 1.122109712900334899e-01 1.273580549750185087e-01 9.274903222111303969e-02 9.613499041672381173e-02 1.450942689418711629e-01 1.153827584625672087e-01 1.181102162751309081e-01 1.214615423796194249e-01 1.231111562256075181e-01 1.238025635001318014e-01 1.243497562796884587e-01 1.250454205293961285e-01 1.257317163452453535e-01 1.260493331585588184e-01 1.255916971570309459e-01
1.099368902169162859e-01 1.092741430029492700e-01 1.063884031977885142e-01 1.502540075307861878e-01 1.053069385588288748e-01 1.062670149525143659e-01 1.071792180706798575e-01 1.081369268750680679e-01 1.091133952199712098e-01 1.100649247810855380e-01 1.109258387120804212e-01 1.116029029825418573e-01 1.119679875700408112e-01 1.118527677539190440e-01 1.110520202162157272e-01 1.093425857835869097e-01 1.095227767644957328e-01 1.221363244272121035e-01 1.101767126863013174e-01 1.105796943718967001e-01 1.104674554603843339e-01 1.100212302598776726e-01 1.093596275552318337e-01 1.085117237278596658e-01 1.175975095869396664e-01 1.364747697123449566e-01 1.072029064328864911e-01 1.069039323383004225e-01 1.064809974359212791e-01 1.056695473973373461e-01 8.682650991475832081e-02 8.911538078319834744e-02 1.181505544582313050e-01 8.300949731132210851e-02 8.637468865295731824e-02 8.901330420133382604e-02 1.439414065255031905e-01 1.054711172209391867e-01 1.060582905309692958e-01 1.060556140797700303e-01 1.068473239670325176e-01 1.078069116932123261e-01 1.089315243746351025e-01 1.102019507389149777e-01 1.115989181839503186e-01 1.131344924207969699e-01 1.147771475194317853e-01 1.164960558026587045e-01 1.182598397298453841e-01 1.199696377797634939e-01 1.214938128755765484e-01 1.226343534988900141e-01 1.231753382414602083e-01 1.298280691560535771e-01 1.508207488259288853e-01 1.497469570616908052e-01 1.512701329778721460e-01 1.532793209387910138e-01 1.549640854701499204e-01 1.616977115770798223e-01 1.597259729876513434e-01 1.616622151282249287e-01 1.614895018849521191e-01 1.598618988769380522e-01 1.575118488939202810e-01 1.549223498430110091e-01 1.522999638276064382e-01 1.496932242187070938e-01 1.471278747434264234e-01 1.446378599263772047e-01 1.422108053999399380e-01 1.398827888528180741e-01 1.376649172218719352e-01 1.355371816454691292e-01 1.335033577429502460e-01 1.315693880065558763e-01 1.297605793867111779e-01 1.280735883772142758e-01 1.264857381999772989e-01 1.249771105835273399e-01 1.237424186774516710e-01 1.221517662207971811e-01 1.202466091724379710e-01 1.184584913935215617e-01 1.163194321087180488e-01 1.147202797190809281e-01 1.132465609152259189e-01 1.123051885838430436e-01 1.124489522050831636e-01 1.124837930236204653e-01 1.406416964805816405e-01 8.830929497503753334e-02 9.322578750969505446e-02 1.099659621302391949e-01 1.098723399898294678e-01 1.099348762394145446e-01 1.099821130686155224e-01 1.099997943792505595e-01 1.100125521888692948e-01 1.100508809853961989e-01 1.101399508312998488e-01 1.102881129660278625e-01 1.104919001619987101e-01 1.107950953257725718e-01 1.113251312748648192e-01 1.267613698147845303e-01 9.204211135143051947e-02 9.825609510760446863e-02 1.582270015261057761e-01 1.153719402331258997e-01 1.168352526357930854e-01 1.186028031853830628e-01 1.194028706631294900e-01 1.196216581912202259e-01 1.198719736408630498e-01 1.203073951922682544e-01 1.207032516445576686e-01 1.206538586975975380e-01 1.238358606079478091e-01
1.078242916915133770e-01 1.077414464323119686e-01 1.070277741537482563e-01 1.502120329683913624e-01 1.044098639321645872e-01 1.052270084539076028e-01 1.060136441814542585e-01 1.068485326145582059e-01 1.076948713876131891e-01 1.085070788704323025e-01 1.092206472750166385e-01 1.097451021864534609e-01 1.099569251890945704e-01 1.096949529447744792e-01 1.087649562092452005e-01 1.069601273907006961e-01 1.072040808233387654e-01 1.086820420187762926e-01 1.216851565152784059e-01 1.082671646233083762e-01 1.083718510453060002e-01 1.081454511727345386e-01 1.077261367692525229e-01 1.072164367643115845e-01 1.066806665591409353e-01 1.371296203798521574e-01 1.058465735140180775e-01 1.055096823194026090e-01 1.050350248468290559e-01 1.043249967293872760e-01 8.502807049494438829e-02 8.763605131782478685e-02 1.173800588671552597e-01 8.159147459790547230e-02 8.482965066129366516e-02 8.729316978934921478e-02 1.432455250178250317e-01 1.050787345768663394e-01 1.049544589680694584e-01 1.053637325497962102e-01 1.059680142702476707e-01 1.067870726579662199e-01 1.077672846476357416e-01 1.088658614311956152e-01 1.100808584867034451e-01 1.113817680898531726e-01 1.127391362223408716e-01 1.141207090826162895e-01 1.154403792082960845e-01 1.165847200728546834e-01 1.173872165395948991e-01 1.176594730407543588e-01 1.241001232185404979e-01 1.449560413658116664e-01 1.432359813546990879e-01 1.447072898344335112e-01 1.470502905918865399e-01 1.494875996935654816e-01 1.512929345915099422e-01 1.530181634855478645e-01 1.622687924684860228e-01 1.582121231967584252e-01 1.587561145157613263e-01 1.574116806867522367e-01 1.550258862477288113e-01 1.524254752873485108e-01 1.498139933086094777e-01 1.472587598654111207e-01 1.447624053735693250e-01 1.423357022957015550e-01 1.400011994690526784e-01 1.377497231793507193e-01 1.356064957116117908e-01 1.335775593082499380e-01 1.316438283895866035e-01 1.298043659193223454e-01 1.280605147466483407e-01 1.264298679791071855e-01 1.249065495938192216e-01 1.234676664508599642e-01 1.220935092405268929e-01 1.209780143588534973e-01 1.194946666288365239e-01 1.176886436233321453e-01 1.159939585848943633e-01 1.139617127595087820e-01 1.124225835999816542e-01 1.106388525482144281e-01 1.107332209629891540e-01 1.187673250205708575e-01 1.486096029428740917e-01 9.114836912895915577e-02 9.457751940039872685e-02 1.091479066967920297e-01 1.089503183738834979e-01 1.090446046101422733e-01 1.090841612362886820e-01 1.090754578125940760e-01 1.090472130779606003e-01 1.090313384520090606e-01 1.090623078641430183e-01 1.091595259327730605e-01 1.093177530089733396e-01 1.096103604932693321e-01 1.106586800126183046e-01 1.261412969628837588e-01 9.103442849879883614e-02 1.572094186732437282e-01 1.142334258298268318e-01 1.169309191516968993e-01 1.189669349944999510e-01 1.204244774377470489e-01 1.211391367800944280e-01 1.214991960616403771e-01 1.218718681751392308e-01 1.222920912930583609e-01 1.225552537724794999e-01 1.223686399596382035e-01 1.221830859929061291e-01
1.058231188670302886e-01 1.055837780412491461e-01 1.050100208509146954e-01 1.499581307097733185e-01 1.034699417355008366e-01 1.042143337445102652e-01 1.048988229204591421e-01 1.056235819247828556e-01 1.063500417686036592e-01 1.070321479046731361e-01 1.076067604228955893e-01 1.079861917756712447e-01 1.080514558052402124e-01 1.076477109281960970e-01 1.065886448947862553e-01 1.046792243391517635e-01 1.050136178859012032e-01 1.065897672137521152e-01 1.073804238298057545e-01 1.206787630626709462e-01 1.063588865203827921e-01 1.063491215132124357e-01 1.061498589878805965e-01 1.058724422616856842e-01 1.055325731253201060e-01 1.367824762046913889e-01 1.046511499516683125e-01 1.042519591715828087e-01 1.037598279989038752e-01 1.031462180274891338e-01 8.346283856246516919e-02 8.640577247677810879e-02 1.170246353183974630e-01 8.036622935859469297e-02 8.357599258658393593e-02 8.543250315340407408e-02 1.423377308098839611e-01 1.041927802741930975e-01 1.042907047224108652e-01 1.044183695400149187e-01 1.049409408454637926e-01 1.056893421289643725e-01 1.065493424142190532e-01 1.074996267507376396e-01 1.085114192975502601e-01 1.095573407102335556e-01 1.106045498623082352e-01 1.115755896975573203e-01 1.123701016212967779e-01 1.128453748794714245e-01 1.128374304081790624e-01 1.189973198284612760e-01 1.393196180783908000e-01 1.370090421801382907e-01 1.383399750923990645e-01 1.407405193593405657e-01 1.435062944507579374e-01 1.459858929718500509e-01 1.475770062311691500e-01 1.491814125423031601e-01 1.536372493171910270e-01 1.617029879863312869e-01 1.555728979107517673e-01 1.546996754448392020e-01 1.522245380083462885e-01 1.497580732290092753e-01 1.472633359352137905e-01 1.448042716350926296e-01 1.423925062691374366e-01 1.400467748258236445e-01 1.377805935035742446e-01 1.356169339869693069e-01 1.335503954660371140e-01 1.315983071641064484e-01 1.297613037453520246e-01 1.280197002074635326e-01 1.263687183553361126e-01 1.248059218435836892e-01 1.233419038441302268e-01 1.219675186956843405e-01 1.206596449472591842e-01 1.194013296579721495e-01 1.183892993951997652e-01 1.170090068900312280e-01 1.153206356184352244e-01 1.137708038481036743e-01 1.119346315164385097e-01 1.106002761462085843e-01 1.091559433703109677e-01 8.945916048091914763e-02 9.002372334909897189e-02 1.489335075991216617e-01 9.586007654205437600e-02 1.075238248272007840e-01 1.079144752262639201e-01 1.081992164652434973e-01 1.082247988420983742e-01 1.081766657167923529e-01 1.080973088770551399e-01 1.080201872958437836e-01 1.079952499770521768e-01 1.080592305275264731e-01 1.081626882436228371e-01 1.081416513204671859e-01 1.100977430769317089e-01 1.510587679979121245e-01 1.483034333127126458e-01 1.097841447688980010e-01 1.105593832301007273e-01 1.119470099298120469e-01 1.133479699937615659e-01 1.143475634586342687e-01 1.149504099168118798e-01 1.153982583102932669e-01 1.158234958457649288e-01 1.161524756134632019e-01 1.161239464613583600e-01 1.209089564449392223e-01 1.198516347005412763e-01
1.040169622804396898e-01 1.037053330040141746e-01 1.029703169082488157e-01 1.496999856756248970e-01 1.025394491799381802e-01 1.032320995674668451e-01 1.038340956204767962e-01 1.044624443644824319e-01 1.050804030686795926e-01 1.056422429588945305e-01 1.060859991157145910e-01 1.063267597807736886e-01 1.062504110727982981e-01 1.057083884264365531e-01 1.045205133794433472e-01 1.025236422455639423e-01 1.029384625376668638e-01 1.046164837839880235e-01 1.055292719447820105e-01 1.059087974931777199e-01 1.194226053957499478e-01 1.046295074392752239e-01 1.046223740133251923e-01 1.045277185619957888e-01 1.043445233892698332e-01 1.364416465374143350e-01 1.035556938015284034e-01 1.031084107406034511e-01 1.026177541405259852e-01 1.020702799533191735e-01 8.201374443477606191e-02 8.519348108021045085e-02 1.166205243837921818e-01 7.951572152764507795e-02 8.324951968054417062e-02 8.291565093507340112e-02 1.405716349372443941e-01 1.039556213106687388e-01 1.029886616239619052e-01 1.031912952215090495e-01 1.038511669918201763e-01 1.045654347258450079e-01 1.053160533099767593e-01 1.060944390316305164e-01 1.068826975701667736e-01 1.076487529180329555e-01 1.083192245639776063e-01 1.088003657952461289e-01 1.089650094135229258e-01 1.086681344307115771e-01 1.144871549864559523e-01 1.339725960997036613e-01 1.311495160718975650e-01 1.322987751810734136e-01 1.346048139205236749e-01 1.374048998412811806e-01 1.401345671952626826e-01 1.422469788618217768e-01 1.442877571775031675e-01 1.465890110036489336e-01 1.492663970787972694e-01 1.521985243730925585e-01 1.599954078903608190e-01 1.522457174780201261e-01 1.490648628911324935e-01 1.470399638733216885e-01 1.446699020484468190e-01 1.423634289808554665e-01 1.400288754181462092e-01 1.377635492008011942e-01 1.355677270258836831e-01 1.334688530103646520e-01 1.314851583654418343e-01 1.296123821570513701e-01 1.278573601587889852e-01 1.262135417673518334e-01 1.246604471914718459e-01 1.231913471439134711e-01 1.217999403265929842e-01 1.204888002000776281e-01 1.192450481609396706e-01 1.180477805344851278e-01 1.168887287947935061e-01 1.159734344850862214e-01 1.147051580469576892e-01 1.131573542898480639e-01 1.117716991892488965e-01 1.101247151946925240e-01 1.090419128351229339e-01 1.085602028989464396e-01 8.823593708673854730e-02 8.590871115541147407e-02 1.421968500430495219e-01 8.389580866963734784e-02 1.074808361342037416e-01 1.074731151805767837e-01 1.074022987371137661e-01 1.073000580710255919e-01 1.071616508942139917e-01 1.070132219000032303e-01 1.069309944244164062e-01 1.070014716093202339e-01 1.071556411080518550e-01 1.056916372561074180e-01 1.418644851015563868e-01 1.035836440947666415e-01 1.034766111385845289e-01 1.067899744959350666e-01 1.084658463013064705e-01 1.097419680210939136e-01 1.107756747802755015e-01 1.115529582909903505e-01 1.121458823812512134e-01 1.126394469191280695e-01 1.130072948403962052e-01 1.130525350247013061e-01 1.193321180993462127e-01 1.189409453848553622e-01 1.185054986866340559e-01
1.024178942950367405e-01 1.021524735327535016e-01 1.016154278122548410e-01 1.494346853455915392e-01 1.016438512366514835e-01 1.022876276828120351e-01 1.028204639910178381e-01 1.033660486614782492e-01 1.038883607501548401e-01 1.043408055977140814e-01 1.046614162913990786e-01 1.047681611964102200e-01 1.045535746721878989e-01 1.038783842021643866e-01 1.008642410004488427e-01 1.017730966107947277e-01 1.009645922793986766e-01 1.027513567869321326e-01 1.037873507731458950e-01 1.043003149399097940e-01 1.044696063135275577e-01 1.180997777532800663e-01 1.031517302642676048e-01 1.032022562955053485e-01 1.031533887125753862e-01 1.360488521540253459e-01 1.025284249965119909e-01 1.020564361691739114e-01 1.015760793377928906e-01 1.010618797632112653e-01 8.063118008320208085e-02 8.398439184018252623e-02 1.158610652128498897e-01 7.884089877035549421e-02 8.499262707010397933e-02 8.618702011433965193e-02 1.454536263695375975e-01 1.007852121086803276e-01 1.008465400023242364e-01 1.021279705708538210e-01 1.028574456936990900e-01 1.034740803757077388e-01 1.040677864285701609e-01 1.046481967402697055e-01 1.051878908811974683e-01 1.056131689932652273e-01 1.058283809144321408e-01 1.057115968071114243e-01 1.051297704791072374e-01 1.105633151856922486e-01 1.289982011073028401e-01 1.257001142658746851e-01 1.266239286169430212e-01 1.287335623208965274e-01 1.314201733241442127e-01 1.341560631974543227e-01 1.364776131091068878e-01 1.391316275244063316e-01 1.426248329660957381e-01 1.446920928777704340e-01 1.466853877826951313e-01 1.484586222395279653e-01 1.518336974377662296e-01 1.591039919517466261e-01 1.599082634711590512e-01 1.451969902075440355e-01 1.422245873576584163e-01 1.401004706174284464e-01 1.377020554515648865e-01 1.355108049386762881e-01 1.333541114012835871e-01 1.313172081347119546e-01 1.293941909502209497e-01 1.276082964088361693e-01 1.259426825397886029e-01 1.243895383778089725e-01 1.229358293962675985e-01 1.215658595493943062e-01 1.202724331403189767e-01 1.190407477879222853e-01 1.178626560300192888e-01 1.167240447854586693e-01 1.156132066051560603e-01 1.145391256080335873e-01 1.137181329724431395e-01 1.125607135704010803e-01 1.111230102325502928e-01 1.097877797543829054e-01 1.080367700009883941e-01 1.063252513833399943e-01 1.062899901884978571e-01 1.088804711050432028e-01 1.462587323571377662e-01 8.582502356985000080e-02 1.071005645282753771e-01 1.067202942477159522e-01 1.065804360072473422e-01 1.064410979569301308e-01 1.062433955821978498e-01 1.060062928581078368e-01 1.058454702744683340e-01 1.059582807155498990e-01 1.069381580052470720e-01 1.066815151891975372e-01 1.548274414231255169e-01 1.075026988961945984e-01 1.060253652839038968e-01 1.062897158870986652e-01 1.069851412450471689e-01 1.077350502235988605e-01 1.084162856779473660e-01 1.089969877542592003e-01 1.094820204975368583e-01 1.098273432269750161e-01 1.098568640192134488e-01 1.175267588964738902e-01 1.175836685679977622e-01 1.178147495556526869e-01 1.158528367914997831e-01
1.083434684450008262e-01 1.007598716158272234e-01 1.003860185824810430e-01 1.491301070706961551e-01 1.007938777173867789e-01 1.013838522921476637e-01 1.018578975332096181e-01 1.023358477884350193e-01 1.027782567264130115e-01 1.031341185748776285e-01 1.033383028907401135e-01 1.033120766426020298e-01 1.029587870037211028e-01 1.005543601465200415e-01 9.896165119675927324e-02 1.008511084721192691e-01 9.909158754477735698e-02 1.009885375855683887e-01 1.021479241259233145e-01 1.027934922011674579e-01 1.030955162639811545e-01 1.031770576052889465e-01 1.167747022216666236e-01 1.018969553464858235e-01 1.019529828265840071e-01 1.355873964423142120e-01 1.015612253303366519e-01 1.010918953013928978e-01 1.006132212745653454e-01 1.000920372273002290e-01 7.927074866022926214e-02 8.274377306103947172e-02 1.147864253803909940e-01 7.734359548156560793e-02 8.201282161055362119e-02 1.480114003864309025e-01 7.660394489582722510e-02 1.005758180424800446e-01 1.009694317183249396e-01 1.015053269377683143e-01 1.019629337727876311e-01 1.023859739571068295e-01 1.027909790186375405e-01 1.031511032490542989e-01 1.033878623194165319e-01 1.033951548087010813e-01 1.030441836890195612e-01 1.022029530734249736e-01 1.072414341551658074e-01 1.245066085767733005e-01 1.207817477166562431e-01 1.212937053406222820e-01 1.231975527612461790e-01 1.256598231508921915e-01 1.282885344105110514e-01 1.306291139511176480e-01 1.336086973124026578e-01 1.378215084284595549e-01 1.411275740757503838e-01 1.430739962697819556e-01 1.449982256403310188e-01 1.465622032217189508e-01 1.468709882233091013e-01 1.460390165813162111e-01 1.454453495345180425e-01 1.572924905876994794e-01 1.565180859338315411e-01 1.386120419269260551e-01 1.353750672175594583e-01 1.334164935666705409e-01 1.311386384433951002e-01 1.291653082516111273e-01 1.272768551299776341e-01 1.255671293008901734e-01 1.240058658809075481e-01 1.225598739753721578e-01 1.211995661470164215e-01 1.199254300485264046e-01 1.187367850674969499e-01 1.176141548309823648e-01 1.165221905482281967e-01 1.154438222341253734e-01 1.143729780380603328e-01 1.133202586671087780e-01 1.123204080513166281e-01 1.115894303144472216e-01 1.105150624674023363e-01 1.091030222818496070e-01 1.076629202095462090e-01 1.056335671539272020e-01 1.036513200500021742e-01 8.382381777518393973e-02 8.482028096278218521e-02 1.448385953744942556e-01 1.056344957428226317e-01 1.058207831481919325e-01 1.057506975266288979e-01 1.056120293470063087e-01 1.053590533562499543e-01 1.050038447967376887e-01 1.046982400216442954e-01 1.045458696544837029e-01 1.068176694268617999e-01 1.541632992157101478e-01 1.027405692726016534e-01 1.043431235289579012e-01 1.046241290633376092e-01 1.049125327066960378e-01 1.052940806119572054e-01 1.057085186942796490e-01 1.061043517335125419e-01 1.064484982566952231e-01 1.066744910341109742e-01 1.066023953005004743e-01 1.155861910010519966e-01 1.159164428846434503e-01 1.165866394580071796e-01 1.154807266896561713e-01 1.146726115472607860e-01
1.004797691728908648e-01 1.066177223892734588e-01 9.916614570082168956e-02 1.487246516147752717e-01 9.997219998074473313e-02 1.005165185179888038e-01 1.009454656149237073e-01 1.013747382509353340e-01 1.017585805967087254e-01 1.020346915472128413e-01 1.021261001486973297e-01 1.019600123566341970e-01 9.990552182119379065e-02 9.886631444471621899e-02 9.712425226758361618e-02 9.988587784315182405e-02 9.731588505178413728e-02 9.932225512114449539e-02 1.006042999714068797e-01 1.013839291637370910e-01 1.018236685512690642e-01 1.020308238394976863e-01 1.020550341743173273e-01 1.153541552164214501e-01 1.007099694036522053e-01 1.350205150517256036e-01 1.006714962651892864e-01 1.002357639802566314e-01 9.970101570759787313e-02 9.911886152399990157e-02 7.785432430119949843e-02 8.147508326567060033e-02 1.139853855558897594e-01 7.579839968431474617e-02 7.995017893359790406e-02 1.420507248481330531e-01 1.001383178620958714e-01 1.004423689646810197e-01 1.005973939122867949e-01 1.007947980266954285e-01 1.010137693423647925e-01 1.012518244526885991e-01 1.014661726919005580e-01 1.015628569249524826e-01 1.014166394186685055e-01 1.008786120799590735e-01 9.981421113898157615e-02 1.044701632281369030e-01 1.205952807400966498e-01 1.164294618129715631e-01 1.166480881755734417e-01 1.174761552233683504e-01 1.203284701541115914e-01 1.226146654449358081e-01 1.250314702548094847e-01 1.280631758180047208e-01 1.325004569060951043e-01 1.364840741915702427e-01 1.396294410859549584e-01 1.417222399147439471e-01 1.437580182323074940e-01 1.463164048800669748e-01 1.467172503489147795e-01 1.459851466002288489e-01 1.446513812478100736e-01 1.425441625164576287e-01 1.410200352071859509e-01 1.546494538405867591e-01 1.533709552814619126e-01 1.321718215074446090e-01 1.288218957070777215e-01 1.271464138078940431e-01 1.251139602367875303e-01 1.234931038351936294e-01 1.220227484526804906e-01 1.207257246750123025e-01 1.194710941142251015e-01 1.182647195824307329e-01 1.171722153947702544e-01 1.161804585794287414e-01 1.152149344811327358e-01 1.142219392625192925e-01 1.131875359522107605e-01 1.121314049538152252e-01 1.111127566133559841e-01 1.101947507488784672e-01 1.095559614332632797e-01 1.085329377800086370e-01 1.070972538605736157e-01 1.055572160959733496e-01 1.034509823299737397e-01 1.015189407706581504e-01 8.134534022353555327e-02 8.290595766980085601e-02 1.441172096574023509e-01 1.047671889996634187e-01 1.049734630711281480e-01 1.048484968544057677e-01 1.045446669102743364e-01 1.040346099130475405e-01 1.035771589310653246e-01 1.019783973878306826e-01 1.407533888744471051e-01 9.997789196036493964e-02 1.017188560396039415e-01 1.026802882098785674e-01 1.030263418811857012e-01 1.032010967502177134e-01 1.033468749670395925e-01 1.034840253550044775e-01 1.035884388522792243e-01 1.036070357463154679e-01 1.033554765968968392e-01 1.136066891409992785e-01 1.140713549129586668e-01 1.150033445699855106e-01 1.144399927106641290e-01 1.126303502103055687e-01 1.151556680864330995e-01
9.933998020416261177e-02 9.907633689335017257e-02 1.045461682117816010e-01 1.483452858646967798e-01 9.917146612803601213e-02 9.967599015567757403e-02 1.000845009221176252e-01 1.004861338969273987e-01 1.008468488944418429e-01 1.010699204083136682e-01 1.010409310700483287e-01 9.918460707572772372e-02 9.844141214522210415e-02 9.722766432998758424e-02 9.534424927510563863e-02 9.891585493820691244e-02 9.563467173113045228e-02 9.774517979522719113e-02 9.914689524342901183e-02 1.000618584177595943e-01 1.006480091764975215e-01 1.010056165917281867e-01 1.011674641716574369e-01 1.010616302873633549e-01 1.131175998855138282e-01 1.347714691816843668e-01 9.990134676131601221e-02 9.950719274560933247e-02 9.874631422639706946e-02 9.818032011307235851e-02 7.621570240366890014e-02 8.010587507681539432e-02 1.135296260999701795e-01 7.431338495784271803e-02 7.825190025152524431e-02 1.399842114660049541e-01 9.985255999318333464e-02 9.997539155897762486e-02 9.991999687827554655e-02 9.989114594075129694e-02 9.995214152834756838e-02 1.000577731968166351e-01 1.000684503285207694e-01 9.983060523886459758e-02 9.914739462506673429e-02 9.783972570847622452e-02 1.021082165723016105e-01 1.169602294286008065e-01 1.127832573003180877e-01 1.119921211291961954e-01 1.136663702579031460e-01 1.305006105618148893e-01 1.302950049163320578e-01 1.312140103339088648e-01 1.322375185087371618e-01 1.337865966062700140e-01 1.353154624377011506e-01 1.367645011364578556e-01 1.382524261285975054e-01 1.406331560295921157e-01 1.429014519788671111e-01 1.450170892593737881e-01 1.455348203274940133e-01 1.448284667713842233e-01 1.433111093473631026e-01 1.412189741706962876e-01 1.388837419361454162e-01 1.360549706788350133e-01 1.344583798236006211e-01 1.515099462245014239e-01 1.501205392428830443e-01 1.261034445057067910e-01 1.227656496744978371e-01 1.214914821923960969e-01 1.199391895154165444e-01 1.188949361225206669e-01 1.177979957335463512e-01 1.165946027049375167e-01 1.155297344574577612e-01 1.147051874085733836e-01 1.139152461522665027e-01 1.130604842447390929e-01 1.120949631711043726e-01 1.110107709209225552e-01 1.099009403819661695e-01 1.089416446465854560e-01 1.081639777425608684e-01 1.076293078606087861e-01 1.066523280485517228e-01 1.052275006721621886e-01 1.037167592959116480e-01 1.017145111134888230e-01 9.994520781906310325e-02 7.928977852067722876e-02 8.110063135861282635e-02 1.427545536894747613e-01 1.040671085118341638e-01 1.041901457775045031e-01 1.038511593095337998e-01 1.031145081652763418e-01 1.030868277915774761e-01 1.030305146211102363e-01 1.557256358717697686e-01 1.046129005217801833e-01 1.026193979736365613e-01 1.018162499666920295e-01 1.014647842448078569e-01 1.012597990106882534e-01 1.010995650354160197e-01 1.009249285695624221e-01 1.006588295873696998e-01 1.001802681791379712e-01 1.116878661884624507e-01 1.121747332281931020e-01 1.132198740426159089e-01 1.129759014453270149e-01 1.101644763498213914e-01 1.132610662946887531e-01 1.154483979089154372e-01
1.024401383598561727e-01 9.817109148876446145e-02 9.804651694871453771e-02 1.482471716594469802e-01 9.834665001519157790e-02 9.883396838726733746e-02 9.930099991733673526e-02 9.964513130912378003e-02 1.000941352228929965e-01 1.003036914267741997e-01 9.859747794363309115e-02 9.798370450984146551e-02 9.700719751004324709e-02 9.562367554426327854e-02 9.361504485800016540e-02 9.793497837057862920e-02 9.404256519817810744e-02 9.624503716557261668e-02 9.776133259701577649e-02 9.881032446542192815e-02 9.954585262726817207e-02 1.000690321998837229e-01 1.004298602292604259e-01 1.006471069141706143e-01 1.007405227580155799e-01 1.359786619980707101e-01 9.917682224651369616e-02 9.879516326714610219e-02 1.000530052630526634e-01 9.782919015994748224e-02 7.412626859596500861e-02 7.848395436172350692e-02 1.132377603733293187e-01 7.292895888480015187e-02 7.653441538398383925e-02 1.383059441158032976e-01 9.931339848448558771e-02 9.926012481767695905e-02 9.894362018655770974e-02 9.875246896525965989e-02 9.879491832124707995e-02 9.882667091346025723e-02 9.857935707626525046e-02 9.788962377824916850e-02 9.638845105768201194e-02 9.999179357403729929e-02 1.137474567664144565e-01 1.085993844640242845e-01 1.095194995861589193e-01 1.298846669652876651e-01 1.295334568674406106e-01 1.141090619652664895e-01 1.154232147728665031e-01 1.179459426652783166e-01 1.210977586097948255e-01 1.247505813834438176e-01 1.285259820340713122e-01 1.322291559829139318e-01 1.357462159500485155e-01 1.398448233171667721e-01 1.423616192675613845e-01 1.446409235031560214e-01 1.453168383149692766e-01 1.447091481451066031e-01 1.431996054301721555e-01 1.411004263074729925e-01 1.386560527964108280e-01 1.359719044427165346e-01 1.332991398452303689e-01 1.301392736216024637e-01 1.286359003023452574e-01 1.480595651191894124e-01 1.467710587170263370e-01 1.204565090888213980e-01 1.173917703634645843e-01 1.170951882785816328e-01 1.163477884934420725e-01 1.150371009950498929e-01 1.136697607990794917e-01 1.131347095708898770e-01 1.126077832108937637e-01 1.119459447659731793e-01 1.111295184817831933e-01 1.100777849353613141e-01 1.087375712386696169e-01 1.075595764721272857e-01 1.068786208679114308e-01 1.062873353198306586e-01 1.058570915272372404e-01 1.049323550054138965e-01 1.035884505969378866e-01 1.022144292410816918e-01 1.004071520868057149e-01 9.886402301614720389e-02 7.740630358330424787e-02 7.704700183710405659e-02 1.407641963632500215e-01 1.034609915494274363e-01 1.033481214879893167e-01 1.019466277192206394e-01 1.023575988078949950e-01 1.546235412839781775e-01 9.844793604781094942e-02 9.920509877400739140e-02 9.873725734095406548e-02 9.815689415254820471e-02 9.759684676121430091e-02 9.703566003957253550e-02 9.638783294734519502e-02 9.544760631469439982e-02 9.715216997298758983e-02 1.099589076261386078e-01 1.103436362215419603e-01 1.113776725675163642e-01 1.112781448754619484e-01 1.091837112095408041e-01 1.089247135316924187e-01 1.136860309534671459e-01 1.156477484457395788e-01
9.892950873354265651e-02 1.010957733378898826e-01 9.708555722451323033e-02 1.477787169623420438e-01 9.747066052801273139e-02 9.787264279990173788e-02 9.883005922802752530e-02 9.849687397656749221e-02 9.979401794764253264e-02 9.830930403820725694e-02 9.774596265933557793e-02 9.682261416341086946e-02 9.553459558594255829e-02 9.403651383181789447e-02 9.194410707964116580e-02 9.743293844782199842e-02 9.250410538941483685e-02 9.479665311637031078e-02 9.642800825728130298e-02 9.760916407844952292e-02 9.848832427323421512e-02 9.916504231701779581e-02 9.969357875157996984e-02 1.001010447975853590e-01 1.003361989416710065e-01 1.365197688372472851e-01 9.835046085550791517e-02 9.906299875312132852e-02 7.997719113145183856e-02 1.043885913454578873e-01 7.139285898610556180e-02 7.640536807980380374e-02 1.128749456938480389e-01 7.205952348491978521e-02 7.437058257385746607e-02 1.359590548694049328e-01 9.859575262970231291e-02 9.838094679898623518e-02 9.743995323159675148e-02 9.741505208843946606e-02 9.767700024112040136e-02 9.766435069334675201e-02 9.693553122243429854e-02 9.571462590073065435e-02 9.896891123817749825e-02 1.099602083669857927e-01 1.068598273568815427e-01 1.317795315982414339e-01 1.332497276261358221e-01 1.158466447602210236e-01 1.165849258811828132e-01 1.190422059962960022e-01 1.213990500103392656e-01 1.242031750721907246e-01 1.274136347135036706e-01 1.308925135729017697e-01 1.344346545831463235e-01 1.377438688149116852e-01 1.403005245597179762e-01 1.401030199784506214e-01 1.421926836742319622e-01 1.445192568820160284e-01 1.452842295079748991e-01 1.447556705071445238e-01 1.432890652190495773e-01 1.412059728602150510e-01 1.387555398589049582e-01 1.360971151583802996e-01 1.333434968739991011e-01 1.305435088692832035e-01 1.273297273158081055e-01 1.240336067681965110e-01 1.230209870381203663e-01 1.443174855596750239e-01 1.417836531739519734e-01 1.154746387872742225e-01 1.152562258954014374e-01 1.144330655734094454e-01 1.109387695429691345e-01 1.114419232746941407e-01 1.113354262185278221e-01 1.108758502203630036e-01 1.102552507976371915e-01 1.094675651054748677e-01 1.080769953391357563e-01 1.057146947230789141e-01 1.054817470925109718e-01 1.050359727505248975e-01 1.046546517896829731e-01 1.042383767432844277e-01 1.033830218543452528e-01 1.021870143187994656e-01 1.010100961330831909e-01 9.946879510514783362e-02 9.815277044447912047e-02 7.800273169722608813e-02 7.525125135219941364e-02 1.379867803744768417e-01 1.030959071041161190e-01 1.003091592820285483e-01 1.524768141259621457e-01 9.617616396596331829e-02 9.646099379843403598e-02 9.642340593097636914e-02 9.605901496960721209e-02 9.547986638460877196e-02 9.476206354394627052e-02 9.389944081299705925e-02 9.270632288072852556e-02 9.665124969841999703e-02 1.083696103820930567e-01 1.086376992441530076e-01 1.095836865826448625e-01 1.095006075740838497e-01 1.077599354884648530e-01 1.059971479371891595e-01 1.097646320837123018e-01 1.139583459623211559e-01 1.157633288497891544e-01
9.809245264356226957e-02 9.733411295187939516e-02 9.946208580276733047e-02 1.472347206426851407e-01 9.652650774240130460e-02 1.059973244673464016e-01 9.724410679812876823e-02 1.140216321414536244e-01 1.111556286650242087e-01 1.074748387178981607e-01 1.022657496074668021e-01 9.567704424375857164e-02 9.376790159268511005e-02 9.249425702608116140e-02 9.038394315983247496e-02 9.030071887799286101e-02 9.978274669425245269e-02 9.336370755908443564e-02 9.512684110376233571e-02 9.644162304365154481e-02 9.745557536797051779e-02 9.826586684116447867e-02 9.892521255587999329e-02 9.946412129649991052e-02 9.985741903973763267e-02 1.373433581606253451e-01 9.752566589320034451e-02 9.763750831855948220e-02 7.600646044333271567e-02 1.106123549683076246e-01 6.796985302762359460e-02 7.361533715790126442e-02 1.121714289345900756e-01 7.275294868817565319e-02 7.686161059053725486e-02 1.416781897863329809e-01 1.050172511786792717e-01 9.536024161215295170e-02 9.544317056954634837e-02 9.620365422271939804e-02 9.701454061673908669e-02 9.697994725665487481e-02 9.505523757737910362e-02 9.926696215762539910e-02 1.094472106883195850e-01 1.333656210282358201e-01 1.341125378096230392e-01 1.095116116521906852e-01 1.092496616226250467e-01 1.114132674531688877e-01 1.131141271983638064e-01 1.152688378291756854e-01 1.177986637698674316e-01 1.207376291985654132e-01 1.240440360337502351e-01 1.276369599273907418e-01 1.313468191007377550e-01 1.349251943153561284e-01 1.380214923557646634e-01 1.401741275609183213e-01 1.423430242716816341e-01 1.446871012534670653e-01 1.454990613600371796e-01 1.450196870574020636e-01 1.435886913537975373e-01 1.415311789488543082e-01 1.391149301480077982e-01 1.365191419478930801e-01 1.337875328273840925e-01 1.320380189110594016e-01 1.440733604494273956e-01 1.421528149065304503e-01 1.405867174772137129e-01 1.386466838765327558e-01 1.380340957787835332e-01 1.526994916757115905e-01 1.514961486258601386e-01 1.484222962954018232e-01 1.452251588106372449e-01 1.099988039738592632e-01 1.102438340483671564e-01 1.097994225778480548e-01 1.092488903338951350e-01 1.087873656505554121e-01 1.084996276649862479e-01 1.055768789844453021e-01 1.045198517808386268e-01 1.034052654057930759e-01 1.037659120393400053e-01 1.031648402834769301e-01 1.026735225315691391e-01 1.020294856065344646e-01 1.009568022933162723e-01 1.000619744343600737e-01 9.896199040885134135e-02 9.806666151153718702e-02 7.870782843924750694e-02 7.434582943292182555e-02 1.329724193715269009e-01 1.440004589734060481e-01 9.391031370642127785e-02 9.418214137614337733e-02 9.408228167616672355e-02 9.378135369206042071e-02 9.323272940816747234e-02 9.245270335379160431e-02 9.141794456077373399e-02 9.004047386547357756e-02 9.591491358282017154e-02 1.069285749506770911e-01 1.070750142497836621e-01 1.079016910374390320e-01 1.077593327893920788e-01 1.061608179213808234e-01 1.028662350381109869e-01 1.069912915041105334e-01 1.102577761541854856e-01 1.140995395956014846e-01 1.157930499319528572e-01
9.700363233278495867e-02 9.577320007251620415e-02 9.562200563933956343e-02 1.470212385086378803e-01 1.043707720370596476e-01 7.801931797897923571e-02 1.154376183211449636e-01 9.141362385704955573e-02 8.965729422433414697e-02 8.813267435916236070e-02 8.607997860112659438e-02 9.345185530364957804e-02 9.262127087695566641e-02 9.115295118376498529e-02 8.892365235240530519e-02 8.894055562130884218e-02 9.173819887049050603e-02 1.011925786072997990e-01 9.385115277099827236e-02 9.529957657640578117e-02 9.643845366707365363e-02 9.736257335077246056e-02 9.812025881564419294e-02 9.873107119916924024e-02 9.912571449671667145e-02 1.392790312656757568e-01 7.679870232313854017e-02 9.841159900651288983e-02 7.946297523405143615e-02 8.208071669610179921e-02 1.089210256251609277e-01 7.041269963812393784e-02 1.109437473010019409e-01 7.047103299119222841e-02 1.389612323789109205e-01 7.144786511217419978e-02 7.198508062590276702e-02 9.508607298044723100e-02 9.533564593386435748e-02 9.456743773689116339e-02 9.800295532986244562e-02 9.735144935184858461e-02 1.354367592301919387e-01 1.372399473729438990e-01 1.416799516106459489e-01 1.085595420053716148e-01 1.059680326004397988e-01 1.075678309413854727e-01 1.087791800530480552e-01 1.103935657337442866e-01 1.122692837330930837e-01 1.145482866443760517e-01 1.172449975691318147e-01 1.203415827385799219e-01 1.237889308323342763e-01 1.275006007259955054e-01 1.313261819544312148e-01 1.350214828974904413e-01 1.382575082153633672e-01 1.406702229792231307e-01 1.427703678583630564e-01 1.451199538684797008e-01 1.459664597762859728e-01 1.455172283945465883e-01 1.441041608087829107e-01 1.420678985409170314e-01 1.397234666010285231e-01 1.373736561985766380e-01 1.428359763629998003e-01 1.438572499540666794e-01 1.241891472233327270e-01 1.211568362279279026e-01 1.235246688138305626e-01 1.148235027527801377e-01 1.101408345658973914e-01 1.222359203529427840e-01 1.115631454732587957e-01 1.075565731521275076e-01 1.197212685252369985e-01 1.563231191866803482e-01 1.517769363835018703e-01 1.497254469786811482e-01 1.483790480160857850e-01 1.464537433088983209e-01 1.434365918867692713e-01 1.458733022912775679e-01 8.239504647718116914e-02 1.020571565828956723e-01 1.035190753997106139e-01 1.028525977199543084e-01 1.010743888635697030e-01 1.015516195923824444e-01 1.007453386331162576e-01 9.973382907219811855e-02 9.943219783676332524e-02 9.914565429464571034e-02 9.833895384863469702e-02 7.870209299003412540e-02 1.375402333314258985e-01 8.870935756585555942e-02 9.031547780041108975e-02 9.034695296237688078e-02 8.986168703845422157e-02 8.905370189066630360e-02 8.792546965536557346e-02 8.626729053224231614e-02 8.750015775335841239e-02 9.521607287874338243e-02 1.056813962345562602e-01 1.056866967343202540e-01 1.063724296333509733e-01 1.061262591766810592e-01 1.045723093345723581e-01 9.963682076950719502e-02 1.040055876713851524e-01 1.075932396326295670e-01 1.105309528105526823e-01 1.141150188372329066e-01 1.157370197860136118e-01
9.708996519150314697e-02 9.312756443135056239e-02 9.334242770783576781e-02 1.460622690171786697e-01 7.571801044072928866e-02 1.167260314513730163e-01 8.988839714404978087e-02 8.813512637401210714e-02 8.623366023191668395e-02 8.375543033883310617e-02 9.345453522424468362e-02 9.273188360760729887e-02 9.160819850278278942e-02 8.992767565254815298e-02 8.754720126413337300e-02 8.764383048211102367e-02 9.049305859476002023e-02 9.271196101247669574e-02 1.020083270037653311e-01 9.418254058172681464e-02 9.543584511109121093e-02 9.645679112309796244e-02 9.729284707864160886e-02 9.796108054432159373e-02 9.838204710552241050e-02 1.392548364341451572e-01 7.608566777285945271e-02 9.830404594577263344e-02 7.854424777185513296e-02 8.284347866778907221e-02 8.513716020210643221e-02 1.115315393621748863e-01 1.120195714756667127e-01 6.929788491222686753e-02 1.305729704832928606e-01 7.389972849140967470e-02 9.505211421645208547e-02 9.579175619907767669e-02 9.538828540767885222e-02 1.345735737402789789e-01 1.361606606883021264e-01 1.415548947866577256e-01 8.714466785646897418e-02 8.308556454552595838e-02 8.502464339501834834e-02 1.150288064669914845e-01 1.126952084227350465e-01 1.062743188773175307e-01 1.070543095282890517e-01 1.086154647656381728e-01 1.106446504601219377e-01 1.131024351036295228e-01 1.159833220249608110e-01 1.192685401905121401e-01 1.229098356974608897e-01 1.268129111324450553e-01 1.308175997258263779e-01 1.346704172319867499e-01 1.380358922257889087e-01 1.414101194004655504e-01 1.434775625624053197e-01 1.451417064244590605e-01 1.459333963049791738e-01 1.454471558864458558e-01 1.439945042785877316e-01 1.419106542277607796e-01 1.395045358569241556e-01 1.431659445573721934e-01 1.351369471452268933e-01 1.272021159636168297e-01 1.242015468960748631e-01 1.266531765693148515e-01 1.175107460931789638e-01 1.120556778183080110e-01 1.266826283573755929e-01 1.158806723159213070e-01 1.122755788951917966e-01 1.177442932923018076e-01 1.127452743820506059e-01 1.089792950799264304e-01 1.060520550036355703e-01 1.107865129276438404e-01 1.027729021808916204e-01 1.000452496592720425e-01 1.018485017573046297e-01 1.107345706120147072e-01 1.503092434049117798e-01 1.466680425383749820e-01 7.982329083389913538e-02 1.038411924831111888e-01 1.010212486284806366e-01 1.012288479078503056e-01 1.008083325912630529e-01 9.861267124894905478e-02 9.874087083491163430e-02 9.904132252410008386e-02 1.014775041589149746e-01 9.985118563946822345e-02 1.498122907717902297e-01 9.214237476000904092e-02 8.968642460470598043e-02 8.825339753462017878e-02 8.704915222619008519e-02 8.566871907132744823e-02 8.387682162657414398e-02 8.793518094670139951e-02 9.457049385063219515e-02 1.046347691047766759e-01 1.044965940033281415e-01 1.050308993525199686e-01 1.046457276795549202e-01 1.030456251471258827e-01 9.660746184067059428e-02 1.009000748899736566e-01 1.047211543313930210e-01 1.079441963291935258e-01 1.106260345347204882e-01 1.140075840988387795e-01 1.155858373286233753e-01
1.238787961690220735e-01 1.266923833281059508e-01 9.088594491818496879e-02 1.462467372083466610e-01 1.154190619154815273e-01 8.837297763633045200e-02 8.640551939465355991e-02 8.413278779422628251e-02 8.161832903074915657e-02 9.375395949349535352e-02 9.296847416769837835e-02 9.200020341008460778e-02 9.064596319591844420e-02 8.876705686662708650e-02 8.623154266323160289e-02 8.639311946134239917e-02 8.930386862055178510e-02 9.159869457024256978e-02 9.340026762039320418e-02 1.024802235255935223e-01 9.445216589353133685e-02 9.555329723402677944e-02 9.645085018129022358e-02 9.716769327287129443e-02 9.762442552782302219e-02 1.392561369796893322e-01 7.525031163728174155e-02 9.799415051297162560e-02 7.706847293989968484e-02 8.202608560996312026e-02 8.595259121121651136e-02 8.874554570289693023e-02 1.297888811081634730e-01 7.099159105747686327e-02 1.360970376308462959e-01 1.248081353063597715e-01 1.299788997877026342e-01 1.337485089842587460e-01 1.392769251270500330e-01 8.594865040037311110e-02 7.888492079234572796e-02 8.096311188796609382e-02 1.059582433644485067e-01 7.979230370213201418e-02 8.073182236428318170e-02 8.248039135033388702e-02 8.551988678058558557e-02 1.061873231094163927e-01 1.064678077345444507e-01 1.086585012352968005e-01 1.110526781607997643e-01 1.137899226430715838e-01 1.169170478428315230e-01 1.204315579782244267e-01 1.242856207507114646e-01 1.283697799777990811e-01 1.324855071320709121e-01 1.363622288009722072e-01 1.396895265760291494e-01 1.429935858926586478e-01 1.445578395361803992e-01 1.458515489209247507e-01 1.466301352915960476e-01 1.461529726737781087e-01 1.447143093542236636e-01 1.426403987136335150e-01 1.431934155420005739e-01 1.381771397059914086e-01 1.310261845624220711e-01 1.276493751508782082e-01 1.299395717328109545e-01 1.205787999981374342e-01 1.144340770940567298e-01 1.301808133533618739e-01 1.190939523731142646e-01 1.152051239683729300e-01 1.198412177919717936e-01 1.124923923392105868e-01 1.109556950810388909e-01 1.084298451721766865e-01 1.139929823860008073e-01 1.052137156420716729e-01 1.033567530519176741e-01 1.080817972601270105e-01 1.030246999951412445e-01 1.034238912132864618e-01 9.729815115139399395e-02 1.040169132109837191e-01 1.550160177762932578e-01 1.449307899525736631e-01 1.451166479049551816e-01 7.677049602162770714e-02 1.016279104723768062e-01 9.952335819602398104e-02 9.834539635974508254e-02 9.735375783821643980e-02 9.643559496085032934e-02 1.420758032848918051e-01 8.302574284649986980e-02 8.508869514661503153e-02 8.432287047288254678e-02 8.276553267619109200e-02 8.066620655382272798e-02 8.179127408181829928e-02 8.809512504806078781e-02 9.403362836840864492e-02 1.037622971940537903e-01 1.035003744338163223e-01 1.038968039586279091e-01 1.033653883820655761e-01 1.016591755031768796e-01 9.599963725218176036e-02 9.535863535713523520e-02 1.017771237057470135e-01 1.051796413873603425e-01 1.080997856738105806e-01 1.105675475296312715e-01 1.137807317260361162e-01 1.153076855625449204e-01
8.514908308051966079e-02 8.762619807162076724e-02 1.247631461557828780e-01 1.480767726251952521e-01 8.346224593938718350e-02 8.135649852870950605e-02 7.831985408193253839e-02 9.473523095832843410e-02 9.344972532757976624e-02 9.307582137423725532e-02 9.238882013409085991e-02 9.126125018874434169e-02 8.970823199495582545e-02 8.764443229343356345e-02 8.495978137603305003e-02 8.517929149590885984e-02 8.816227157556025262e-02 9.054137819357875594e-02 9.242960003561756510e-02 9.393569267421668367e-02 1.027361709010349566e-01 9.466063476041808311e-02 9.559962834877244742e-02 9.635200391633383377e-02 9.684487210502085164e-02 1.391644043538370068e-01 7.428766847708355436e-02 9.771642634114513504e-02 7.550812800079820253e-02 8.013983500890699274e-02 8.369140259834248474e-02 8.603714424404844408e-02 8.233496601394277303e-02 1.392259307802481416e-01 7.237828888725536536e-02 6.979437275416998376e-02 7.058993224283681422e-02 7.222711819164399916e-02 7.403294286272488200e-02 7.628689404200084123e-02 7.566342957736894859e-02 7.625738931760193962e-02 7.753786828385704488e-02 1.008183934617213340e-01 9.951831905856817206e-02 1.001918129521576772e-01 1.012476829268479234e-01 1.022827824145440823e-01 1.042750863926400068e-01 1.065258460521858047e-01 1.091095407868139938e-01 1.120784849366551345e-01 1.154545479610586123e-01 1.192238744540906475e-01 1.233244905036280231e-01 1.276220234831154932e-01 1.318743859125030282e-01 1.357233080249488077e-01 1.415825174354095606e-01 1.443093712328200884e-01 1.457271332103514672e-01 1.465094871994442050e-01 1.465406073103108497e-01 1.460155327618940790e-01 1.445646044714920808e-01 1.428394260877353383e-01 1.414588470372574736e-01 1.345032841021128189e-01 1.312030300507751879e-01 1.334020018095473936e-01 1.239521451222619641e-01 1.170356262148227744e-01 1.336708489615238693e-01 1.221669327145687434e-01 1.180141703672432235e-01 1.224128045461642111e-01 1.144051210067155849e-01 1.124027082657806098e-01 1.103080265155342438e-01 1.164685410219575418e-01 1.074391890492445989e-01 1.055777533655403860e-01 1.109348659022111189e-01 1.044838098369897522e-01 1.036504692073368789e-01 1.024506724064523228e-01 1.064824070683858537e-01 1.047338927698869410e-01 9.909361397238475311e-02 9.388721490832960259e-02 9.646193173411005128e-02 1.528411428789320237e-01 1.419065794060332675e-01 1.418715491318254807e-01 7.383456307830509047e-02 9.778364190160783453e-02 9.318492018613253047e-02 1.377245075531724483e-01 8.240029666027563759e-02 8.044128458308075214e-02 7.790078427862143218e-02 7.866943394045748661e-02 8.290329796218887104e-02 8.814890854724627411e-02 9.359616446208350593e-02 1.030327586361565739e-01 1.026690092416157329e-01 1.029596147738684186e-01 1.023074559021403263e-01 1.004869370946673696e-01 9.515527494548875476e-02 9.223672207130201306e-02 9.680395728201009187e-02 1.023646088906858820e-01 1.054303397975483308e-01 1.080914646634221210e-01 1.103759003311440279e-01 1.134462489778050726e-01 1.149375843520245299e-01
8.562454429870663963e-02 8.607715154049602746e-02 8.712286895602416870e-02 1.550348025872568258e-01 8.098070165696369394e-02 7.663818414378330279e-02 9.665669670080739850e-02 7.900835574789838445e-02 9.372967052100075747e-02 9.290838004563212182e-02 9.189478748932737584e-02 9.054171210906605816e-02 8.878530436665658943e-02 8.654431620980380935e-02 8.372128273427921485e-02 8.399903986451168203e-02 8.706392605182006195e-02 8.953850076713026906e-02 9.152328708407395097e-02 9.311053142207230404e-02 9.437083792705017182e-02 1.027980727956615409e-01 9.474667996962368721e-02 9.551058295436856693e-02 9.603309670994671088e-02 1.389214396068395030e-01 7.325415838236551402e-02 9.746137152325444475e-02 7.405768320118862047e-02 7.846710868899361979e-02 8.198912224412530092e-02 8.380343026875870793e-02 7.893431276565673893e-02 1.381930065292419352e-01 9.571407381570157247e-02 9.523768724891573667e-02 9.460895418320680594e-02 9.462802441443345092e-02 9.535431764561741463e-02 9.657154642356605145e-02 9.707991016377098825e-02 9.718827071721622413e-02 9.725240122301838375e-02 9.724306300904089762e-02 9.808279127677155262e-02 9.897904222814379871e-02 1.001144007682274878e-01 1.015310947166659095e-01 1.034398389196705681e-01 1.057818221949351767e-01 1.085489004720371908e-01 1.117467174604954983e-01 1.153696641101192438e-01 1.193827315136612582e-01 1.236964614954214198e-01 1.280852645446640126e-01 1.321906597362728086e-01 1.396298467792753406e-01 1.431755681840492789e-01 1.456627864080658197e-01 1.468819453129587560e-01 1.474590298160879664e-01 1.475980886498841904e-01 1.470612823297601512e-01 1.456728198895640702e-01 1.439831787653572392e-01 1.376469783422882565e-01 1.344346609608199905e-01 1.368061428443685112e-01 1.275173252043466654e-01 1.197469017593054547e-01 1.369533775305046275e-01 1.252262908504829519e-01 1.208452666175027779e-01 1.251049991484360635e-01 1.168256544964116073e-01 1.144868016318708465e-01 1.121801862293518026e-01 1.185728244831828759e-01 1.094257264182335043e-01 1.075040019174298145e-01 1.131555602955445911e-01 1.062360956751521313e-01 1.050543979520592863e-01 1.038387931184344554e-01 1.079568488292606265e-01 1.031141646764720116e-01 1.019204049505297721e-01 9.930308936549382681e-02 9.808200009781690987e-02 1.001007593523191297e-01 9.428163798801761364e-02 8.901895303821065475e-02 9.926278328448868982e-02 1.471901801913471641e-01 1.347118427687030440e-01 1.290321533052477265e-01 1.334350398692523421e-01 8.000911435045182651e-02 7.654244148747764431e-02 8.014553314068664780e-02 8.351188554279592724e-02 8.812216893190261136e-02 9.318649448030535964e-02 1.023754456637342297e-01 1.019514859175246202e-01 1.021807059840559168e-01 1.014539405824217005e-01 9.955111720128420605e-02 9.439593393770905061e-02 8.919601581513590671e-02 9.384596309277103143e-02 9.775016004463754626e-02 1.027351398320863335e-01 1.055125158227128157e-01 1.079473007904147019e-01 1.100681998408397089e-01 1.130077525186422155e-01 1.144942390935385773e-01
7.461382828090394603e-02 7.248640221021218633e-02 7.373494007942202333e-02 1.569762737505586703e-01 7.660735492094419841e-02 9.863831673769092589e-02 7.732523305052967089e-02 9.420313430772155050e-02 9.349756418120207246e-02 9.259544962782743915e-02 9.138493629797174445e-02 8.981825132636403475e-02 8.785926161441341697e-02 8.545251557127590825e-02 8.250971240578069965e-02 8.285229546559652603e-02 8.600542513263192967e-02 8.858910839011174820e-02 9.068822609135486490e-02 9.237395981283753887e-02 9.369234603191364807e-02 9.467718457045193325e-02 1.026035717978617257e-01 9.463307488186126215e-02 9.516711143104560067e-02 1.384734891519469047e-01 7.218760469358206922e-02 9.723118589287188529e-02 7.275179752948714162e-02 7.702636523245993960e-02 8.072593040027774280e-02 8.539679187892912360e-02 8.286939947520291505e-02 1.482604698521147457e-01 1.000903551901571042e-01 9.745384914174907987e-02 9.602597687691782902e-02 9.544885507576962580e-02 9.539357559892969185e-02 9.560947411259607120e-02 9.579001811828029289e-02 9.591048903285703808e-02 9.606338766449107336e-02 9.634321565505972462e-02 9.696058351618895566e-02 9.787041007301819362e-02 9.910877948091083300e-02 1.007198428226790121e-01 1.027690112369936959e-01 1.052685661444513060e-01 1.082193285753440259e-01 1.116183506523162339e-01 1.154491214590495640e-01 1.196757635112883356e-01 1.242281471782056140e-01 1.284835007469746493e-01 1.372881305224138981e-01 1.413593030097960168e-01 1.446412247626765457e-01 1.469087791449566749e-01 1.479348207638259416e-01 1.491691283281942892e-01 1.481193699346574355e-01 1.463435734534005717e-01 1.450764965720509891e-01 1.432626248412796899e-01 1.412443960247297958e-01 1.395277234881855399e-01 1.319658112143779205e-01 1.228190777206527584e-01 1.396774647230603905e-01 1.280881014159200582e-01 1.235875170218890401e-01 1.277109562688746869e-01 1.193902481571428587e-01 1.168322635203527249e-01 1.142769040526345620e-01 1.205726154818715368e-01 1.113270389418864470e-01 1.093105322272020924e-01 1.151311972460110078e-01 1.078668264341979682e-01 1.065063840528939487e-01 1.051016065574923025e-01 1.092206826593881824e-01 1.039153404692530619e-01 1.025497344528249477e-01 1.009694840118001286e-01 9.924487037495413611e-02 9.798862644645305042e-02 9.660840570712958542e-02 9.374641903483119099e-02 1.017641628403038317e-01 9.367314735665834002e-02 8.631263117403625840e-02 7.375793782989643887e-02 7.308555113738282594e-02 1.414235920540446723e-01 7.560776521763523661e-02 8.083207787209333028e-02 8.368808581257770884e-02 8.791147380858861660e-02 9.272811538682593224e-02 1.017133711472426871e-01 1.012840561162626773e-01 1.015044786833252943e-01 1.007621394924356484e-01 9.882566097724726495e-02 9.377696904832943936e-02 8.668825778591834896e-02 9.094986990273590255e-02 9.495629299092855913e-02 9.840592744045843776e-02 1.029378742662538510e-01 1.054626430879917476e-01 1.076953847522613278e-01 1.096622820555982342e-01 1.124624227978678337e-01 1.139608742814285647e-01
8.522556374106202148e-02 8.364966935060735853e-02 8.147545158464261639e-02 1.593940299139799677e-01 1.001286133002708412e-01 7.628434743173860555e-02 9.421817635163233506e-02 9.377292552616510457e-02 9.327338011935870643e-02 9.228154525545056996e-02 9.087217503423510034e-02 8.907757240406766197e-02 8.690152823755631362e-02 8.435209329370710329e-02 8.132380063749626575e-02 8.173857360901926050e-02 8.497915401797351276e-02 8.768780454285093895e-02 8.992775181995972533e-02 9.174604948452190489e-02 9.315771101261888232e-02 9.414860206309433321e-02 9.473470682457180159e-02 1.020080255372266403e-01 9.420097581701049327e-02 1.377421770538281576e-01 7.110289192501044464e-02 9.703236508636246815e-02 7.166196412477650324e-02 7.577480087056941149e-02 7.864045563676785866e-02 8.038047699089856390e-02 1.484903189045596039e-01 9.234734131141589253e-02 9.480182056311189931e-02 9.542148594355524815e-02 9.526459392289939043e-02 9.498810840332777561e-02 9.477687048606926734e-02 9.466285832048167148e-02 9.462438142765269844e-02 9.467268943037566997e-02 9.485353446258798504e-02 9.523177825339859681e-02 9.589359024074811666e-02 9.688655778943158770e-02 9.825779927994021667e-02 1.000519910606593454e-01 1.023047277920000608e-01 1.050267504988487838e-01 1.082063036330854627e-01 1.117982820690185397e-01 1.157416167677249447e-01 1.199234609149385511e-01 1.246701226110301930e-01 1.347809497807972157e-01 1.390341966360867654e-01 1.427701030261455672e-01 1.458613599083079526e-01 1.479593177018725114e-01 1.488089446433202845e-01 1.509524477527486308e-01 1.506603797397605415e-01 1.467944909947101195e-01 1.447360460970129603e-01 1.433369717290053635e-01 1.415151611165784973e-01 1.394600396109543505e-01 1.378839597118154126e-01 1.430008381809054485e-01 1.307312713446181218e-01 1.260416249267201361e-01 1.299959109034601601e-01 1.218441288082624391e-01 1.191689633097872680e-01 1.164308113373832970e-01 1.225077860359830295e-01 1.132204161821798866e-01 1.110655272212113520e-01 1.169265026609856151e-01 1.094296938761442628e-01 1.079141640247367473e-01 1.063326130654325824e-01 1.104543496326818586e-01 1.048916803804792047e-01 1.033807621266565058e-01 1.018157698090250279e-01 1.001660044408817785e-01 9.849193359242329471e-02 9.684105517770837113e-02 9.499634061702039167e-02 1.033340835928043266e-01 9.147706694611958123e-02 8.788349393213927552e-02 7.725723328893953357e-02 7.989299743766387074e-02 8.226913796451967853e-02 1.452560033530996275e-01 8.086422108603225078e-02 8.299585874184457757e-02 8.734585608128744849e-02 9.217059531031458752e-02 1.010286241214607278e-01 1.006289286159894464e-01 1.008761009296525873e-01 1.001797782149318472e-01 9.827757199948344846e-02 9.333859179479403467e-02 8.716789574171328325e-02 8.541672562940451352e-02 9.227640895110100772e-02 9.579073817630867627e-02 9.886062707698910212e-02 1.030155585529008849e-01 1.053156837968041437e-01 1.073649511497988956e-01 1.091867977737772666e-01 1.118128299726746794e-01 1.128872640288769297e-01
9.747999397063621119e-02 9.576803709464534742e-02 9.097653097303620706e-02 1.590648906487825143e-01 9.709365157875073093e-02 9.385524889342342081e-02 9.250455219140980845e-02 9.394605543331674413e-02 9.325899296606415811e-02 9.201810259935597203e-02 9.035511789409485239e-02 8.829668639584348222e-02 8.583682541813202060e-02 8.322365047993018905e-02 8.017292843152579174e-02 8.065280785717318657e-02 8.396369280953643044e-02 8.681899206521964674e-02 8.923437378293752609e-02 9.123281692919499308e-02 9.280879984578088715e-02 9.389780073885252432e-02 9.433364509668347442e-02 9.424715172834702281e-02 1.005766290512767197e-01 1.369657647974580061e-01 7.002043234379989878e-02 9.687453305500244582e-02 7.087581237280642099e-02 7.515545882868225613e-02 7.795084049336765963e-02 7.654721458291630087e-02 1.423055147892594574e-01 9.582120535690610841e-02 9.562746630840271433e-02 9.514308630682578871e-02 9.466564961404727585e-02 9.424093108684317155e-02 9.389205539200759509e-02 9.365306877167522970e-02 9.355392922937089129e-02 9.362302244354459013e-02 9.389202381429637145e-02 9.440010215337485411e-02 9.519657818181805065e-02 9.633334772850227212e-02 9.786794861371959919e-02 9.985543019195125547e-02 1.023261547512569758e-01 1.052716092156809752e-01 1.086637147859661340e-01 1.124036364170578478e-01 1.162555714508407140e-01 1.223530681258311603e-01 1.325296635355429908e-01 1.364418614671788765e-01 1.402265134386665446e-01 1.437480445589441602e-01 1.468017073376944592e-01 1.487804513136223306e-01 1.493958830179924757e-01 1.523652510708987107e-01 1.524620419709230290e-01 1.479441851684531739e-01 1.458020480372350380e-01 1.431735988564989126e-01 1.408583961766786408e-01 1.391121715302717499e-01 1.372005866335211655e-01 1.357533847351618528e-01 1.333280858069861574e-01 1.316760996972747011e-01 1.238922880260007464e-01 1.211444600190702547e-01 1.183433664537804769e-01 1.241784877897585820e-01 1.150468954152708001e-01 1.127215346886901171e-01 1.184560917492092913e-01 1.108781196254975954e-01 1.092321862937899457e-01 1.075008177023142608e-01 1.116243240785593643e-01 1.058559367101571252e-01 1.042180062795725476e-01 1.025601188892199950e-01 1.008613903605256046e-01 9.911046225433639556e-02 9.731714831892566975e-02 9.547172484226273959e-02 1.045446546408104055e-01 9.178003190684129453e-02 8.780184763072559906e-02 8.016808894399191088e-02 8.301231928310270902e-02 8.562748765783328997e-02 8.813135215301004521e-02 1.475679580039540861e-01 7.962639440204563601e-02 8.628046801659848553e-02 9.158761301543849598e-02 1.004727538661329134e-01 1.000382979713579507e-01 1.002618665872108683e-01 9.965241450782467980e-02 9.786248729506058508e-02 9.307171127107313757e-02 8.739753288311173651e-02 8.295847056190486235e-02 8.742795195624464277e-02 9.329385676519282022e-02 9.641444798044836173e-02 9.916820767267188474e-02 1.029922587422814201e-01 1.050991007068514116e-01 1.069896685064759545e-01 1.086969376218584471e-01 1.112835880651291548e-01 1.126094186349375081e-01
1.395609950176416036e-01 1.355865161456792367e-01 1.273120613336644336e-01 1.566250574132718454e-01 7.536756004898803596e-02 9.296339665644817729e-02 1.145203037549271663e-01 1.109527094939911085e-01 1.074003903916682101e-01 1.021912035916189843e-01 9.556751981815804486e-02 8.746733429266827231e-02 8.437193458840952509e-02 8.210696930515395953e-02 7.909030528780316982e-02 7.958459030971647141e-02 8.289738800586246570e-02 8.595162100230067936e-02 8.857930364568054882e-02 9.079370419400886738e-02 9.260319328822037843e-02 9.395888126267229468e-02 9.472644851363593022e-02 9.320264597500295400e-02 9.354085537253105376e-02 1.360342695695012649e-01 6.894581045680646392e-02 9.657588798238854466e-02 7.034939983051551049e-02 7.493123574094252837e-02 7.994030308726807199e-02 7.945282121351576743e-02 1.520799228977349760e-01 9.994017098715345104e-02 9.702919973248232133e-02 9.538337880632014043e-02 9.439884059381860315e-02 9.371636802628920127e-02 9.321917105820692884e-02 9.289699100676095112e-02 9.278111577596678816e-02 9.290586220878314927e-02 9.329747252086238729e-02 9.397655864772153089e-02 9.496452730274432263e-02 9.629224173443468038e-02 9.801664775388374551e-02 1.002262288603366358e-01 1.029785741563070262e-01 1.062333951750589200e-01 1.099793275056028252e-01 1.135664040620281146e-01 1.209108235118430824e-01 1.302357865894496758e-01 1.337292129476347069e-01 1.372845317827034450e-01 1.407996090313078652e-01 1.443681972373500322e-01 1.475410724258947037e-01 1.493760233498221401e-01 1.531505237680830245e-01 1.504598412985138634e-01 1.534662815918445555e-01 1.492337160089868831e-01 1.457643623692815305e-01 1.445401358080422027e-01 1.420846767450229531e-01 1.388357662655273772e-01 1.361488874300073315e-01 1.344136306774235956e-01 1.324739570254057364e-01 1.304429370082557937e-01 1.284827877401924501e-01 1.264771718346784646e-01 1.252373966681301354e-01 1.165817158967871192e-01 1.141191145195224466e-01 1.195185247446917398e-01 1.120627718097339243e-01 1.103106041525642872e-01 1.084695872413469209e-01 1.125849043198308419e-01 1.067149116963908573e-01 1.049657452768147092e-01 1.032033463201926377e-01 1.014176104328049083e-01 9.959009523884349013e-02 9.770496931261285489e-02 9.576531458136697261e-02 1.053709231577087402e-01 9.199985982520964001e-02 8.758882553336144738e-02 8.266437997778029734e-02 8.527978723088688873e-02 8.765811846733441437e-02 9.059658053823346768e-02 9.493586329172593041e-02 1.673452313579371631e-01 8.630880794906274633e-02 9.123651384862802027e-02 1.004967421964035323e-01 9.982035236731466588e-02 9.962593087712018347e-02 9.910223311137157653e-02 9.752947151249644064e-02 9.297569828490090393e-02 8.766195017465819306e-02 8.399892634090662391e-02 8.191119333153146220e-02 8.894433290555864291e-02 9.409472619343131616e-02 9.687181086577538458e-02 9.935368642520299443e-02 1.028933060092458301e-01 1.048356343755370013e-01 1.065877280273594130e-01 1.081728341383689784e-01 1.107302118520392953e-01 1.136718233545987167e-01
9.711046117477212247e-02 9.742355092041665721e-02 9.464151827010607032e-02 1.541764841927218410e-01 9.330447328309859900e-02 1.160564733743270349e-01 8.822731365284205984e-02 8.548207651258443729e-02 8.345657068902687103e-02 8.122832588255525510e-02 7.822524407065603591e-02 8.537554145217636503e-02 8.364414051727908639e-02 8.121964106438422926e-02 7.812169078276726131e-02 7.854853034306956416e-02 8.163837635103268764e-02 8.464585958220241513e-02 9.238226446911453060e-02 9.924400000468980299e-02 1.050796201719709083e-01 1.096519064890746353e-01 1.126182557441621629e-01 1.161216515665968729e-01 9.228648144314001434e-02 1.344858488534291519e-01 6.788124436251641303e-02 9.595658324411389384e-02 7.001829113370050539e-02 7.447559553763656581e-02 7.512810838213840325e-02 1.477090107979935896e-01 9.121915850167128248e-02 9.410840426868519182e-02 9.434705873200514847e-02 9.383004588387258704e-02 9.318698766574989856e-02 9.257104960748609168e-02 9.203847274044368865e-02 9.165404431084278603e-02 9.148976288415183733e-02 9.161335491484028093e-02 9.207814847962438043e-02 9.292032564571323094e-02 9.415328352730252537e-02 9.575443014310634771e-02 9.768500483822629976e-02 1.000009289964783887e-01 1.028793302966024559e-01 1.061091738795254397e-01 1.104191003316502412e-01 1.192467120377694034e-01 1.278538165181121178e-01 1.308966936150306459e-01 1.341162233357022227e-01 1.373795352226141187e-01 1.404030029463423923e-01 1.454832670167959807e-01 1.484911188756768141e-01 1.532649855257898208e-01 1.509947929731436655e-01 1.503731254479405699e-01 1.535623990855716769e-01 1.495828212354671782e-01 1.465449836870642564e-01 1.431875926983997849e-01 1.428086708169356844e-01 1.405242818013986705e-01 1.375540272898438665e-01 1.338024777182970915e-01 1.308778438977081238e-01 1.279973049866676982e-01 1.264070919667672488e-01 1.246303679757727462e-01 1.227545190601852243e-01 1.210183949379805279e-01 1.198765550279450171e-01 1.127775457439146173e-01 1.109013368614091277e-01 1.089966817859499004e-01 1.130838537207316946e-01 1.072976296121275902e-01 1.054752384973600271e-01 1.036215619393933141e-01 1.017396549870553113e-01 9.982525638583536476e-02 9.785740062025161112e-02 9.580279471645390676e-02 1.058944822121113405e-01 9.182405266756261952e-02 8.662589592637412461e-02 8.507928641732770414e-02 8.722324342159082367e-02 8.884624037608350455e-02 9.028065339115069754e-02 9.155158571420515812e-02 9.415480032250467257e-02 7.657736216089247594e-02 1.639165479601047970e-01 9.891583260675793077e-02 1.019211953019884959e-01 9.861758927424074672e-02 9.828613424021385991e-02 9.717099067921634858e-02 9.303147721439743167e-02 8.809556423845063544e-02 8.480951851523689522e-02 7.968839683881391578e-02 8.419337102970900211e-02 9.009784585772312449e-02 9.469836639270105827e-02 9.718563675753899567e-02 9.943551642416068037e-02 1.027329710403364071e-01 1.045388474893995112e-01 1.061701015071954135e-01 1.075502735014734618e-01 1.092306289323913271e-01 1.343919965606527878e-01
