ncols 119
nrows 32
xllcorner 1400
yllcorner 560
cellsize 10.0
1.200000000000000000e+03 1.200000000000000000e+03 1.000000000000000000e+02 2.000000000000000000e+02 3.400000000000000000e+03 1.000000000000000000e+02 8.900000000000000000e+03 1.600000000000000000e+03 1.100000000000000000e+03 1.100000000000000000e+03 1.100000000000000000e+03 1.100000000000000000e+03 1.200000000000000000e+03 1.200000000000000000e+03 1.200000000000000000e+03 1.200000000000000000e+03 1.100000000000000000e+03 1.000000000000000000e+03 8.000000000000000000e+02 7.000000000000000000e+02 6.000000000000000000e+02 5.000000000000000000e+02 4.000000000000000000e+02 3.000000000000000000e+02 2.000000000000000000e+02 1.000000000000000000e+02 9.000000000000000000e+02 1.000000000000000000e+03 1.000000000000000000e+02 2.000000000000000000e+02 3.000000000000000000e+02 4.000000000000000000e+02 5.000000000000000000e+02 6.000000000000000000e+02 7.000000000000000000e+02 8.000000000000000000e+02 9.000000000000000000e+02 1.100000000000000000e+03 1.200000000000000000e+03 1.200000000000000000e+03 1.200000000000000000e+03 1.100000000000000000e+03 1.100000000000000000e+03 1.100000000000000000e+03 1.100000000000000000e+03 1.100000000000000000e+03 1.100000000000000000e+03 1.100000000000000000e+03 1.100000000000000000e+03 1.100000000000000000e+03 1.100000000000000000e+03 2.200000000000000000e+03 1.200000000000000000e+03 7.700000000000000000e+03 1.200000000000000000e+03 1.300000000000000000e+03 1.200000000000000000e+03 1.200000000000000000e+03 1.200000000000000000e+03 1.200000000000000000e+03 1.200000000000000000e+03 1.200000000000000000e+03 1.200000000000000000e+03 1.200000000000000000e+03 1.200000000000000000e+03 1.200000000000000000e+03 1.200000000000000000e+03 1.200000000000000000e+03 1.200000000000000000e+03 1.200000000000000000e+03 1.200000000000000000e+03 1.200000000000000000e+03 1.200000000000000000e+03 1.200000000000000000e+03 1.200000000000000000e+03 1.300000000000000000e+03 1.200000000000000000e+03 1.200000000000000000e+03 1.200000000000000000e+03 1.400000000000000000e+03 1.000000000000000000e+03 1.400000000000000000e+03 7.200000000000000000e+03 8.000000000000000000e+02 7.000000000000000000e+02 5.000000000000000000e+02 4.000000000000000000e+02 3.000000000000000000e+02 2.000000000000000000e+02 1.000000000000000000e+02 6.000000000000000000e+02 1.000000000000000000e+03 1.100000000000000000e+03 1.000000000000000000e+02 2.000000000000000000e+02 1.200000000000000000e+03 3.000000000000000000e+02 4.000000000000000000e+02 1.100000000000000000e+03 5.000000000000000000e+02 5.700000000000000000e+03 1.200000000000000000e+03 1.200000000000000000e+03 1.000000000000000000e+03 1.200000000000000000e+03 1.200000000000000000e+03 8.000000000000000000e+02 6.000000000000000000e+02 2.000000000000000000e+02 1.000000000000000000e+02 3.000000000000000000e+02 4.000000000000000000e+02 6.200000000000000000e+03 1.300000000000000000e+03 1.200000000000000000e+03 1.200000000000000000e+03 1.200000000000000000e+03 1.200000000000000000e+03 1.200000000000000000e+03
1.300000000000000000e+03 1.300000000000000000e+03 1.000000000000000000e+02 2.000000000000000000e+02 3.700000000000000000e+03 1.000000000000000000e+02 1.070000000000000000e+04 1.200000000000000000e+03 1.200000000000000000e+03 1.200000000000000000e+03 1.200000000000000000e+03 1.300000000000000000e+03 1.300000000000000000e+03 1.300000000000000000e+03 1.300000000000000000e+03 1.200000000000000000e+03 1.100000000000000000e+03 9.000000000000000000e+02 8.000000000000000000e+02 7.000000000000000000e+02 6.000000000000000000e+02 5.000000000000000000e+02 4.000000000000000000e+02 3.000000000000000000e+02 2.000000000000000000e+02 1.000000000000000000e+02 1.000000000000000000e+03 1.100000000000000000e+03 1.000000000000000000e+02 2.000000000000000000e+02 3.000000000000000000e+02 4.000000000000000000e+02 5.000000000000000000e+02 6.000000000000000000e+02 7.000000000000000000e+02 8.000000000000000000e+02 9.000000000000000000e+02 1.000000000000000000e+03 1.200000000000000000e+03 1.300000000000000000e+03 1.300000000000000000e+03 1.300000000000000000e+03 1.200000000000000000e+03 1.200000000000000000e+03 1.200000000000000000e+03 1.200000000000000000e+03 1.200000000000000000e+03 1.200000000000000000e+03 1.200000000000000000e+03 1.200000000000000000e+03 1.200000000000000000e+03 1.200000000000000000e+03 2.300000000000000000e+03 1.300000000000000000e+03 9.000000000000000000e+03 1.400000000000000000e+03 1.300000000000000000e+03 1.300000000000000000e+03 1.300000000000000000e+03 1.300000000000000000e+03 1.300000000000000000e+03 1.300000000000000000e+03 1.300000000000000000e+03 1.300000000000000000e+03 1.300000000000000000e+03 1.300000000000000000e+03 1.300000000000000000e+03 1.300000000000000000e+03 1.300000000000000000e+03 1.300000000000000000e+03 1.300000000000000000e+03 1.300000000000000000e+03 1.300000000000000000e+03 1.300000000000000000e+03 1.300000000000000000e+03 1.400000000000000000e+03 1.300000000000000000e+03 1.300000000000000000e+03 1.300000000000000000e+03 1.500000000000000000e+03 1.100000000000000000e+03 8.700000000000000000e+03 9.000000000000000000e+02 8.000000000000000000e+02 6.000000000000000000e+02 5.000000000000000000e+02 4.000000000000000000e+02 3.000000000000000000e+02 2.000000000000000000e+02 1.000000000000000000e+02 7.000000000000000000e+02 1.100000000000000000e+03 1.000000000000000000e+02 1.200000000000000000e+03 2.000000000000000000e+02 3.000000000000000000e+02 1.300000000000000000e+03 4.000000000000000000e+02 5.000000000000000000e+02 1.200000000000000000e+03 6.300000000000000000e+03 1.300000000000000000e+03 1.300000000000000000e+03 1.100000000000000000e+03 1.300000000000000000e+03 1.300000000000000000e+03 9.000000000000000000e+02 7.000000000000000000e+02 3.000000000000000000e+02 1.000000000000000000e+02 2.000000000000000000e+02 4.000000000000000000e+02 6.700000000000000000e+03 1.400000000000000000e+03 1.300000000000000000e+03 1.300000000000000000e+03 1.300000000000000000e+03 1.300000000000000000e+03 1.300000000000000000e+03
1.400000000000000000e+03 1.000000000000000000e+02 1.400000000000000000e+03 2.000000000000000000e+02 4.000000000000000000e+03 1.000000000000000000e+02 1.210000000000000000e+04 1.300000000000000000e+03 1.300000000000000000e+03 1.300000000000000000e+03 1.400000000000000000e+03 1.400000000000000000e+03 1.400000000000000000e+03 1.400000000000000000e+03 1.300000000000000000e+03 1.200000000000000000e+03 1.000000000000000000e+03 9.000000000000000000e+02 8.000000000000000000e+02 7.000000000000000000e+02 6.000000000000000000e+02 5.000000000000000000e+02 4.000000000000000000e+02 3.000000000000000000e+02 2.000000000000000000e+02 1.000000000000000000e+02 1.100000000000000000e+03 1.200000000000000000e+03 1.000000000000000000e+02 2.000000000000000000e+02 3.000000000000000000e+02 4.000000000000000000e+02 5.000000000000000000e+02 6.000000000000000000e+02 7.000000000000000000e+02 8.000000000000000000e+02 9.000000000000000000e+02 1.000000000000000000e+03 1.100000000000000000e+03 1.300000000000000000e+03 1.400000000000000000e+03 1.400000000000000000e+03 1.400000000000000000e+03 1.300000000000000000e+03 1.300000000000000000e+03 1.300000000000000000e+03 1.300000000000000000e+03 1.300000000000000000e+03 1.300000000000000000e+03 1.300000000000000000e+03 1.300000000000000000e+03 1.300000000000000000e+03 1.300000000000000000e+03 2.400000000000000000e+03 1.400000000000000000e+03 1.050000000000000000e+04 1.400000000000000000e+03 1.400000000000000000e+03 1.400000000000000000e+03 1.400000000000000000e+03 1.400000000000000000e+03 1.400000000000000000e+03 1.400000000000000000e+03 1.400000000000000000e+03 1.400000000000000000e+03 1.400000000000000000e+03 1.400000000000000000e+03 1.400000000000000000e+03 1.400000000000000000e+03 1.400000000000000000e+03 1.400000000000000000e+03 1.400000000000000000e+03 1.400000000000000000e+03 1.400000000000000000e+03 1.400000000000000000e+03 1.500000000000000000e+03 1.400000000000000000e+03 1.400000000000000000e+03 1.400000000000000000e+03 1.600000000000000000e+03 1.200000000000000000e+03 9.700000000000000000e+03 9.000000000000000000e+02 7.000000000000000000e+02 6.000000000000000000e+02 5.000000000000000000e+02 4.000000000000000000e+02 3.000000000000000000e+02 2.000000000000000000e+02 1.000000000000000000e+02 8.000000000000000000e+02 1.200000000000000000e+03 1.000000000000000000e+02 2.000000000000000000e+02 1.300000000000000000e+03 3.000000000000000000e+02 4.000000000000000000e+02 1.400000000000000000e+03 5.000000000000000000e+02 6.000000000000000000e+02 1.300000000000000000e+03 7.700000000000000000e+03 1.400000000000000000e+03 1.200000000000000000e+03 1.400000000000000000e+03 1.400000000000000000e+03 1.000000000000000000e+03 8.000000000000000000e+02 4.000000000000000000e+02 1.000000000000000000e+02 2.000000000000000000e+02 3.000000000000000000e+02 7.200000000000000000e+03 1.500000000000000000e+03 1.400000000000000000e+03 1.400000000000000000e+03 1.400000000000000000e+03 1.400000000000000000e+03 1.400000000000000000e+03
1.500000000000000000e+03 1.000000000000000000e+02 2.000000000000000000e+02 1.500000000000000000e+03 4.300000000000000000e+03 1.000000000000000000e+02 1.360000000000000000e+04 1.400000000000000000e+03 1.400000000000000000e+03 1.500000000000000000e+03 1.500000000000000000e+03 1.500000000000000000e+03 1.500000000000000000e+03 1.400000000000000000e+03 1.300000000000000000e+03 1.100000000000000000e+03 1.000000000000000000e+03 9.000000000000000000e+02 8.000000000000000000e+02 7.000000000000000000e+02 6.000000000000000000e+02 5.000000000000000000e+02 4.000000000000000000e+02 3.000000000000000000e+02 2.000000000000000000e+02 1.000000000000000000e+02 1.200000000000000000e+03 1.300000000000000000e+03 1.000000000000000000e+02 2.000000000000000000e+02 3.000000000000000000e+02 4.000000000000000000e+02 5.000000000000000000e+02 6.000000000000000000e+02 7.000000000000000000e+02 8.000000000000000000e+02 9.000000000000000000e+02 1.000000000000000000e+03 1.100000000000000000e+03 1.200000000000000000e+03 1.400000000000000000e+03 1.500000000000000000e+03 1.500000000000000000e+03 1.500000000000000000e+03 1.400000000000000000e+03 1.400000000000000000e+03 1.400000000000000000e+03 1.400000000000000000e+03 1.400000000000000000e+03 1.400000000000000000e+03 1.400000000000000000e+03 1.400000000000000000e+03 1.400000000000000000e+03 1.400000000000000000e+03 2.500000000000000000e+03 1.500000000000000000e+03 1.200000000000000000e+04 1.500000000000000000e+03 1.500000000000000000e+03 1.500000000000000000e+03 1.500000000000000000e+03 1.500000000000000000e+03 1.500000000000000000e+03 1.500000000000000000e+03 1.500000000000000000e+03 1.500000000000000000e+03 1.500000000000000000e+03 1.500000000000000000e+03 1.500000000000000000e+03 1.500000000000000000e+03 1.500000000000000000e+03 1.500000000000000000e+03 1.500000000000000000e+03 1.500000000000000000e+03 1.500000000000000000e+03 1.600000000000000000e+03 1.500000000000000000e+03 1.500000000000000000e+03 1.500000000000000000e+03 1.700000000000000000e+03 1.300000000000000000e+03 1.070000000000000000e+04 8.000000000000000000e+02 7.000000000000000000e+02 6.000000000000000000e+02 5.000000000000000000e+02 4.000000000000000000e+02 3.000000000000000000e+02 2.000000000000000000e+02 1.000000000000000000e+02 9.000000000000000000e+02 1.000000000000000000e+02 1.300000000000000000e+03 2.000000000000000000e+02 3.000000000000000000e+02 1.400000000000000000e+03 4.000000000000000000e+02 5.000000000000000000e+02 1.500000000000000000e+03 6.000000000000000000e+02 7.000000000000000000e+02 9.100000000000000000e+03 1.500000000000000000e+03 1.300000000000000000e+03 1.500000000000000000e+03 1.500000000000000000e+03 1.100000000000000000e+03 9.000000000000000000e+02 5.000000000000000000e+02 1.000000000000000000e+02 2.000000000000000000e+02 3.000000000000000000e+02 7.600000000000000000e+03 1.600000000000000000e+03 1.500000000000000000e+03 1.500000000000000000e+03 1.500000000000000000e+03 1.500000000000000000e+03 1.500000000000000000e+03
1.600000000000000000e+03 1.000000000000000000e+02 2.000000000000000000e+02 3.000000000000000000e+02 5.900000000000000000e+03 1.000000000000000000e+02 1.520000000000000000e+04 1.500000000000000000e+03 1.600000000000000000e+03 1.600000000000000000e+03 1.600000000000000000e+03 1.600000000000000000e+03 1.500000000000000000e+03 1.400000000000000000e+03 1.200000000000000000e+03 1.100000000000000000e+03 1.000000000000000000e+03 9.000000000000000000e+02 8.000000000000000000e+02 7.000000000000000000e+02 6.000000000000000000e+02 5.000000000000000000e+02 4.000000000000000000e+02 3.000000000000000000e+02 2.000000000000000000e+02 1.000000000000000000e+02 1.300000000000000000e+03 1.400000000000000000e+03 1.000000000000000000e+02 2.000000000000000000e+02 3.000000000000000000e+02 4.000000000000000000e+02 5.000000000000000000e+02 6.000000000000000000e+02 7.000000000000000000e+02 8.000000000000000000e+02 9.000000000000000000e+02 1.000000000000000000e+03 1.100000000000000000e+03 1.200000000000000000e+03 1.300000000000000000e+03 1.500000000000000000e+03 1.600000000000000000e+03 1.600000000000000000e+03 1.600000000000000000e+03 1.500000000000000000e+03 1.500000000000000000e+03 1.500000000000000000e+03 1.500000000000000000e+03 1.500000000000000000e+03 1.500000000000000000e+03 1.500000000000000000e+03 1.500000000000000000e+03 1.500000000000000000e+03 1.500000000000000000e+03 2.600000000000000000e+03 1.360000000000000000e+04 1.600000000000000000e+03 1.600000000000000000e+03 1.600000000000000000e+03 1.600000000000000000e+03 1.600000000000000000e+03 1.600000000000000000e+03 1.600000000000000000e+03 1.600000000000000000e+03 1.600000000000000000e+03 1.600000000000000000e+03 1.600000000000000000e+03 1.600000000000000000e+03 1.600000000000000000e+03 1.600000000000000000e+03 1.600000000000000000e+03 1.600000000000000000e+03 1.600000000000000000e+03 1.600000000000000000e+03 1.700000000000000000e+03 1.600000000000000000e+03 1.600000000000000000e+03 1.600000000000000000e+03 1.800000000000000000e+03 1.210000000000000000e+04 9.000000000000000000e+02 8.000000000000000000e+02 7.000000000000000000e+02 6.000000000000000000e+02 5.000000000000000000e+02 4.000000000000000000e+02 3.000000000000000000e+02 2.000000000000000000e+02 1.000000000000000000e+02 1.000000000000000000e+03 1.000000000000000000e+02 2.000000000000000000e+02 1.400000000000000000e+03 3.000000000000000000e+02 4.000000000000000000e+02 1.500000000000000000e+03 5.000000000000000000e+02 6.000000000000000000e+02 1.600000000000000000e+03 7.000000000000000000e+02 9.900000000000000000e+03 1.600000000000000000e+03 1.400000000000000000e+03 1.600000000000000000e+03 1.600000000000000000e+03 1.200000000000000000e+03 1.000000000000000000e+03 6.000000000000000000e+02 1.000000000000000000e+02 2.000000000000000000e+02 3.000000000000000000e+02 8.000000000000000000e+03 1.700000000000000000e+03 1.600000000000000000e+03 1.600000000000000000e+03 1.600000000000000000e+03 1.600000000000000000e+03 1.600000000000000000e+03
1.700000000000000000e+03 1.000000000000000000e+02 2.000000000000000000e+02 3.000000000000000000e+02 6.300000000000000000e+03 2.000000000000000000e+02 1.680000000000000000e+04 1.700000000000000000e+03 1.700000000000000000e+03 1.700000000000000000e+03 1.700000000000000000e+03 1.600000000000000000e+03 1.500000000000000000e+03 1.300000000000000000e+03 1.200000000000000000e+03 1.100000000000000000e+03 1.000000000000000000e+03 9.000000000000000000e+02 8.000000000000000000e+02 7.000000000000000000e+02 6.000000000000000000e+02 5.000000000000000000e+02 4.000000000000000000e+02 3.000000000000000000e+02 2.000000000000000000e+02 1.000000000000000000e+02 1.400000000000000000e+03 1.500000000000000000e+03 1.000000000000000000e+02 2.000000000000000000e+02 3.000000000000000000e+02 4.000000000000000000e+02 5.000000000000000000e+02 6.000000000000000000e+02 7.000000000000000000e+02 8.000000000000000000e+02 9.000000000000000000e+02 1.000000000000000000e+03 1.100000000000000000e+03 1.200000000000000000e+03 1.300000000000000000e+03 1.400000000000000000e+03 1.600000000000000000e+03 1.700000000000000000e+03 1.700000000000000000e+03 1.700000000000000000e+03 1.600000000000000000e+03 1.600000000000000000e+03 1.600000000000000000e+03 1.600000000000000000e+03 1.600000000000000000e+03 1.600000000000000000e+03 1.600000000000000000e+03 1.600000000000000000e+03 1.600000000000000000e+03 1.600000000000000000e+03 2.700000000000000000e+03 1.690000000000000000e+04 1.000000000000000000e+02 1.700000000000000000e+03 1.700000000000000000e+03 1.700000000000000000e+03 1.700000000000000000e+03 1.700000000000000000e+03 1.700000000000000000e+03 1.700000000000000000e+03 1.700000000000000000e+03 1.700000000000000000e+03 1.700000000000000000e+03 1.700000000000000000e+03 1.700000000000000000e+03 1.700000000000000000e+03 1.700000000000000000e+03 1.700000000000000000e+03 1.700000000000000000e+03 1.800000000000000000e+03 1.700000000000000000e+03 1.700000000000000000e+03 1.700000000000000000e+03 1.900000000000000000e+03 1.310000000000000000e+04 9.000000000000000000e+02 8.000000000000000000e+02 7.000000000000000000e+02 6.000000000000000000e+02 5.000000000000000000e+02 4.000000000000000000e+02 3.000000000000000000e+02 2.000000000000000000e+02 1.000000000000000000e+02 1.100000000000000000e+03 1.000000000000000000e+02 2.000000000000000000e+02 3.000000000000000000e+02 1.500000000000000000e+03 4.000000000000000000e+02 5.000000000000000000e+02 1.600000000000000000e+03 6.000000000000000000e+02 7.000000000000000000e+02 1.700000000000000000e+03 1.070000000000000000e+04 1.700000000000000000e+03 1.500000000000000000e+03 1.700000000000000000e+03 1.700000000000000000e+03 1.300000000000000000e+03 1.100000000000000000e+03 7.000000000000000000e+02 1.000000000000000000e+02 2.000000000000000000e+02 3.000000000000000000e+02 8.400000000000000000e+03 1.800000000000000000e+03 1.700000000000000000e+03 1.000000000000000000e+02 3.300000000000000000e+03 1.700000000000000000e+03 1.530000000000000000e+04
1.800000000000000000e+03 1.000000000000000000e+02 2.000000000000000000e+02 3.000000000000000000e+02 6.700000000000000000e+03 3.000000000000000000e+02 1.860000000000000000e+04 1.800000000000000000e+03 1.800000000000000000e+03 1.800000000000000000e+03 1.700000000000000000e+03 1.600000000000000000e+03 1.400000000000000000e+03 1.300000000000000000e+03 1.200000000000000000e+03 1.100000000000000000e+03 1.000000000000000000e+03 9.000000000000000000e+02 8.000000000000000000e+02 7.000000000000000000e+02 6.000000000000000000e+02 5.000000000000000000e+02 4.000000000000000000e+02 3.000000000000000000e+02 2.000000000000000000e+02 1.000000000000000000e+02 1.500000000000000000e+03 1.600000000000000000e+03 1.000000000000000000e+02 2.000000000000000000e+02 3.000000000000000000e+02 4.000000000000000000e+02 5.000000000000000000e+02 6.000000000000000000e+02 7.000000000000000000e+02 8.000000000000000000e+02 9.000000000000000000e+02 1.000000000000000000e+03 1.100000000000000000e+03 1.200000000000000000e+03 1.300000000000000000e+03 1.400000000000000000e+03 1.500000000000000000e+03 1.700000000000000000e+03 1.800000000000000000e+03 1.800000000000000000e+03 1.800000000000000000e+03 1.700000000000000000e+03 1.700000000000000000e+03 1.700000000000000000e+03 1.700000000000000000e+03 1.700000000000000000e+03 1.700000000000000000e+03 1.700000000000000000e+03 1.700000000000000000e+03 1.700000000000000000e+03 1.700000000000000000e+03 1.970000000000000000e+04 1.900000000000000000e+03 1.000000000000000000e+02 1.800000000000000000e+03 1.800000000000000000e+03 1.800000000000000000e+03 1.800000000000000000e+03 1.800000000000000000e+03 1.800000000000000000e+03 1.800000000000000000e+03 1.800000000000000000e+03 1.800000000000000000e+03 1.800000000000000000e+03 1.800000000000000000e+03 1.800000000000000000e+03 1.800000000000000000e+03 1.800000000000000000e+03 1.800000000000000000e+03 1.900000000000000000e+03 1.800000000000000000e+03 1.800000000000000000e+03 1.800000000000000000e+03 1.510000000000000000e+04 4.900000000000000000e+03 3.900000000000000000e+03 3.000000000000000000e+03 2.200000000000000000e+03 1.500000000000000000e+03 9.000000000000000000e+02 4.000000000000000000e+02 3.000000000000000000e+02 2.000000000000000000e+02 1.000000000000000000e+02 1.000000000000000000e+02 1.200000000000000000e+03 2.000000000000000000e+02 3.000000000000000000e+02 4.000000000000000000e+02 1.600000000000000000e+03 5.000000000000000000e+02 6.000000000000000000e+02 1.700000000000000000e+03 7.000000000000000000e+02 8.000000000000000000e+02 1.250000000000000000e+04 1.800000000000000000e+03 1.600000000000000000e+03 1.800000000000000000e+03 1.800000000000000000e+03 1.400000000000000000e+03 1.200000000000000000e+03 8.000000000000000000e+02 1.000000000000000000e+02 2.000000000000000000e+02 3.000000000000000000e+02 8.800000000000000000e+03 1.900000000000000000e+03 1.800000000000000000e+03 1.000000000000000000e+02 2.000000000000000000e+02 5.100000000000000000e+03 1.710000000000000000e+04
1.900000000000000000e+03 1.000000000000000000e+02 2.000000000000000000e+02 3.000000000000000000e+02 7.100000000000000000e+03 4.000000000000000000e+02 2.050000000000000000e+04 1.900000000000000000e+03 1.900000000000000000e+03 1.800000000000000000e+03 1.700000000000000000e+03 1.500000000000000000e+03 1.400000000000000000e+03 1.300000000000000000e+03 1.200000000000000000e+03 1.100000000000000000e+03 1.000000000000000000e+03 9.000000000000000000e+02 8.000000000000000000e+02 7.000000000000000000e+02 6.000000000000000000e+02 5.000000000000000000e+02 4.000000000000000000e+02 3.000000000000000000e+02 2.000000000000000000e+02 1.600000000000000000e+03 1.000000000000000000e+02 1.700000000000000000e+03 1.000000000000000000e+02 2.000000000000000000e+02 3.000000000000000000e+02 4.000000000000000000e+02 5.000000000000000000e+02 6.000000000000000000e+02 7.000000000000000000e+02 8.000000000000000000e+02 9.000000000000000000e+02 1.000000000000000000e+03 1.100000000000000000e+03 1.200000000000000000e+03 1.300000000000000000e+03 1.400000000000000000e+03 1.500000000000000000e+03 1.600000000000000000e+03 1.800000000000000000e+03 1.900000000000000000e+03 1.900000000000000000e+03 1.900000000000000000e+03 1.800000000000000000e+03 1.800000000000000000e+03 1.800000000000000000e+03 1.800000000000000000e+03 1.800000000000000000e+03 1.800000000000000000e+03 1.800000000000000000e+03 1.800000000000000000e+03 1.800000000000000000e+03 2.150000000000000000e+04 2.000000000000000000e+03 2.000000000000000000e+03 1.000000000000000000e+02 1.900000000000000000e+03 1.900000000000000000e+03 1.900000000000000000e+03 1.900000000000000000e+03 1.900000000000000000e+03 1.900000000000000000e+03 1.900000000000000000e+03 1.900000000000000000e+03 1.900000000000000000e+03 1.900000000000000000e+03 1.900000000000000000e+03 1.900000000000000000e+03 1.900000000000000000e+03 3.800000000000000000e+03 1.000000000000000000e+02 1.900000000000000000e+03 1.900000000000000000e+03 1.900000000000000000e+03 2.140000000000000000e+04 1.300000000000000000e+03 1.200000000000000000e+03 1.100000000000000000e+03 1.000000000000000000e+03 9.000000000000000000e+02 8.000000000000000000e+02 7.000000000000000000e+02 3.000000000000000000e+02 1.000000000000000000e+02 2.000000000000000000e+02 1.000000000000000000e+02 2.000000000000000000e+02 1.300000000000000000e+03 3.000000000000000000e+02 4.000000000000000000e+02 5.000000000000000000e+02 1.700000000000000000e+03 6.000000000000000000e+02 7.000000000000000000e+02 1.800000000000000000e+03 8.000000000000000000e+02 1.340000000000000000e+04 1.900000000000000000e+03 1.700000000000000000e+03 1.900000000000000000e+03 1.900000000000000000e+03 1.500000000000000000e+03 1.300000000000000000e+03 9.000000000000000000e+02 1.000000000000000000e+02 2.000000000000000000e+02 3.000000000000000000e+02 9.200000000000000000e+03 2.000000000000000000e+03 1.900000000000000000e+03 1.000000000000000000e+02 2.000000000000000000e+02 5.400000000000000000e+03 1.840000000000000000e+04
2.000000000000000000e+03 1.000000000000000000e+02 2.000000000000000000e+02 3.000000000000000000e+02 7.500000000000000000e+03 2.100000000000000000e+04 2.000000000000000000e+03 2.000000000000000000e+03 1.900000000000000000e+03 1.800000000000000000e+03 1.600000000000000000e+03 1.500000000000000000e+03 1.400000000000000000e+03 1.300000000000000000e+03 1.200000000000000000e+03 1.100000000000000000e+03 1.000000000000000000e+03 9.000000000000000000e+02 8.000000000000000000e+02 7.000000000000000000e+02 6.000000000000000000e+02 5.000000000000000000e+02 4.000000000000000000e+02 3.000000000000000000e+02 1.700000000000000000e+03 2.000000000000000000e+02 1.000000000000000000e+02 1.800000000000000000e+03 1.000000000000000000e+02 2.000000000000000000e+02 3.000000000000000000e+02 4.000000000000000000e+02 5.000000000000000000e+02 6.000000000000000000e+02 7.000000000000000000e+02 8.000000000000000000e+02 9.000000000000000000e+02 1.000000000000000000e+03 1.100000000000000000e+03 1.200000000000000000e+03 1.300000000000000000e+03 1.400000000000000000e+03 1.500000000000000000e+03 1.600000000000000000e+03 1.700000000000000000e+03 1.900000000000000000e+03 2.000000000000000000e+03 2.000000000000000000e+03 2.000000000000000000e+03 1.900000000000000000e+03 1.900000000000000000e+03 1.900000000000000000e+03 1.900000000000000000e+03 1.900000000000000000e+03 1.900000000000000000e+03 1.900000000000000000e+03 1.900000000000000000e+03 1.900000000000000000e+03 2.560000000000000000e+04 2.000000000000000000e+02 1.000000000000000000e+02 2.000000000000000000e+03 2.000000000000000000e+03 2.000000000000000000e+03 2.000000000000000000e+03 2.000000000000000000e+03 2.000000000000000000e+03 2.000000000000000000e+03 2.000000000000000000e+03 2.000000000000000000e+03 2.000000000000000000e+03 2.000000000000000000e+03 2.000000000000000000e+03 2.000000000000000000e+03 4.000000000000000000e+03 1.000000000000000000e+02 2.000000000000000000e+03 2.000000000000000000e+03 2.420000000000000000e+04 8.000000000000000000e+02 7.000000000000000000e+02 6.000000000000000000e+02 5.000000000000000000e+02 4.000000000000000000e+02 3.000000000000000000e+02 2.000000000000000000e+02 1.000000000000000000e+02 2.000000000000000000e+02 1.000000000000000000e+02 3.000000000000000000e+02 1.000000000000000000e+02 2.000000000000000000e+02 3.000000000000000000e+02 1.400000000000000000e+03 4.000000000000000000e+02 5.000000000000000000e+02 6.000000000000000000e+02 1.800000000000000000e+03 7.000000000000000000e+02 8.000000000000000000e+02 1.900000000000000000e+03 1.430000000000000000e+04 2.000000000000000000e+03 1.800000000000000000e+03 2.000000000000000000e+03 2.000000000000000000e+03 1.600000000000000000e+03 1.400000000000000000e+03 1.000000000000000000e+03 1.000000000000000000e+02 2.000000000000000000e+02 3.000000000000000000e+02 9.600000000000000000e+03 2.100000000000000000e+03 2.000000000000000000e+03 1.000000000000000000e+02 2.000000000000000000e+02 2.410000000000000000e+04 1.200000000000000000e+03
2.100000000000000000e+03 1.000000000000000000e+02 2.000000000000000000e+02 3.000000000000000000e+02 2.890000000000000000e+04 2.100000000000000000e+03 2.100000000000000000e+03 2.000000000000000000e+03 1.900000000000000000e+03 1.700000000000000000e+03 1.600000000000000000e+03 1.500000000000000000e+03 1.400000000000000000e+03 1.300000000000000000e+03 1.200000000000000000e+03 1.100000000000000000e+03 1.000000000000000000e+03 9.000000000000000000e+02 8.000000000000000000e+02 7.000000000000000000e+02 6.000000000000000000e+02 5.000000000000000000e+02 4.000000000000000000e+02 1.800000000000000000e+03 3.000000000000000000e+02 2.000000000000000000e+02 1.000000000000000000e+02 1.900000000000000000e+03 1.000000000000000000e+02 2.000000000000000000e+02 3.000000000000000000e+02 4.000000000000000000e+02 5.000000000000000000e+02 6.000000000000000000e+02 7.000000000000000000e+02 8.000000000000000000e+02 9.000000000000000000e+02 1.000000000000000000e+03 1.100000000000000000e+03 1.200000000000000000e+03 1.300000000000000000e+03 1.400000000000000000e+03 1.500000000000000000e+03 1.600000000000000000e+03 1.700000000000000000e+03 1.800000000000000000e+03 2.000000000000000000e+03 2.100000000000000000e+03 2.100000000000000000e+03 2.100000000000000000e+03 2.000000000000000000e+03 2.000000000000000000e+03 2.000000000000000000e+03 2.000000000000000000e+03 2.000000000000000000e+03 2.000000000000000000e+03 2.000000000000000000e+03 2.000000000000000000e+03 2.780000000000000000e+04 2.000000000000000000e+02 1.000000000000000000e+02 2.100000000000000000e+03 2.100000000000000000e+03 2.100000000000000000e+03 2.100000000000000000e+03 2.100000000000000000e+03 2.100000000000000000e+03 2.100000000000000000e+03 2.100000000000000000e+03 2.100000000000000000e+03 2.100000000000000000e+03 2.100000000000000000e+03 2.100000000000000000e+03 6.100000000000000000e+03 1.000000000000000000e+02 2.000000000000000000e+02 2.100000000000000000e+03 2.740000000000000000e+04 1.100000000000000000e+03 1.000000000000000000e+03 9.000000000000000000e+02 8.000000000000000000e+02 7.000000000000000000e+02 6.000000000000000000e+02 5.000000000000000000e+02 4.000000000000000000e+02 3.000000000000000000e+02 2.000000000000000000e+02 1.000000000000000000e+02 1.000000000000000000e+02 4.000000000000000000e+02 2.000000000000000000e+02 3.000000000000000000e+02 4.000000000000000000e+02 1.500000000000000000e+03 5.000000000000000000e+02 6.000000000000000000e+02 7.000000000000000000e+02 1.900000000000000000e+03 8.000000000000000000e+02 9.000000000000000000e+02 1.630000000000000000e+04 2.100000000000000000e+03 1.900000000000000000e+03 2.100000000000000000e+03 2.100000000000000000e+03 1.700000000000000000e+03 1.500000000000000000e+03 1.100000000000000000e+03 1.000000000000000000e+02 2.000000000000000000e+02 3.000000000000000000e+02 1.000000000000000000e+04 2.200000000000000000e+03 2.100000000000000000e+03 1.000000000000000000e+02 2.000000000000000000e+02 2.560000000000000000e+04 1.000000000000000000e+03
2.200000000000000000e+03 1.000000000000000000e+02 2.000000000000000000e+02 3.000000000000000000e+02 3.140000000000000000e+04 2.200000000000000000e+03 2.100000000000000000e+03 2.000000000000000000e+03 1.800000000000000000e+03 1.700000000000000000e+03 1.600000000000000000e+03 1.500000000000000000e+03 1.400000000000000000e+03 1.300000000000000000e+03 1.200000000000000000e+03 1.100000000000000000e+03 1.000000000000000000e+03 9.000000000000000000e+02 8.000000000000000000e+02 7.000000000000000000e+02 6.000000000000000000e+02 5.000000000000000000e+02 1.900000000000000000e+03 4.000000000000000000e+02 3.000000000000000000e+02 2.000000000000000000e+02 1.000000000000000000e+02 2.000000000000000000e+03 1.000000000000000000e+02 2.000000000000000000e+02 3.000000000000000000e+02 4.000000000000000000e+02 5.000000000000000000e+02 6.000000000000000000e+02 7.000000000000000000e+02 8.000000000000000000e+02 9.000000000000000000e+02 1.000000000000000000e+03 1.100000000000000000e+03 1.200000000000000000e+03 1.300000000000000000e+03 1.400000000000000000e+03 1.500000000000000000e+03 1.600000000000000000e+03 1.700000000000000000e+03 1.800000000000000000e+03 1.900000000000000000e+03 2.100000000000000000e+03 2.200000000000000000e+03 2.200000000000000000e+03 2.200000000000000000e+03 2.100000000000000000e+03 2.100000000000000000e+03 2.100000000000000000e+03 2.100000000000000000e+03 2.100000000000000000e+03 2.100000000000000000e+03 2.100000000000000000e+03 3.010000000000000000e+04 1.000000000000000000e+02 2.000000000000000000e+02 2.200000000000000000e+03 2.200000000000000000e+03 2.200000000000000000e+03 2.200000000000000000e+03 2.200000000000000000e+03 2.200000000000000000e+03 2.200000000000000000e+03 2.200000000000000000e+03 2.200000000000000000e+03 2.200000000000000000e+03 2.200000000000000000e+03 2.200000000000000000e+03 6.300000000000000000e+03 1.000000000000000000e+02 3.000000000000000000e+02 2.960000000000000000e+04 1.200000000000000000e+03 1.100000000000000000e+03 1.000000000000000000e+03 9.000000000000000000e+02 8.000000000000000000e+02 7.000000000000000000e+02 6.000000000000000000e+02 5.000000000000000000e+02 4.000000000000000000e+02 3.000000000000000000e+02 2.000000000000000000e+02 1.000000000000000000e+02 1.000000000000000000e+02 2.000000000000000000e+02 5.000000000000000000e+02 3.000000000000000000e+02 4.000000000000000000e+02 5.000000000000000000e+02 1.600000000000000000e+03 6.000000000000000000e+02 7.000000000000000000e+02 8.000000000000000000e+02 2.000000000000000000e+03 9.000000000000000000e+02 1.730000000000000000e+04 2.200000000000000000e+03 2.000000000000000000e+03 2.200000000000000000e+03 2.200000000000000000e+03 1.800000000000000000e+03 1.600000000000000000e+03 1.200000000000000000e+03 1.000000000000000000e+02 2.000000000000000000e+02 3.000000000000000000e+02 1.040000000000000000e+04 2.300000000000000000e+03 2.200000000000000000e+03 1.000000000000000000e+02 2.000000000000000000e+02 2.690000000000000000e+04 9.000000000000000000e+02
6.600000000000000000e+03 1.000000000000000000e+02 2.000000000000000000e+02 3.000000000000000000e+02 3.400000000000000000e+04 2.200000000000000000e+03 2.100000000000000000e+03 1.900000000000000000e+03 1.800000000000000000e+03 1.700000000000000000e+03 1.600000000000000000e+03 1.500000000000000000e+03 1.400000000000000000e+03 1.300000000000000000e+03 1.200000000000000000e+03 1.100000000000000000e+03 1.000000000000000000e+03 9.000000000000000000e+02 8.000000000000000000e+02 7.000000000000000000e+02 6.000000000000000000e+02 2.000000000000000000e+03 5.000000000000000000e+02 4.000000000000000000e+02 3.000000000000000000e+02 2.000000000000000000e+02 1.000000000000000000e+02 2.100000000000000000e+03 1.000000000000000000e+02 2.000000000000000000e+02 3.000000000000000000e+02 4.000000000000000000e+02 5.000000000000000000e+02 6.000000000000000000e+02 7.000000000000000000e+02 8.000000000000000000e+02 9.000000000000000000e+02 1.000000000000000000e+03 1.100000000000000000e+03 1.200000000000000000e+03 1.300000000000000000e+03 1.400000000000000000e+03 1.500000000000000000e+03 1.600000000000000000e+03 1.700000000000000000e+03 1.800000000000000000e+03 1.900000000000000000e+03 2.000000000000000000e+03 2.200000000000000000e+03 2.300000000000000000e+03 2.300000000000000000e+03 2.300000000000000000e+03 2.200000000000000000e+03 2.200000000000000000e+03 2.200000000000000000e+03 2.200000000000000000e+03 2.200000000000000000e+03 2.200000000000000000e+03 3.240000000000000000e+04 1.000000000000000000e+02 3.000000000000000000e+02 2.300000000000000000e+03 2.300000000000000000e+03 2.300000000000000000e+03 2.300000000000000000e+03 2.300000000000000000e+03 2.300000000000000000e+03 2.300000000000000000e+03 2.300000000000000000e+03 2.300000000000000000e+03 2.300000000000000000e+03 2.300000000000000000e+03 2.300000000000000000e+03 6.500000000000000000e+03 1.000000000000000000e+02 4.000000000000000000e+02 3.180000000000000000e+04 9.000000000000000000e+02 8.000000000000000000e+02 7.000000000000000000e+02 6.000000000000000000e+02 5.000000000000000000e+02 4.000000000000000000e+02 3.000000000000000000e+02 2.000000000000000000e+02 1.000000000000000000e+02 3.000000000000000000e+02 2.000000000000000000e+02 1.000000000000000000e+02 1.000000000000000000e+02 2.000000000000000000e+02 3.000000000000000000e+02 6.000000000000000000e+02 4.000000000000000000e+02 5.000000000000000000e+02 6.000000000000000000e+02 1.700000000000000000e+03 7.000000000000000000e+02 8.000000000000000000e+02 9.000000000000000000e+02 2.100000000000000000e+03 1.830000000000000000e+04 2.300000000000000000e+03 2.100000000000000000e+03 2.300000000000000000e+03 2.300000000000000000e+03 1.900000000000000000e+03 1.700000000000000000e+03 1.300000000000000000e+03 1.000000000000000000e+02 2.000000000000000000e+02 3.000000000000000000e+02 1.080000000000000000e+04 2.400000000000000000e+03 2.300000000000000000e+03 1.000000000000000000e+02 2.000000000000000000e+02 2.810000000000000000e+04 8.000000000000000000e+02
6.900000000000000000e+03 1.000000000000000000e+02 2.000000000000000000e+02 3.000000000000000000e+02 3.660000000000000000e+04 2.200000000000000000e+03 2.000000000000000000e+03 1.900000000000000000e+03 1.800000000000000000e+03 1.700000000000000000e+03 1.600000000000000000e+03 1.500000000000000000e+03 1.400000000000000000e+03 1.300000000000000000e+03 1.200000000000000000e+03 1.100000000000000000e+03 1.000000000000000000e+03 9.000000000000000000e+02 8.000000000000000000e+02 7.000000000000000000e+02 2.100000000000000000e+03 6.000000000000000000e+02 5.000000000000000000e+02 4.000000000000000000e+02 3.000000000000000000e+02 2.000000000000000000e+02 1.000000000000000000e+02 1.000000000000000000e+02 2.200000000000000000e+03 2.000000000000000000e+02 3.000000000000000000e+02 4.000000000000000000e+02 5.000000000000000000e+02 6.000000000000000000e+02 7.000000000000000000e+02 8.000000000000000000e+02 9.000000000000000000e+02 1.000000000000000000e+03 1.100000000000000000e+03 1.200000000000000000e+03 1.300000000000000000e+03 1.400000000000000000e+03 1.500000000000000000e+03 1.600000000000000000e+03 1.700000000000000000e+03 1.800000000000000000e+03 1.900000000000000000e+03 2.000000000000000000e+03 2.100000000000000000e+03 2.300000000000000000e+03 2.400000000000000000e+03 2.400000000000000000e+03 2.400000000000000000e+03 2.300000000000000000e+03 2.300000000000000000e+03 2.300000000000000000e+03 2.300000000000000000e+03 4.600000000000000000e+03 3.930000000000000000e+04 2.000000000000000000e+02 4.000000000000000000e+02 2.400000000000000000e+03 2.400000000000000000e+03 2.400000000000000000e+03 2.400000000000000000e+03 2.400000000000000000e+03 2.400000000000000000e+03 2.400000000000000000e+03 2.400000000000000000e+03 2.400000000000000000e+03 2.400000000000000000e+03 2.400000000000000000e+03 2.400000000000000000e+03 6.700000000000000000e+03 1.000000000000000000e+02 3.360000000000000000e+04 1.300000000000000000e+03 1.200000000000000000e+03 1.100000000000000000e+03 1.000000000000000000e+03 9.000000000000000000e+02 8.000000000000000000e+02 7.000000000000000000e+02 6.000000000000000000e+02 5.000000000000000000e+02 4.000000000000000000e+02 3.000000000000000000e+02 1.000000000000000000e+02 2.000000000000000000e+02 1.000000000000000000e+02 2.000000000000000000e+02 3.000000000000000000e+02 4.000000000000000000e+02 7.000000000000000000e+02 5.000000000000000000e+02 6.000000000000000000e+02 7.000000000000000000e+02 1.800000000000000000e+03 8.000000000000000000e+02 9.000000000000000000e+02 1.000000000000000000e+03 2.050000000000000000e+04 2.400000000000000000e+03 2.200000000000000000e+03 2.400000000000000000e+03 2.400000000000000000e+03 2.000000000000000000e+03 1.800000000000000000e+03 1.400000000000000000e+03 1.000000000000000000e+02 2.000000000000000000e+02 3.000000000000000000e+02 1.120000000000000000e+04 2.500000000000000000e+03 2.400000000000000000e+03 1.000000000000000000e+02 2.000000000000000000e+02 2.920000000000000000e+04 6.000000000000000000e+02
7.200000000000000000e+03 1.000000000000000000e+02 2.000000000000000000e+02 3.000000000000000000e+02 3.920000000000000000e+04 2.100000000000000000e+03 2.000000000000000000e+03 1.900000000000000000e+03 1.800000000000000000e+03 1.700000000000000000e+03 1.600000000000000000e+03 1.500000000000000000e+03 1.400000000000000000e+03 1.300000000000000000e+03 1.200000000000000000e+03 1.100000000000000000e+03 1.000000000000000000e+03 9.000000000000000000e+02 8.000000000000000000e+02 2.200000000000000000e+03 7.000000000000000000e+02 6.000000000000000000e+02 5.000000000000000000e+02 4.000000000000000000e+02 3.000000000000000000e+02 2.000000000000000000e+02 1.000000000000000000e+02 2.000000000000000000e+02 1.000000000000000000e+02 2.300000000000000000e+03 3.000000000000000000e+02 4.000000000000000000e+02 5.000000000000000000e+02 6.000000000000000000e+02 7.000000000000000000e+02 8.000000000000000000e+02 9.000000000000000000e+02 1.000000000000000000e+03 1.100000000000000000e+03 1.200000000000000000e+03 1.300000000000000000e+03 1.400000000000000000e+03 1.500000000000000000e+03 1.600000000000000000e+03 1.700000000000000000e+03 1.800000000000000000e+03 1.900000000000000000e+03 2.000000000000000000e+03 2.100000000000000000e+03 2.200000000000000000e+03 2.400000000000000000e+03 2.500000000000000000e+03 2.500000000000000000e+03 2.500000000000000000e+03 2.400000000000000000e+03 2.400000000000000000e+03 2.400000000000000000e+03 1.000000000000000000e+02 2.000000000000000000e+02 3.980000000000000000e+04 5.000000000000000000e+02 2.500000000000000000e+03 2.500000000000000000e+03 2.500000000000000000e+03 2.500000000000000000e+03 2.500000000000000000e+03 2.500000000000000000e+03 2.500000000000000000e+03 2.500000000000000000e+03 2.500000000000000000e+03 2.500000000000000000e+03 2.500000000000000000e+03 2.500000000000000000e+03 4.160000000000000000e+04 3.470000000000000000e+04 1.000000000000000000e+03 9.000000000000000000e+02 8.000000000000000000e+02 7.000000000000000000e+02 6.000000000000000000e+02 5.000000000000000000e+02 4.000000000000000000e+02 3.000000000000000000e+02 2.000000000000000000e+02 1.000000000000000000e+02 4.000000000000000000e+02 2.000000000000000000e+02 1.000000000000000000e+02 3.000000000000000000e+02 1.000000000000000000e+02 2.000000000000000000e+02 3.000000000000000000e+02 4.000000000000000000e+02 5.000000000000000000e+02 8.000000000000000000e+02 6.000000000000000000e+02 7.000000000000000000e+02 8.000000000000000000e+02 1.900000000000000000e+03 9.000000000000000000e+02 1.000000000000000000e+03 2.160000000000000000e+04 2.500000000000000000e+03 2.300000000000000000e+03 2.500000000000000000e+03 2.500000000000000000e+03 2.100000000000000000e+03 1.900000000000000000e+03 1.500000000000000000e+03 1.000000000000000000e+02 2.000000000000000000e+02 3.000000000000000000e+02 1.160000000000000000e+04 2.600000000000000000e+03 2.500000000000000000e+03 1.000000000000000000e+02 2.000000000000000000e+02 3.010000000000000000e+04 5.000000000000000000e+02
7.500000000000000000e+03 1.000000000000000000e+02 2.000000000000000000e+02 3.000000000000000000e+02 4.170000000000000000e+04 2.100000000000000000e+03 2.000000000000000000e+03 1.900000000000000000e+03 1.800000000000000000e+03 1.700000000000000000e+03 1.600000000000000000e+03 1.500000000000000000e+03 1.400000000000000000e+03 1.300000000000000000e+03 1.200000000000000000e+03 1.100000000000000000e+03 1.000000000000000000e+03 9.000000000000000000e+02 2.300000000000000000e+03 8.000000000000000000e+02 7.000000000000000000e+02 6.000000000000000000e+02 5.000000000000000000e+02 4.000000000000000000e+02 3.000000000000000000e+02 2.000000000000000000e+02 3.000000000000000000e+02 1.000000000000000000e+02 1.000000000000000000e+02 2.000000000000000000e+02 2.400000000000000000e+03 4.000000000000000000e+02 5.000000000000000000e+02 6.000000000000000000e+02 7.000000000000000000e+02 8.000000000000000000e+02 9.000000000000000000e+02 1.000000000000000000e+03 1.100000000000000000e+03 1.200000000000000000e+03 1.300000000000000000e+03 1.400000000000000000e+03 1.500000000000000000e+03 1.600000000000000000e+03 1.700000000000000000e+03 1.800000000000000000e+03 1.900000000000000000e+03 2.000000000000000000e+03 2.100000000000000000e+03 2.200000000000000000e+03 2.300000000000000000e+03 2.500000000000000000e+03 2.600000000000000000e+03 2.600000000000000000e+03 2.600000000000000000e+03 2.500000000000000000e+03 2.500000000000000000e+03 2.500000000000000000e+03 1.000000000000000000e+02 1.000000000000000000e+02 4.290000000000000000e+04 1.000000000000000000e+02 2.600000000000000000e+03 2.600000000000000000e+03 2.600000000000000000e+03 2.600000000000000000e+03 2.600000000000000000e+03 2.600000000000000000e+03 2.600000000000000000e+03 2.600000000000000000e+03 2.600000000000000000e+03 2.600000000000000000e+03 4.420000000000000000e+04 1.100000000000000000e+03 1.000000000000000000e+03 9.000000000000000000e+02 8.000000000000000000e+02 7.000000000000000000e+02 6.000000000000000000e+02 5.000000000000000000e+02 4.000000000000000000e+02 3.000000000000000000e+02 2.000000000000000000e+02 1.000000000000000000e+02 5.000000000000000000e+02 3.000000000000000000e+02 2.000000000000000000e+02 1.000000000000000000e+02 4.000000000000000000e+02 1.000000000000000000e+02 2.000000000000000000e+02 3.000000000000000000e+02 4.000000000000000000e+02 5.000000000000000000e+02 6.000000000000000000e+02 9.000000000000000000e+02 7.000000000000000000e+02 8.000000000000000000e+02 9.000000000000000000e+02 2.000000000000000000e+03 1.000000000000000000e+03 2.270000000000000000e+04 2.600000000000000000e+03 2.400000000000000000e+03 2.600000000000000000e+03 2.600000000000000000e+03 2.200000000000000000e+03 2.000000000000000000e+03 1.600000000000000000e+03 1.000000000000000000e+02 2.000000000000000000e+02 3.000000000000000000e+02 1.200000000000000000e+04 2.700000000000000000e+03 2.600000000000000000e+03 1.000000000000000000e+02 2.000000000000000000e+02 3.090000000000000000e+04 4.000000000000000000e+02
7.800000000000000000e+03 1.000000000000000000e+02 2.000000000000000000e+02 3.000000000000000000e+02 4.630000000000000000e+04 2.100000000000000000e+03 2.000000000000000000e+03 1.900000000000000000e+03 1.800000000000000000e+03 1.700000000000000000e+03 1.600000000000000000e+03 1.500000000000000000e+03 1.400000000000000000e+03 1.300000000000000000e+03 1.200000000000000000e+03 1.100000000000000000e+03 1.000000000000000000e+03 2.400000000000000000e+03 9.000000000000000000e+02 8.000000000000000000e+02 7.000000000000000000e+02 6.000000000000000000e+02 5.000000000000000000e+02 4.000000000000000000e+02 3.000000000000000000e+02 4.000000000000000000e+02 2.000000000000000000e+02 1.000000000000000000e+02 1.000000000000000000e+02 2.000000000000000000e+02 5.000000000000000000e+02 3.000000000000000000e+03 3.500000000000000000e+03 6.000000000000000000e+02 7.000000000000000000e+02 8.000000000000000000e+02 9.000000000000000000e+02 1.000000000000000000e+03 1.100000000000000000e+03 1.200000000000000000e+03 1.300000000000000000e+03 1.400000000000000000e+03 1.500000000000000000e+03 1.600000000000000000e+03 1.700000000000000000e+03 1.800000000000000000e+03 1.900000000000000000e+03 2.000000000000000000e+03 2.100000000000000000e+03 2.200000000000000000e+03 2.300000000000000000e+03 2.400000000000000000e+03 2.600000000000000000e+03 2.700000000000000000e+03 2.700000000000000000e+03 2.700000000000000000e+03 2.600000000000000000e+03 2.600000000000000000e+03 2.600000000000000000e+03 2.800000000000000000e+03 4.590000000000000000e+04 2.000000000000000000e+02 2.700000000000000000e+03 2.700000000000000000e+03 2.700000000000000000e+03 2.700000000000000000e+03 2.700000000000000000e+03 2.700000000000000000e+03 2.700000000000000000e+03 2.700000000000000000e+03 2.700000000000000000e+03 2.700000000000000000e+03 4.640000000000000000e+04 1.000000000000000000e+03 9.000000000000000000e+02 8.000000000000000000e+02 7.000000000000000000e+02 6.000000000000000000e+02 5.000000000000000000e+02 4.000000000000000000e+02 3.000000000000000000e+02 2.000000000000000000e+02 1.000000000000000000e+02 6.000000000000000000e+02 4.000000000000000000e+02 3.000000000000000000e+02 1.000000000000000000e+02 2.000000000000000000e+02 5.000000000000000000e+02 1.000000000000000000e+02 2.000000000000000000e+02 3.000000000000000000e+02 4.000000000000000000e+02 5.000000000000000000e+02 6.000000000000000000e+02 7.000000000000000000e+02 1.000000000000000000e+03 8.000000000000000000e+02 9.000000000000000000e+02 1.900000000000000000e+03 4.000000000000000000e+03 2.780000000000000000e+04 2.700000000000000000e+03 5.100000000000000000e+03 1.000000000000000000e+02 2.700000000000000000e+03 2.300000000000000000e+03 2.100000000000000000e+03 1.700000000000000000e+03 1.000000000000000000e+02 2.000000000000000000e+02 3.000000000000000000e+02 1.240000000000000000e+04 2.800000000000000000e+03 2.700000000000000000e+03 1.000000000000000000e+02 2.000000000000000000e+02 3.160000000000000000e+04 3.000000000000000000e+02
8.100000000000000000e+03 1.000000000000000000e+02 2.000000000000000000e+02 4.690000000000000000e+04 1.000000000000000000e+02 2.100000000000000000e+03 2.000000000000000000e+03 1.900000000000000000e+03 1.800000000000000000e+03 1.700000000000000000e+03 1.600000000000000000e+03 1.500000000000000000e+03 1.400000000000000000e+03 1.300000000000000000e+03 1.200000000000000000e+03 1.100000000000000000e+03 2.500000000000000000e+03 1.000000000000000000e+03 9.000000000000000000e+02 8.000000000000000000e+02 7.000000000000000000e+02 6.000000000000000000e+02 5.000000000000000000e+02 4.000000000000000000e+02 5.000000000000000000e+02 3.000000000000000000e+02 2.000000000000000000e+02 1.000000000000000000e+02 1.000000000000000000e+02 2.000000000000000000e+02 3.000000000000000000e+02 4.000000000000000000e+02 5.000000000000000000e+02 4.100000000000000000e+03 4.800000000000000000e+03 8.000000000000000000e+02 9.000000000000000000e+02 1.000000000000000000e+03 1.100000000000000000e+03 1.200000000000000000e+03 1.300000000000000000e+03 1.400000000000000000e+03 1.500000000000000000e+03 1.600000000000000000e+03 1.700000000000000000e+03 1.800000000000000000e+03 1.900000000000000000e+03 2.000000000000000000e+03 2.100000000000000000e+03 2.200000000000000000e+03 2.300000000000000000e+03 2.400000000000000000e+03 2.500000000000000000e+03 2.700000000000000000e+03 2.800000000000000000e+03 2.800000000000000000e+03 2.800000000000000000e+03 2.700000000000000000e+03 2.700000000000000000e+03 1.000000000000000000e+02 2.000000000000000000e+02 4.640000000000000000e+04 2.800000000000000000e+03 2.800000000000000000e+03 2.800000000000000000e+03 2.800000000000000000e+03 2.800000000000000000e+03 2.800000000000000000e+03 2.800000000000000000e+03 2.800000000000000000e+03 2.800000000000000000e+03 5.020000000000000000e+04 1.000000000000000000e+03 9.000000000000000000e+02 8.000000000000000000e+02 7.000000000000000000e+02 6.000000000000000000e+02 5.000000000000000000e+02 4.000000000000000000e+02 3.000000000000000000e+02 2.000000000000000000e+02 1.000000000000000000e+02 7.000000000000000000e+02 5.000000000000000000e+02 4.000000000000000000e+02 2.000000000000000000e+02 1.000000000000000000e+02 3.000000000000000000e+02 6.000000000000000000e+02 1.000000000000000000e+02 2.000000000000000000e+02 3.000000000000000000e+02 4.000000000000000000e+02 5.000000000000000000e+02 6.000000000000000000e+02 7.000000000000000000e+02 8.000000000000000000e+02 1.100000000000000000e+03 9.000000000000000000e+02 1.000000000000000000e+02 1.000000000000000000e+02 1.000000000000000000e+02 3.570000000000000000e+04 1.000000000000000000e+02 2.000000000000000000e+02 2.800000000000000000e+03 2.400000000000000000e+03 2.200000000000000000e+03 1.800000000000000000e+03 1.000000000000000000e+02 2.000000000000000000e+02 3.000000000000000000e+02 1.280000000000000000e+04 2.900000000000000000e+03 2.800000000000000000e+03 1.000000000000000000e+02 2.000000000000000000e+02 3.220000000000000000e+04 2.000000000000000000e+02
8.400000000000000000e+03 1.000000000000000000e+02 2.000000000000000000e+02 4.730000000000000000e+04 2.200000000000000000e+03 2.100000000000000000e+03 2.000000000000000000e+03 1.900000000000000000e+03 1.800000000000000000e+03 1.700000000000000000e+03 1.600000000000000000e+03 1.500000000000000000e+03 1.400000000000000000e+03 1.300000000000000000e+03 1.200000000000000000e+03 2.600000000000000000e+03 1.100000000000000000e+03 1.000000000000000000e+03 9.000000000000000000e+02 8.000000000000000000e+02 7.000000000000000000e+02 6.000000000000000000e+02 5.000000000000000000e+02 6.000000000000000000e+02 4.000000000000000000e+02 3.000000000000000000e+02 2.000000000000000000e+02 1.000000000000000000e+02 1.000000000000000000e+02 3.000000000000000000e+02 4.000000000000000000e+02 5.000000000000000000e+02 6.000000000000000000e+02 7.000000000000000000e+02 8.000000000000000000e+02 5.700000000000000000e+03 6.600000000000000000e+03 1.000000000000000000e+03 1.100000000000000000e+03 1.200000000000000000e+03 1.300000000000000000e+03 1.400000000000000000e+03 1.500000000000000000e+03 1.600000000000000000e+03 1.700000000000000000e+03 1.800000000000000000e+03 1.900000000000000000e+03 2.000000000000000000e+03 2.100000000000000000e+03 2.200000000000000000e+03 2.300000000000000000e+03 2.400000000000000000e+03 2.500000000000000000e+03 2.600000000000000000e+03 2.800000000000000000e+03 2.900000000000000000e+03 2.900000000000000000e+03 2.900000000000000000e+03 2.800000000000000000e+03 2.800000000000000000e+03 1.000000000000000000e+02 2.000000000000000000e+02 4.950000000000000000e+04 2.900000000000000000e+03 2.900000000000000000e+03 2.900000000000000000e+03 2.900000000000000000e+03 2.900000000000000000e+03 2.900000000000000000e+03 2.900000000000000000e+03 5.310000000000000000e+04 1.000000000000000000e+03 9.000000000000000000e+02 8.000000000000000000e+02 7.000000000000000000e+02 6.000000000000000000e+02 5.000000000000000000e+02 4.000000000000000000e+02 3.000000000000000000e+02 2.000000000000000000e+02 1.000000000000000000e+02 8.000000000000000000e+02 6.000000000000000000e+02 5.000000000000000000e+02 3.000000000000000000e+02 1.000000000000000000e+02 2.000000000000000000e+02 4.000000000000000000e+02 7.000000000000000000e+02 1.000000000000000000e+02 2.000000000000000000e+02 3.000000000000000000e+02 4.000000000000000000e+02 5.000000000000000000e+02 6.000000000000000000e+02 7.000000000000000000e+02 8.000000000000000000e+02 9.000000000000000000e+02 1.200000000000000000e+03 1.000000000000000000e+03 2.000000000000000000e+02 2.000000000000000000e+02 3.600000000000000000e+04 1.000000000000000000e+02 3.000000000000000000e+02 2.900000000000000000e+03 2.500000000000000000e+03 2.300000000000000000e+03 1.900000000000000000e+03 1.000000000000000000e+02 2.000000000000000000e+02 3.000000000000000000e+02 1.320000000000000000e+04 3.000000000000000000e+03 2.900000000000000000e+03 1.000000000000000000e+02 2.000000000000000000e+02 3.270000000000000000e+04 1.000000000000000000e+02
8.700000000000000000e+03 1.000000000000000000e+02 2.000000000000000000e+02 4.980000000000000000e+04 2.200000000000000000e+03 2.100000000000000000e+03 2.000000000000000000e+03 1.900000000000000000e+03 1.800000000000000000e+03 1.700000000000000000e+03 1.600000000000000000e+03 1.500000000000000000e+03 1.400000000000000000e+03 1.300000000000000000e+03 2.700000000000000000e+03 1.200000000000000000e+03 1.100000000000000000e+03 1.000000000000000000e+03 9.000000000000000000e+02 4.200000000000000000e+03 3.400000000000000000e+03 2.700000000000000000e+03 2.100000000000000000e+03 1.400000000000000000e+03 9.000000000000000000e+02 5.000000000000000000e+02 2.000000000000000000e+02 1.000000000000000000e+02 1.000000000000000000e+02 2.000000000000000000e+02 3.000000000000000000e+02 4.000000000000000000e+02 5.000000000000000000e+02 6.000000000000000000e+02 7.000000000000000000e+02 8.000000000000000000e+02 9.000000000000000000e+02 7.600000000000000000e+03 8.700000000000000000e+03 1.200000000000000000e+03 1.300000000000000000e+03 1.400000000000000000e+03 1.500000000000000000e+03 1.600000000000000000e+03 1.700000000000000000e+03 1.800000000000000000e+03 1.900000000000000000e+03 2.000000000000000000e+03 2.100000000000000000e+03 2.200000000000000000e+03 2.300000000000000000e+03 2.400000000000000000e+03 2.500000000000000000e+03 2.600000000000000000e+03 2.700000000000000000e+03 2.900000000000000000e+03 3.000000000000000000e+03 3.000000000000000000e+03 3.000000000000000000e+03 2.900000000000000000e+03 2.900000000000000000e+03 1.000000000000000000e+02 2.000000000000000000e+02 5.270000000000000000e+04 3.000000000000000000e+03 3.000000000000000000e+03 3.000000000000000000e+03 3.000000000000000000e+03 3.000000000000000000e+03 3.000000000000000000e+03 5.510000000000000000e+04 9.000000000000000000e+02 8.000000000000000000e+02 7.000000000000000000e+02 6.000000000000000000e+02 5.000000000000000000e+02 4.000000000000000000e+02 3.000000000000000000e+02 2.000000000000000000e+02 1.000000000000000000e+02 9.000000000000000000e+02 7.000000000000000000e+02 6.000000000000000000e+02 4.000000000000000000e+02 1.000000000000000000e+02 2.000000000000000000e+02 3.000000000000000000e+02 5.000000000000000000e+02 8.000000000000000000e+02 2.000000000000000000e+02 1.000000000000000000e+02 3.000000000000000000e+02 4.000000000000000000e+02 5.000000000000000000e+02 6.000000000000000000e+02 7.000000000000000000e+02 8.000000000000000000e+02 9.000000000000000000e+02 1.000000000000000000e+03 1.300000000000000000e+03 1.100000000000000000e+03 3.000000000000000000e+02 3.640000000000000000e+04 1.000000000000000000e+02 4.000000000000000000e+02 3.000000000000000000e+03 2.600000000000000000e+03 2.400000000000000000e+03 2.000000000000000000e+03 1.000000000000000000e+02 2.000000000000000000e+02 3.000000000000000000e+02 1.360000000000000000e+04 3.100000000000000000e+03 3.000000000000000000e+03 1.000000000000000000e+02 2.000000000000000000e+02 3.310000000000000000e+04 1.000000000000000000e+02
9.000000000000000000e+03 1.000000000000000000e+02 2.000000000000000000e+02 5.230000000000000000e+04 2.200000000000000000e+03 2.100000000000000000e+03 2.000000000000000000e+03 1.900000000000000000e+03 1.800000000000000000e+03 1.700000000000000000e+03 1.600000000000000000e+03 1.500000000000000000e+03 1.400000000000000000e+03 2.800000000000000000e+03 1.300000000000000000e+03 1.200000000000000000e+03 1.100000000000000000e+03 6.300000000000000000e+03 5.300000000000000000e+03 1.000000000000000000e+03 9.000000000000000000e+02 8.000000000000000000e+02 7.000000000000000000e+02 6.000000000000000000e+02 5.000000000000000000e+02 4.000000000000000000e+02 3.000000000000000000e+02 1.000000000000000000e+02 1.000000000000000000e+02 2.000000000000000000e+02 3.000000000000000000e+02 4.000000000000000000e+02 5.000000000000000000e+02 6.000000000000000000e+02 7.000000000000000000e+02 8.000000000000000000e+02 9.000000000000000000e+02 1.000000000000000000e+03 1.100000000000000000e+03 9.900000000000000000e+03 1.120000000000000000e+04 1.400000000000000000e+03 1.500000000000000000e+03 1.600000000000000000e+03 1.700000000000000000e+03 1.800000000000000000e+03 1.900000000000000000e+03 2.000000000000000000e+03 2.100000000000000000e+03 2.200000000000000000e+03 2.300000000000000000e+03 2.400000000000000000e+03 2.500000000000000000e+03 2.600000000000000000e+03 2.700000000000000000e+03 2.800000000000000000e+03 3.000000000000000000e+03 3.100000000000000000e+03 3.100000000000000000e+03 3.100000000000000000e+03 3.000000000000000000e+03 3.000000000000000000e+03 1.000000000000000000e+02 1.000000000000000000e+02 5.590000000000000000e+04 3.100000000000000000e+03 3.100000000000000000e+03 3.100000000000000000e+03 3.100000000000000000e+03 5.900000000000000000e+04 8.000000000000000000e+02 7.000000000000000000e+02 6.000000000000000000e+02 5.000000000000000000e+02 4.000000000000000000e+02 3.000000000000000000e+02 2.000000000000000000e+02 1.000000000000000000e+02 1.000000000000000000e+02 1.000000000000000000e+03 8.000000000000000000e+02 7.000000000000000000e+02 5.000000000000000000e+02 2.000000000000000000e+02 1.000000000000000000e+02 3.000000000000000000e+02 4.000000000000000000e+02 6.000000000000000000e+02 9.000000000000000000e+02 3.000000000000000000e+02 1.000000000000000000e+02 2.000000000000000000e+02 4.000000000000000000e+02 5.000000000000000000e+02 6.000000000000000000e+02 7.000000000000000000e+02 8.000000000000000000e+02 9.000000000000000000e+02 1.000000000000000000e+03 1.100000000000000000e+03 1.400000000000000000e+03 1.200000000000000000e+03 3.690000000000000000e+04 1.000000000000000000e+02 5.000000000000000000e+02 3.100000000000000000e+03 2.700000000000000000e+03 2.500000000000000000e+03 2.100000000000000000e+03 2.000000000000000000e+02 1.000000000000000000e+02 3.000000000000000000e+02 1.400000000000000000e+04 3.200000000000000000e+03 3.100000000000000000e+03 1.000000000000000000e+02 2.000000000000000000e+02 3.340000000000000000e+04 3.660000000000000000e+04
9.300000000000000000e+03 1.000000000000000000e+02 2.000000000000000000e+02 5.480000000000000000e+04 2.200000000000000000e+03 2.100000000000000000e+03 2.000000000000000000e+03 1.900000000000000000e+03 1.800000000000000000e+03 1.700000000000000000e+03 1.600000000000000000e+03 1.500000000000000000e+03 2.900000000000000000e+03 1.400000000000000000e+03 1.300000000000000000e+03 8.700000000000000000e+03 7.500000000000000000e+03 1.100000000000000000e+03 1.000000000000000000e+03 9.000000000000000000e+02 8.000000000000000000e+02 7.000000000000000000e+02 6.000000000000000000e+02 5.000000000000000000e+02 4.000000000000000000e+02 3.000000000000000000e+02 2.000000000000000000e+02 1.000000000000000000e+02 1.000000000000000000e+02 2.000000000000000000e+02 3.000000000000000000e+02 4.000000000000000000e+02 5.000000000000000000e+02 6.000000000000000000e+02 7.000000000000000000e+02 8.000000000000000000e+02 9.000000000000000000e+02 1.000000000000000000e+03 1.100000000000000000e+03 1.200000000000000000e+03 1.300000000000000000e+03 1.260000000000000000e+04 1.410000000000000000e+04 1.600000000000000000e+03 1.700000000000000000e+03 1.800000000000000000e+03 1.900000000000000000e+03 2.000000000000000000e+03 2.100000000000000000e+03 2.200000000000000000e+03 2.300000000000000000e+03 2.400000000000000000e+03 2.500000000000000000e+03 2.600000000000000000e+03 2.700000000000000000e+03 2.800000000000000000e+03 2.900000000000000000e+03 3.100000000000000000e+03 3.200000000000000000e+03 3.200000000000000000e+03 3.200000000000000000e+03 3.100000000000000000e+03 3.100000000000000000e+03 2.000000000000000000e+02 1.000000000000000000e+02 5.920000000000000000e+04 3.200000000000000000e+03 3.200000000000000000e+03 6.300000000000000000e+04 8.000000000000000000e+02 7.000000000000000000e+02 6.000000000000000000e+02 5.000000000000000000e+02 4.000000000000000000e+02 3.000000000000000000e+02 2.000000000000000000e+02 1.000000000000000000e+02 2.000000000000000000e+02 1.100000000000000000e+03 9.000000000000000000e+02 8.000000000000000000e+02 6.000000000000000000e+02 3.000000000000000000e+02 1.000000000000000000e+02 2.000000000000000000e+02 4.000000000000000000e+02 5.000000000000000000e+02 7.000000000000000000e+02 1.000000000000000000e+03 4.000000000000000000e+02 1.000000000000000000e+02 2.000000000000000000e+02 3.000000000000000000e+02 5.000000000000000000e+02 6.000000000000000000e+02 7.000000000000000000e+02 8.000000000000000000e+02 9.000000000000000000e+02 1.000000000000000000e+03 1.100000000000000000e+03 1.200000000000000000e+03 1.500000000000000000e+03 3.830000000000000000e+04 1.000000000000000000e+02 6.000000000000000000e+02 3.200000000000000000e+03 2.800000000000000000e+03 2.600000000000000000e+03 2.200000000000000000e+03 3.000000000000000000e+02 1.000000000000000000e+02 2.000000000000000000e+02 1.440000000000000000e+04 3.300000000000000000e+03 3.200000000000000000e+03 1.000000000000000000e+02 2.000000000000000000e+02 7.050000000000000000e+04 2.000000000000000000e+02
9.600000000000000000e+03 1.000000000000000000e+02 2.000000000000000000e+02 6.160000000000000000e+04 4.300000000000000000e+03 2.100000000000000000e+03 2.000000000000000000e+03 1.900000000000000000e+03 1.800000000000000000e+03 1.700000000000000000e+03 1.600000000000000000e+03 3.000000000000000000e+03 1.500000000000000000e+03 1.150000000000000000e+04 1.010000000000000000e+04 1.300000000000000000e+03 1.200000000000000000e+03 1.100000000000000000e+03 1.000000000000000000e+03 9.000000000000000000e+02 8.000000000000000000e+02 7.000000000000000000e+02 6.000000000000000000e+02 5.000000000000000000e+02 4.000000000000000000e+02 3.000000000000000000e+02 2.000000000000000000e+02 1.000000000000000000e+02 1.000000000000000000e+02 2.000000000000000000e+02 3.000000000000000000e+02 4.000000000000000000e+02 5.000000000000000000e+02 6.000000000000000000e+02 7.000000000000000000e+02 8.000000000000000000e+02 9.000000000000000000e+02 1.000000000000000000e+03 4.600000000000000000e+03 5.200000000000000000e+03 5.800000000000000000e+03 6.900000000000000000e+03 7.600000000000000000e+03 2.290000000000000000e+04 2.530000000000000000e+04 2.780000000000000000e+04 2.970000000000000000e+04 2.000000000000000000e+03 2.100000000000000000e+03 2.200000000000000000e+03 2.300000000000000000e+03 2.400000000000000000e+03 2.500000000000000000e+03 2.600000000000000000e+03 2.700000000000000000e+03 2.800000000000000000e+03 2.900000000000000000e+03 3.000000000000000000e+03 3.200000000000000000e+03 3.300000000000000000e+03 3.300000000000000000e+03 3.300000000000000000e+03 3.200000000000000000e+03 3.200000000000000000e+03 3.000000000000000000e+02 1.000000000000000000e+02 6.570000000000000000e+04 6.390000000000000000e+04 8.000000000000000000e+02 7.000000000000000000e+02 6.000000000000000000e+02 5.000000000000000000e+02 4.000000000000000000e+02 3.000000000000000000e+02 2.000000000000000000e+02 1.000000000000000000e+02 3.000000000000000000e+02 1.200000000000000000e+03 1.000000000000000000e+03 9.000000000000000000e+02 7.000000000000000000e+02 4.000000000000000000e+02 1.000000000000000000e+02 2.000000000000000000e+02 3.000000000000000000e+02 5.000000000000000000e+02 6.000000000000000000e+02 8.000000000000000000e+02 1.100000000000000000e+03 5.000000000000000000e+02 2.000000000000000000e+02 1.000000000000000000e+02 3.000000000000000000e+02 4.000000000000000000e+02 1.000000000000000000e+03 1.700000000000000000e+03 2.500000000000000000e+03 3.400000000000000000e+03 4.400000000000000000e+03 5.500000000000000000e+03 6.700000000000000000e+03 8.000000000000000000e+03 4.790000000000000000e+04 2.000000000000000000e+02 3.900000000000000000e+03 1.000000000000000000e+02 2.900000000000000000e+03 2.700000000000000000e+03 2.300000000000000000e+03 4.000000000000000000e+02 1.000000000000000000e+02 2.000000000000000000e+02 1.470000000000000000e+04 3.400000000000000000e+03 3.300000000000000000e+03 1.000000000000000000e+02 7.090000000000000000e+04 1.000000000000000000e+02 1.000000000000000000e+02
9.900000000000000000e+03 1.000000000000000000e+02 6.200000000000000000e+04 1.000000000000000000e+02 1.000000000000000000e+02 2.100000000000000000e+03 2.000000000000000000e+03 1.900000000000000000e+03 1.800000000000000000e+03 1.700000000000000000e+03 2.080000000000000000e+04 1.770000000000000000e+04 1.590000000000000000e+04 1.500000000000000000e+03 1.400000000000000000e+03 1.300000000000000000e+03 1.200000000000000000e+03 1.100000000000000000e+03 1.000000000000000000e+03 9.000000000000000000e+02 8.000000000000000000e+02 7.000000000000000000e+02 6.000000000000000000e+02 5.000000000000000000e+02 4.000000000000000000e+02 3.000000000000000000e+02 2.000000000000000000e+02 1.000000000000000000e+02 1.000000000000000000e+02 2.000000000000000000e+02 3.000000000000000000e+02 4.000000000000000000e+02 5.000000000000000000e+02 6.000000000000000000e+02 7.000000000000000000e+02 8.000000000000000000e+02 2.600000000000000000e+03 3.500000000000000000e+03 5.000000000000000000e+02 5.000000000000000000e+02 1.000000000000000000e+03 6.000000000000000000e+02 1.100000000000000000e+03 7.000000000000000000e+02 7.000000000000000000e+02 7.000000000000000000e+02 2.000000000000000000e+03 3.250000000000000000e+04 3.530000000000000000e+04 3.820000000000000000e+04 4.190000000000000000e+04 4.510000000000000000e+04 4.840000000000000000e+04 5.360000000000000000e+04 1.000000000000000000e+02 2.800000000000000000e+03 2.900000000000000000e+03 3.000000000000000000e+03 3.100000000000000000e+03 3.300000000000000000e+03 3.400000000000000000e+03 3.400000000000000000e+03 3.400000000000000000e+03 3.300000000000000000e+03 3.300000000000000000e+03 4.000000000000000000e+02 1.305000000000000000e+05 7.000000000000000000e+02 6.000000000000000000e+02 5.000000000000000000e+02 4.000000000000000000e+02 3.000000000000000000e+02 2.000000000000000000e+02 1.000000000000000000e+02 1.000000000000000000e+02 4.000000000000000000e+02 1.300000000000000000e+03 1.100000000000000000e+03 1.000000000000000000e+03 8.000000000000000000e+02 5.000000000000000000e+02 1.000000000000000000e+02 2.000000000000000000e+02 3.000000000000000000e+02 4.000000000000000000e+02 6.000000000000000000e+02 7.000000000000000000e+02 9.000000000000000000e+02 1.200000000000000000e+03 6.000000000000000000e+02 3.000000000000000000e+02 1.000000000000000000e+02 2.000000000000000000e+02 4.000000000000000000e+02 1.000000000000000000e+02 2.000000000000000000e+02 3.000000000000000000e+02 4.000000000000000000e+02 5.000000000000000000e+02 6.000000000000000000e+02 7.000000000000000000e+02 8.000000000000000000e+02 1.000000000000000000e+02 5.210000000000000000e+04 2.000000000000000000e+02 1.000000000000000000e+02 3.000000000000000000e+03 2.800000000000000000e+03 2.400000000000000000e+03 5.000000000000000000e+02 1.000000000000000000e+02 2.000000000000000000e+02 1.500000000000000000e+04 3.500000000000000000e+03 3.400000000000000000e+03 1.000000000000000000e+02 7.120000000000000000e+04 2.000000000000000000e+02 3.000000000000000000e+02
1.020000000000000000e+04 1.000000000000000000e+02 6.230000000000000000e+04 2.000000000000000000e+02 2.200000000000000000e+03 2.100000000000000000e+03 2.000000000000000000e+03 2.680000000000000000e+04 2.490000000000000000e+04 2.290000000000000000e+04 3.000000000000000000e+02 2.000000000000000000e+02 2.000000000000000000e+02 2.800000000000000000e+03 2.600000000000000000e+03 1.200000000000000000e+03 1.100000000000000000e+03 1.000000000000000000e+03 9.000000000000000000e+02 8.000000000000000000e+02 7.000000000000000000e+02 6.000000000000000000e+02 5.000000000000000000e+02 4.000000000000000000e+02 3.000000000000000000e+02 2.000000000000000000e+02 1.000000000000000000e+02 1.000000000000000000e+02 1.000000000000000000e+02 1.000000000000000000e+02 2.000000000000000000e+02 3.000000000000000000e+02 4.000000000000000000e+02 5.000000000000000000e+02 6.000000000000000000e+02 1.700000000000000000e+03 8.000000000000000000e+02 4.000000000000000000e+02 4.000000000000000000e+02 9.000000000000000000e+02 5.000000000000000000e+02 1.000000000000000000e+03 6.000000000000000000e+02 6.000000000000000000e+02 6.000000000000000000e+02 1.200000000000000000e+03 7.000000000000000000e+02 7.000000000000000000e+02 7.000000000000000000e+02 1.400000000000000000e+03 8.000000000000000000e+02 8.000000000000000000e+02 1.400000000000000000e+03 2.300000000000000000e+03 5.680000000000000000e+04 6.060000000000000000e+04 1.000000000000000000e+02 3.000000000000000000e+03 3.100000000000000000e+03 3.200000000000000000e+03 3.400000000000000000e+03 3.500000000000000000e+03 3.500000000000000000e+03 3.500000000000000000e+03 3.400000000000000000e+03 3.800000000000000000e+03 1.312000000000000000e+05 6.000000000000000000e+02 5.000000000000000000e+02 4.000000000000000000e+02 3.000000000000000000e+02 2.000000000000000000e+02 1.000000000000000000e+02 2.000000000000000000e+02 5.000000000000000000e+02 1.400000000000000000e+03 1.200000000000000000e+03 1.100000000000000000e+03 9.000000000000000000e+02 6.000000000000000000e+02 1.000000000000000000e+02 2.000000000000000000e+02 3.000000000000000000e+02 4.000000000000000000e+02 5.000000000000000000e+02 7.000000000000000000e+02 8.000000000000000000e+02 1.000000000000000000e+03 1.300000000000000000e+03 7.000000000000000000e+02 4.000000000000000000e+02 1.000000000000000000e+02 2.000000000000000000e+02 3.000000000000000000e+02 5.000000000000000000e+02 1.000000000000000000e+02 1.000000000000000000e+02 2.000000000000000000e+02 3.000000000000000000e+02 4.000000000000000000e+02 5.000000000000000000e+02 6.000000000000000000e+02 1.500000000000000000e+03 5.250000000000000000e+04 2.000000000000000000e+02 1.000000000000000000e+02 3.100000000000000000e+03 2.900000000000000000e+03 2.500000000000000000e+03 6.000000000000000000e+02 1.000000000000000000e+02 2.000000000000000000e+02 1.530000000000000000e+04 3.600000000000000000e+03 3.500000000000000000e+03 1.000000000000000000e+02 7.160000000000000000e+04 4.000000000000000000e+02 4.320000000000000000e+04
1.740000000000000000e+04 1.000000000000000000e+02 9.700000000000000000e+04 3.430000000000000000e+04 3.190000000000000000e+04 2.960000000000000000e+04 2.740000000000000000e+04 4.000000000000000000e+02 2.000000000000000000e+02 2.000000000000000000e+02 1.700000000000000000e+03 1.000000000000000000e+02 1.000000000000000000e+02 1.000000000000000000e+02 1.000000000000000000e+02 1.300000000000000000e+03 1.200000000000000000e+03 1.100000000000000000e+03 1.000000000000000000e+03 9.000000000000000000e+02 8.000000000000000000e+02 7.000000000000000000e+02 6.000000000000000000e+02 5.000000000000000000e+02 4.000000000000000000e+02 3.000000000000000000e+02 2.000000000000000000e+02 2.000000000000000000e+02 1.000000000000000000e+02 1.000000000000000000e+02 2.000000000000000000e+02 3.000000000000000000e+02 4.000000000000000000e+02 5.000000000000000000e+02 1.000000000000000000e+03 7.000000000000000000e+02 3.000000000000000000e+02 3.000000000000000000e+02 8.000000000000000000e+02 4.000000000000000000e+02 9.000000000000000000e+02 5.000000000000000000e+02 5.000000000000000000e+02 5.000000000000000000e+02 1.100000000000000000e+03 6.000000000000000000e+02 6.000000000000000000e+02 6.000000000000000000e+02 1.300000000000000000e+03 7.000000000000000000e+02 7.000000000000000000e+02 1.300000000000000000e+03 8.000000000000000000e+02 8.000000000000000000e+02 8.000000000000000000e+02 1.200000000000000000e+03 6.270000000000000000e+04 6.370000000000000000e+04 7.070000000000000000e+04 1.000000000000000000e+02 3.300000000000000000e+03 3.500000000000000000e+03 3.600000000000000000e+03 3.600000000000000000e+03 3.600000000000000000e+03 1.390000000000000000e+05 5.000000000000000000e+02 4.000000000000000000e+02 3.000000000000000000e+02 2.000000000000000000e+02 1.000000000000000000e+02 1.000000000000000000e+02 3.000000000000000000e+02 6.000000000000000000e+02 1.500000000000000000e+03 1.300000000000000000e+03 1.200000000000000000e+03 1.000000000000000000e+03 7.000000000000000000e+02 2.000000000000000000e+02 1.000000000000000000e+02 3.000000000000000000e+02 4.000000000000000000e+02 5.000000000000000000e+02 6.000000000000000000e+02 8.000000000000000000e+02 9.000000000000000000e+02 1.100000000000000000e+03 2.100000000000000000e+03 1.000000000000000000e+02 5.000000000000000000e+02 2.000000000000000000e+02 1.000000000000000000e+02 3.000000000000000000e+02 4.000000000000000000e+02 6.000000000000000000e+02 2.000000000000000000e+02 1.000000000000000000e+02 1.000000000000000000e+02 1.000000000000000000e+02 1.000000000000000000e+02 1.000000000000000000e+02 1.000000000000000000e+02 5.430000000000000000e+04 1.000000000000000000e+02 2.000000000000000000e+02 3.200000000000000000e+03 3.000000000000000000e+03 2.600000000000000000e+03 7.000000000000000000e+02 1.000000000000000000e+02 2.000000000000000000e+02 1.560000000000000000e+04 3.700000000000000000e+03 3.600000000000000000e+03 2.000000000000000000e+02 1.167000000000000000e+05 4.420000000000000000e+04 5.000000000000000000e+02
1.000000000000000000e+02 1.146000000000000000e+05 2.000000000000000000e+02 1.000000000000000000e+02 1.000000000000000000e+02 1.000000000000000000e+02 1.000000000000000000e+02 1.000000000000000000e+02 1.000000000000000000e+02 1.000000000000000000e+02 1.000000000000000000e+02 1.500000000000000000e+03 1.400000000000000000e+03 1.300000000000000000e+03 1.200000000000000000e+03 1.100000000000000000e+03 1.000000000000000000e+03 9.000000000000000000e+02 8.000000000000000000e+02 7.000000000000000000e+02 6.000000000000000000e+02 5.000000000000000000e+02 4.000000000000000000e+02 3.000000000000000000e+02 2.000000000000000000e+02 1.000000000000000000e+02 3.000000000000000000e+02 2.000000000000000000e+02 1.000000000000000000e+02 1.000000000000000000e+02 1.000000000000000000e+02 2.000000000000000000e+02 3.000000000000000000e+02 4.000000000000000000e+02 6.000000000000000000e+02 2.000000000000000000e+02 2.000000000000000000e+02 7.000000000000000000e+02 3.000000000000000000e+02 8.000000000000000000e+02 4.000000000000000000e+02 4.000000000000000000e+02 4.000000000000000000e+02 1.000000000000000000e+03 5.000000000000000000e+02 5.000000000000000000e+02 5.000000000000000000e+02 1.200000000000000000e+03 6.000000000000000000e+02 6.000000000000000000e+02 1.200000000000000000e+03 7.000000000000000000e+02 7.000000000000000000e+02 7.000000000000000000e+02 1.100000000000000000e+03 8.000000000000000000e+02 8.000000000000000000e+02 8.000000000000000000e+02 8.000000000000000000e+02 7.230000000000000000e+04 7.320000000000000000e+04 8.080000000000000000e+04 1.000000000000000000e+02 3.700000000000000000e+03 3.700000000000000000e+03 1.430000000000000000e+05 3.000000000000000000e+02 2.000000000000000000e+02 1.000000000000000000e+02 1.000000000000000000e+02 2.000000000000000000e+02 4.000000000000000000e+02 7.000000000000000000e+02 1.600000000000000000e+03 1.400000000000000000e+03 1.300000000000000000e+03 1.100000000000000000e+03 8.000000000000000000e+02 3.000000000000000000e+02 1.000000000000000000e+02 2.000000000000000000e+02 4.000000000000000000e+02 5.000000000000000000e+02 6.000000000000000000e+02 7.000000000000000000e+02 9.000000000000000000e+02 1.000000000000000000e+03 1.200000000000000000e+03 2.300000000000000000e+03 6.000000000000000000e+02 1.000000000000000000e+02 3.000000000000000000e+02 1.000000000000000000e+02 2.000000000000000000e+02 4.000000000000000000e+02 5.000000000000000000e+02 7.000000000000000000e+02 3.000000000000000000e+02 2.000000000000000000e+02 2.000000000000000000e+02 2.000000000000000000e+02 2.000000000000000000e+02 2.000000000000000000e+02 5.460000000000000000e+04 1.000000000000000000e+02 3.000000000000000000e+02 3.300000000000000000e+03 3.100000000000000000e+03 2.700000000000000000e+03 8.000000000000000000e+02 1.000000000000000000e+02 2.000000000000000000e+02 1.590000000000000000e+04 3.800000000000000000e+03 3.700000000000000000e+03 1.175000000000000000e+05 4.000000000000000000e+02 4.000000000000000000e+02 4.000000000000000000e+02
5.000000000000000000e+02 1.173000000000000000e+05 2.300000000000000000e+03 2.200000000000000000e+03 2.100000000000000000e+03 2.000000000000000000e+03 1.900000000000000000e+03 1.800000000000000000e+03 1.700000000000000000e+03 1.600000000000000000e+03 1.500000000000000000e+03 1.400000000000000000e+03 1.300000000000000000e+03 1.200000000000000000e+03 1.100000000000000000e+03 1.000000000000000000e+03 9.000000000000000000e+02 8.000000000000000000e+02 7.000000000000000000e+02 6.000000000000000000e+02 5.000000000000000000e+02 4.000000000000000000e+02 3.000000000000000000e+02 2.000000000000000000e+02 1.000000000000000000e+02 4.000000000000000000e+02 3.000000000000000000e+02 2.000000000000000000e+02 1.000000000000000000e+02 1.000000000000000000e+02 2.000000000000000000e+02 3.000000000000000000e+02 4.000000000000000000e+02 5.000000000000000000e+02 1.000000000000000000e+02 1.000000000000000000e+02 6.000000000000000000e+02 2.000000000000000000e+02 7.000000000000000000e+02 3.000000000000000000e+02 3.000000000000000000e+02 3.000000000000000000e+02 9.000000000000000000e+02 4.000000000000000000e+02 4.000000000000000000e+02 4.000000000000000000e+02 1.100000000000000000e+03 5.000000000000000000e+02 5.000000000000000000e+02 1.100000000000000000e+03 6.000000000000000000e+02 6.000000000000000000e+02 6.000000000000000000e+02 1.000000000000000000e+03 7.000000000000000000e+02 7.000000000000000000e+02 7.000000000000000000e+02 7.000000000000000000e+02 7.000000000000000000e+02 7.000000000000000000e+02 7.000000000000000000e+02 1.500000000000000000e+03 8.300000000000000000e+04 8.370000000000000000e+04 9.130000000000000000e+04 1.433000000000000000e+05 2.000000000000000000e+02 1.000000000000000000e+02 2.000000000000000000e+02 3.000000000000000000e+02 5.000000000000000000e+02 8.000000000000000000e+02 1.700000000000000000e+03 1.500000000000000000e+03 1.400000000000000000e+03 1.200000000000000000e+03 9.000000000000000000e+02 4.000000000000000000e+02 1.000000000000000000e+02 2.000000000000000000e+02 3.000000000000000000e+02 5.000000000000000000e+02 6.000000000000000000e+02 7.000000000000000000e+02 8.000000000000000000e+02 1.000000000000000000e+03 1.100000000000000000e+03 1.300000000000000000e+03 3.000000000000000000e+03 2.000000000000000000e+02 1.000000000000000000e+02 4.000000000000000000e+02 1.000000000000000000e+02 2.000000000000000000e+02 3.000000000000000000e+02 5.000000000000000000e+02 1.100000000000000000e+03 1.900000000000000000e+03 2.300000000000000000e+03 2.600000000000000000e+03 2.900000000000000000e+03 3.200000000000000000e+03 3.500000000000000000e+03 5.840000000000000000e+04 2.000000000000000000e+02 4.000000000000000000e+02 3.400000000000000000e+03 3.200000000000000000e+03 2.800000000000000000e+03 9.000000000000000000e+02 1.000000000000000000e+02 2.000000000000000000e+02 1.620000000000000000e+04 3.900000000000000000e+03 1.242000000000000000e+05 1.000000000000000000e+02 1.000000000000000000e+02 3.000000000000000000e+02 3.000000000000000000e+02
5.000000000000000000e+02 1.201000000000000000e+05 2.200000000000000000e+03 2.100000000000000000e+03 2.000000000000000000e+03 1.900000000000000000e+03 1.800000000000000000e+03 1.700000000000000000e+03 1.600000000000000000e+03 1.500000000000000000e+03 1.400000000000000000e+03 1.300000000000000000e+03 1.200000000000000000e+03 1.100000000000000000e+03 1.000000000000000000e+03 9.000000000000000000e+02 8.000000000000000000e+02 7.000000000000000000e+02 6.000000000000000000e+02 5.000000000000000000e+02 4.000000000000000000e+02 3.000000000000000000e+02 2.000000000000000000e+02 1.000000000000000000e+02 5.000000000000000000e+02 4.000000000000000000e+02 3.000000000000000000e+02 2.000000000000000000e+02 1.000000000000000000e+02 2.000000000000000000e+02 1.000000000000000000e+02 1.000000000000000000e+02 2.000000000000000000e+02 3.000000000000000000e+02 4.000000000000000000e+02 5.000000000000000000e+02 1.000000000000000000e+02 6.000000000000000000e+02 2.000000000000000000e+02 2.000000000000000000e+02 2.000000000000000000e+02 8.000000000000000000e+02 3.000000000000000000e+02 3.000000000000000000e+02 3.000000000000000000e+02 1.000000000000000000e+03 4.000000000000000000e+02 4.000000000000000000e+02 1.000000000000000000e+03 5.000000000000000000e+02 5.000000000000000000e+02 5.000000000000000000e+02 9.000000000000000000e+02 6.000000000000000000e+02 6.000000000000000000e+02 6.000000000000000000e+02 6.000000000000000000e+02 6.000000000000000000e+02 6.000000000000000000e+02 6.000000000000000000e+02 1.400000000000000000e+03 6.000000000000000000e+02 5.000000000000000000e+02 1.000000000000000000e+02 1.000000000000000000e+02 2.349000000000000000e+05 1.000000000000000000e+02 3.000000000000000000e+02 4.000000000000000000e+02 6.000000000000000000e+02 9.000000000000000000e+02 1.800000000000000000e+03 1.600000000000000000e+03 1.500000000000000000e+03 1.300000000000000000e+03 1.000000000000000000e+03 5.000000000000000000e+02 1.000000000000000000e+02 2.000000000000000000e+02 3.000000000000000000e+02 4.000000000000000000e+02 6.000000000000000000e+02 7.000000000000000000e+02 8.000000000000000000e+02 9.000000000000000000e+02 1.100000000000000000e+03 1.200000000000000000e+03 1.400000000000000000e+03 3.300000000000000000e+03 2.000000000000000000e+02 5.000000000000000000e+02 1.000000000000000000e+02 2.000000000000000000e+02 1.000000000000000000e+02 3.000000000000000000e+02 4.000000000000000000e+02 1.000000000000000000e+02 2.000000000000000000e+02 3.000000000000000000e+02 4.000000000000000000e+02 5.000000000000000000e+02 6.000000000000000000e+02 7.000000000000000000e+02 8.000000000000000000e+02 5.910000000000000000e+04 1.000000000000000000e+02 3.500000000000000000e+03 3.300000000000000000e+03 2.900000000000000000e+03 1.000000000000000000e+03 2.000000000000000000e+02 1.000000000000000000e+02 1.650000000000000000e+04 1.287000000000000000e+05 3.000000000000000000e+02 2.800000000000000000e+03 2.500000000000000000e+03 1.000000000000000000e+02 2.000000000000000000e+02
1.211000000000000000e+05 2.200000000000000000e+03 2.100000000000000000e+03 2.000000000000000000e+03 1.900000000000000000e+03 1.800000000000000000e+03 1.700000000000000000e+03 1.600000000000000000e+03 1.500000000000000000e+03 1.400000000000000000e+03 1.300000000000000000e+03 1.200000000000000000e+03 1.100000000000000000e+03 1.000000000000000000e+03 9.000000000000000000e+02 8.000000000000000000e+02 7.000000000000000000e+02 6.000000000000000000e+02 5.000000000000000000e+02 4.000000000000000000e+02 3.000000000000000000e+02 2.000000000000000000e+02 1.000000000000000000e+02 6.000000000000000000e+02 5.000000000000000000e+02 4.000000000000000000e+02 3.000000000000000000e+02 2.000000000000000000e+02 1.000000000000000000e+02 3.000000000000000000e+02 1.000000000000000000e+02 2.000000000000000000e+02 1.000000000000000000e+02 2.000000000000000000e+02 3.000000000000000000e+02 4.000000000000000000e+02 5.000000000000000000e+02 1.000000000000000000e+02 1.000000000000000000e+02 1.000000000000000000e+02 7.000000000000000000e+02 2.000000000000000000e+02 2.000000000000000000e+02 2.000000000000000000e+02 9.000000000000000000e+02 3.000000000000000000e+02 3.000000000000000000e+02 9.000000000000000000e+02 4.000000000000000000e+02 4.000000000000000000e+02 4.000000000000000000e+02 8.000000000000000000e+02 5.000000000000000000e+02 5.000000000000000000e+02 5.000000000000000000e+02 5.000000000000000000e+02 5.000000000000000000e+02 5.000000000000000000e+02 5.000000000000000000e+02 1.300000000000000000e+03 5.000000000000000000e+02 4.000000000000000000e+02 1.000000000000000000e+02 2.000000000000000000e+02 3.000000000000000000e+02 2.357000000000000000e+05 4.000000000000000000e+02 5.000000000000000000e+02 7.000000000000000000e+02 1.000000000000000000e+03 1.900000000000000000e+03 1.700000000000000000e+03 1.600000000000000000e+03 1.400000000000000000e+03 1.100000000000000000e+03 6.000000000000000000e+02 2.000000000000000000e+02 1.000000000000000000e+02 3.000000000000000000e+02 4.000000000000000000e+02 5.000000000000000000e+02 7.000000000000000000e+02 8.000000000000000000e+02 9.000000000000000000e+02 1.000000000000000000e+03 1.200000000000000000e+03 1.300000000000000000e+03 4.800000000000000000e+03 3.000000000000000000e+02 6.000000000000000000e+02 2.000000000000000000e+02 1.000000000000000000e+02 3.000000000000000000e+02 1.000000000000000000e+02 2.000000000000000000e+02 4.000000000000000000e+02 5.000000000000000000e+02 1.000000000000000000e+02 2.000000000000000000e+02 3.000000000000000000e+02 4.000000000000000000e+02 5.000000000000000000e+02 6.000000000000000000e+02 1.000000000000000000e+02 6.020000000000000000e+04 1.000000000000000000e+02 3.600000000000000000e+03 3.400000000000000000e+03 3.000000000000000000e+03 1.100000000000000000e+03 3.000000000000000000e+02 2.000000000000000000e+02 1.456000000000000000e+05 2.000000000000000000e+02 2.000000000000000000e+02 2.000000000000000000e+02 2.000000000000000000e+02 2.300000000000000000e+03 1.000000000000000000e+02
1.258000000000000000e+05 2.000000000000000000e+03 1.900000000000000000e+03 1.800000000000000000e+03 1.700000000000000000e+03 1.600000000000000000e+03 1.500000000000000000e+03 1.400000000000000000e+03 1.300000000000000000e+03 1.200000000000000000e+03 1.100000000000000000e+03 1.000000000000000000e+03 9.000000000000000000e+02 8.000000000000000000e+02 7.000000000000000000e+02 6.000000000000000000e+02 5.000000000000000000e+02 4.000000000000000000e+02 3.000000000000000000e+02 2.000000000000000000e+02 1.000000000000000000e+02 1.000000000000000000e+02 7.000000000000000000e+02 6.000000000000000000e+02 5.000000000000000000e+02 4.000000000000000000e+02 3.000000000000000000e+02 2.000000000000000000e+02 1.000000000000000000e+02 4.000000000000000000e+02 2.000000000000000000e+02 1.000000000000000000e+02 3.000000000000000000e+02 1.000000000000000000e+02 1.000000000000000000e+02 2.000000000000000000e+02 3.000000000000000000e+02 4.000000000000000000e+02 5.000000000000000000e+02 6.000000000000000000e+02 1.000000000000000000e+02 1.000000000000000000e+02 1.000000000000000000e+02 8.000000000000000000e+02 2.000000000000000000e+02 2.000000000000000000e+02 8.000000000000000000e+02 3.000000000000000000e+02 3.000000000000000000e+02 3.000000000000000000e+02 7.000000000000000000e+02 4.000000000000000000e+02 4.000000000000000000e+02 4.000000000000000000e+02 4.000000000000000000e+02 4.000000000000000000e+02 4.000000000000000000e+02 4.000000000000000000e+02 1.200000000000000000e+03 4.000000000000000000e+02 3.000000000000000000e+02 1.000000000000000000e+02 2.000000000000000000e+02 3.000000000000000000e+02 4.000000000000000000e+02 2.362000000000000000e+05 6.000000000000000000e+02 8.000000000000000000e+02 1.100000000000000000e+03 2.000000000000000000e+03 1.800000000000000000e+03 1.700000000000000000e+03 1.500000000000000000e+03 1.200000000000000000e+03 7.000000000000000000e+02 3.000000000000000000e+02 1.000000000000000000e+02 2.000000000000000000e+02 4.000000000000000000e+02 5.000000000000000000e+02 6.000000000000000000e+02 8.000000000000000000e+02 9.000000000000000000e+02 1.000000000000000000e+03 1.100000000000000000e+03 1.300000000000000000e+03 1.400000000000000000e+03 5.200000000000000000e+03 7.000000000000000000e+02 3.000000000000000000e+02 2.000000000000000000e+02 1.000000000000000000e+02 4.000000000000000000e+02 1.000000000000000000e+02 2.000000000000000000e+02 3.000000000000000000e+02 5.000000000000000000e+02 6.000000000000000000e+02 1.000000000000000000e+02 1.000000000000000000e+02 1.000000000000000000e+02 1.000000000000000000e+02 2.000000000000000000e+02 9.000000000000000000e+02 6.040000000000000000e+04 1.000000000000000000e+02 3.700000000000000000e+03 3.500000000000000000e+03 3.100000000000000000e+03 1.200000000000000000e+03 4.000000000000000000e+02 1.467000000000000000e+05 7.000000000000000000e+02 1.000000000000000000e+02 1.000000000000000000e+02 1.000000000000000000e+02 1.000000000000000000e+02 1.000000000000000000e+02 2.100000000000000000e+03
1.282000000000000000e+05 1.900000000000000000e+03 1.800000000000000000e+03 1.700000000000000000e+03 1.600000000000000000e+03 1.500000000000000000e+03 1.400000000000000000e+03 1.300000000000000000e+03 1.200000000000000000e+03 1.100000000000000000e+03 1.000000000000000000e+03 9.000000000000000000e+02 8.000000000000000000e+02 7.000000000000000000e+02 6.000000000000000000e+02 5.000000000000000000e+02 4.000000000000000000e+02 3.000000000000000000e+02 2.000000000000000000e+02 1.000000000000000000e+02 2.000000000000000000e+02 8.000000000000000000e+02 7.000000000000000000e+02 6.000000000000000000e+02 5.000000000000000000e+02 4.000000000000000000e+02 3.000000000000000000e+02 2.000000000000000000e+02 5.000000000000000000e+02 1.000000000000000000e+02 3.000000000000000000e+02 2.000000000000000000e+02 1.000000000000000000e+02 4.000000000000000000e+02 2.000000000000000000e+02 1.000000000000000000e+02 1.000000000000000000e+02 2.000000000000000000e+02 3.000000000000000000e+02 4.000000000000000000e+02 5.000000000000000000e+02 6.000000000000000000e+02 7.000000000000000000e+02 1.000000000000000000e+02 1.000000000000000000e+02 7.000000000000000000e+02 2.000000000000000000e+02 2.000000000000000000e+02 2.000000000000000000e+02 6.000000000000000000e+02 3.000000000000000000e+02 3.000000000000000000e+02 3.000000000000000000e+02 3.000000000000000000e+02 3.000000000000000000e+02 3.000000000000000000e+02 3.000000000000000000e+02 1.100000000000000000e+03 3.000000000000000000e+02 2.000000000000000000e+02 1.000000000000000000e+02 2.000000000000000000e+02 3.000000000000000000e+02 4.000000000000000000e+02 5.000000000000000000e+02 2.380000000000000000e+05 9.000000000000000000e+02 1.200000000000000000e+03 2.100000000000000000e+03 1.900000000000000000e+03 1.800000000000000000e+03 1.600000000000000000e+03 1.300000000000000000e+03 8.000000000000000000e+02 4.000000000000000000e+02 2.000000000000000000e+02 1.000000000000000000e+02 3.000000000000000000e+02 5.000000000000000000e+02 6.000000000000000000e+02 7.000000000000000000e+02 9.000000000000000000e+02 1.000000000000000000e+03 1.100000000000000000e+03 1.200000000000000000e+03 1.400000000000000000e+03 1.500000000000000000e+03 6.000000000000000000e+03 4.000000000000000000e+02 3.000000000000000000e+02 2.000000000000000000e+02 5.000000000000000000e+02 1.000000000000000000e+02 1.000000000000000000e+02 2.000000000000000000e+02 3.000000000000000000e+02 4.000000000000000000e+02 6.000000000000000000e+02 7.000000000000000000e+02 2.000000000000000000e+02 2.000000000000000000e+02 2.000000000000000000e+02 1.000000000000000000e+02 1.000000000000000000e+02 6.160000000000000000e+04 1.000000000000000000e+02 3.800000000000000000e+03 3.600000000000000000e+03 3.200000000000000000e+03 1.300000000000000000e+03 1.513000000000000000e+05 1.000000000000000000e+02 1.000000000000000000e+02 6.000000000000000000e+02 5.000000000000000000e+02 4.000000000000000000e+02 3.000000000000000000e+02 2.000000000000000000e+02 1.000000000000000000e+02
1.900000000000000000e+03 1.800000000000000000e+03 1.700000000000000000e+03 1.600000000000000000e+03 1.500000000000000000e+03 1.400000000000000000e+03 1.300000000000000000e+03 1.200000000000000000e+03 1.100000000000000000e+03 1.000000000000000000e+03 9.000000000000000000e+02 8.000000000000000000e+02 7.000000000000000000e+02 6.000000000000000000e+02 5.000000000000000000e+02 4.000000000000000000e+02 3.000000000000000000e+02 2.000000000000000000e+02 1.000000000000000000e+02 3.000000000000000000e+02 9.000000000000000000e+02 8.000000000000000000e+02 7.000000000000000000e+02 6.000000000000000000e+02 5.000000000000000000e+02 4.000000000000000000e+02 3.000000000000000000e+02 6.000000000000000000e+02 2.000000000000000000e+02 1.000000000000000000e+02 4.000000000000000000e+02 3.000000000000000000e+02 2.000000000000000000e+02 1.000000000000000000e+02 5.000000000000000000e+02 3.000000000000000000e+02 2.000000000000000000e+02 1.000000000000000000e+02 1.000000000000000000e+02 1.000000000000000000e+02 2.000000000000000000e+02 3.000000000000000000e+02 4.000000000000000000e+02 5.000000000000000000e+02 6.000000000000000000e+02 1.000000000000000000e+02 1.000000000000000000e+02 1.000000000000000000e+02 5.000000000000000000e+02 2.000000000000000000e+02 2.000000000000000000e+02 2.000000000000000000e+02 2.000000000000000000e+02 2.000000000000000000e+02 2.000000000000000000e+02 2.000000000000000000e+02 1.000000000000000000e+03 2.000000000000000000e+02 1.000000000000000000e+02 1.000000000000000000e+02 2.000000000000000000e+02 3.000000000000000000e+02 4.000000000000000000e+02 5.000000000000000000e+02 6.000000000000000000e+02 1.000000000000000000e+02 2.412000000000000000e+05 2.200000000000000000e+03 2.000000000000000000e+03 1.900000000000000000e+03 1.700000000000000000e+03 1.400000000000000000e+03 9.000000000000000000e+02 5.000000000000000000e+02 3.000000000000000000e+02 1.000000000000000000e+02 2.000000000000000000e+02 4.000000000000000000e+02 6.000000000000000000e+02 7.000000000000000000e+02 8.000000000000000000e+02 1.000000000000000000e+03 1.100000000000000000e+03 1.200000000000000000e+03 1.300000000000000000e+03 1.500000000000000000e+03 7.600000000000000000e+03 5.000000000000000000e+02 4.000000000000000000e+02 3.000000000000000000e+02 6.000000000000000000e+02 2.000000000000000000e+02 1.000000000000000000e+02 1.000000000000000000e+02 2.000000000000000000e+02 3.000000000000000000e+02 7.000000000000000000e+02 1.200000000000000000e+03 1.900000000000000000e+03 2.700000000000000000e+03 3.000000000000000000e+03 3.300000000000000000e+03 3.000000000000000000e+02 2.000000000000000000e+02 6.190000000000000000e+04 2.000000000000000000e+02 3.900000000000000000e+03 3.700000000000000000e+03 3.300000000000000000e+03 1.530000000000000000e+05 2.000000000000000000e+02 4.000000000000000000e+03 3.800000000000000000e+03 3.600000000000000000e+03 3.400000000000000000e+03 1.700000000000000000e+03 1.600000000000000000e+03 1.500000000000000000e+03 1.400000000000000000e+03
