ncols 119
nrows 32
xllcorner 530
yllcorner 330
cellsize 10.0
3.838800000000000000e+04 3.868900000000000000e+04 3.869000000000000000e+04 3.869100000000000000e+04 3.869200000000000000e+04 3.869300000000000000e+04 3.869400000000000000e+04 3.839500000000000000e+04 9.739400000000000000e+04 9.739600000000000000e+04 3.839800000000000000e+04 9.800000000000000000e+04 3.870000000000000000e+04 9.800300000000000000e+04 3.840200000000000000e+04 3.840300000000000000e+04 3.870400000000000000e+04 3.870500000000000000e+04 9.801300000000000000e+04 3.840800000000000000e+04 9.801800000000000000e+04 3.870900000000000000e+04 9.802100000000000000e+04 3.841100000000000000e+04 9.742600000000000000e+04 9.742800000000000000e+04 9.803000000000000000e+04 3.871500000000000000e+04 3.871600000000000000e+04 9.803500000000000000e+04 9.803700000000000000e+04 3.842000000000000000e+04 3.842100000000000000e+04 3.842200000000000000e+04 3.842300000000000000e+04 3.812400000000000000e+04 3.842400000000000000e+04 3.842500000000000000e+04 3.842600000000000000e+04 9.745900000000000000e+04 3.812900000000000000e+04 9.746300000000000000e+04 3.813100000000000000e+04 9.746700000000000000e+04 3.813300000000000000e+04 9.746800000000000000e+04 3.843400000000000000e+04 3.843500000000000000e+04 3.843600000000000000e+04 3.843700000000000000e+04 3.843800000000000000e+04 9.748300000000000000e+04 3.814100000000000000e+04 3.844200000000000000e+04 9.808600000000000000e+04 3.844400000000000000e+04 3.814500000000000000e+04 3.844500000000000000e+04 3.844600000000000000e+04 9.809500000000000000e+04 9.809800000000000000e+04 9.810000000000000000e+04 9.810200000000000000e+04 3.875100000000000000e+04 9.810600000000000000e+04 3.845400000000000000e+04 3.845500000000000000e+04 3.845600000000000000e+04 9.751700000000000000e+04 3.815800000000000000e+04 9.751800000000000000e+04 9.752300000000000000e+04 3.816100000000000000e+04 9.752400000000000000e+04 3.846300000000000000e+04 9.753100000000000000e+04 3.816500000000000000e+04 3.816600000000000000e+04 9.753400000000000000e+04 3.846700000000000000e+04 3.846800000000000000e+04 9.813900000000000000e+04 9.814100000000000000e+04 3.847200000000000000e+04 9.754900000000000000e+04 3.847400000000000000e+04 9.815000000000000000e+04 3.877500000000000000e+04 3.847700000000000000e+04 3.817800000000000000e+04 3.847800000000000000e+04 9.756000000000000000e+04 9.756200000000000000e+04 3.848100000000000000e+04 9.756900000000000000e+04 9.757100000000000000e+04 3.818500000000000000e+04 9.757200000000000000e+04 9.757700000000000000e+04 3.848800000000000000e+04 3.818900000000000000e+04 3.819000000000000000e+04 9.818200000000000000e+04 9.818400000000000000e+04 3.879200000000000000e+04 9.818800000000000000e+04 3.879400000000000000e+04 3.849600000000000000e+04 9.759700000000000000e+04 3.819800000000000000e+04 3.849900000000000000e+04 3.820000000000000000e+04 3.850000000000000000e+04 9.820300000000000000e+04 3.850200000000000000e+04 9.820700000000000000e+04 9.820900000000000000e+04 3.880500000000000000e+04 9.821300000000000000e+04
9.737900000000000000e+04 3.779000000000000000e+04 3.809100000000000000e+04 9.738600000000000000e+04 3.809300000000000000e+04 9.739000000000000000e+04 3.809500000000000000e+04 9.739300000000000000e+04 3.779700000000000000e+04 3.749900000000000000e+04 9.680000000000000000e+04 9.680200000000000000e+04 9.740400000000000000e+04 3.810200000000000000e+04 9.740700000000000000e+04 9.740900000000000000e+04 9.741200000000000000e+04 3.810600000000000000e+04 3.780800000000000000e+04 9.741800000000000000e+04 3.810900000000000000e+04 9.742100000000000000e+04 3.811100000000000000e+04 9.742500000000000000e+04 3.781300000000000000e+04 3.781400000000000000e+04 9.683500000000000000e+04 3.751700000000000000e+04 9.683600000000000000e+04 3.751900000000000000e+04 9.684000000000000000e+04 9.744200000000000000e+04 9.744400000000000000e+04 9.744600000000000000e+04 3.782400000000000000e+04 3.752500000000000000e+04 3.782500000000000000e+04 9.745300000000000000e+04 3.782700000000000000e+04 3.782900000000000000e+04 9.686300000000000000e+04 3.753100000000000000e+04 9.686700000000000000e+04 3.753300000000000000e+04 9.686800000000000000e+04 3.783400000000000000e+04 3.813500000000000000e+04 3.813600000000000000e+04 9.747500000000000000e+04 9.747700000000000000e+04 9.747900000000000000e+04 3.784100000000000000e+04 9.688700000000000000e+04 3.754300000000000000e+04 3.784400000000000000e+04 3.784500000000000000e+04 3.754600000000000000e+04 3.784600000000000000e+04 9.689600000000000000e+04 9.690100000000000000e+04 3.755000000000000000e+04 3.785100000000000000e+04 3.785200000000000000e+04 3.785300000000000000e+04 3.785400000000000000e+04 9.751000000000000000e+04 3.815500000000000000e+04 3.815600000000000000e+04 3.785800000000000000e+04 9.692100000000000000e+04 3.756000000000000000e+04 9.692200000000000000e+04 3.756200000000000000e+04 3.786200000000000000e+04 9.752800000000000000e+04 3.786500000000000000e+04 3.756600000000000000e+04 9.693400000000000000e+04 3.786700000000000000e+04 9.753700000000000000e+04 3.757000000000000000e+04 9.694200000000000000e+04 9.694400000000000000e+04 9.694600000000000000e+04 3.787400000000000000e+04 9.755000000000000000e+04 3.817500000000000000e+04 3.787700000000000000e+04 3.787800000000000000e+04 3.757900000000000000e+04 3.787900000000000000e+04 3.788000000000000000e+04 3.788100000000000000e+04 3.758300000000000000e+04 3.788400000000000000e+04 9.697300000000000000e+04 3.758600000000000000e+04 3.788600000000000000e+04 3.788800000000000000e+04 3.788900000000000000e+04 9.698300000000000000e+04 3.759100000000000000e+04 9.698400000000000000e+04 3.759300000000000000e+04 9.698800000000000000e+04 9.699000000000000000e+04 9.699500000000000000e+04 9.699700000000000000e+04 3.789800000000000000e+04 9.700100000000000000e+04 3.760000000000000000e+04 9.700200000000000000e+04 3.790100000000000000e+04 3.820200000000000000e+04 9.760700000000000000e+04 3.790400000000000000e+04 3.760600000000000000e+04 9.701400000000000000e+04 9.701600000000000000e+04
3.749000000000000000e+04 9.678300000000000000e+04 3.719200000000000000e+04 9.678800000000000000e+04 3.749400000000000000e+04 9.679100000000000000e+04 3.719700000000000000e+04 3.749700000000000000e+04 9.679700000000000000e+04 3.719900000000000000e+04 3.720000000000000000e+04 3.690200000000000000e+04 9.620600000000000000e+04 9.620800000000000000e+04 3.750400000000000000e+04 9.681100000000000000e+04 9.681300000000000000e+04 3.720800000000000000e+04 9.681800000000000000e+04 3.750900000000000000e+04 3.751000000000000000e+04 9.682300000000000000e+04 9.682600000000000000e+04 3.751300000000000000e+04 9.682900000000000000e+04 9.683100000000000000e+04 9.623700000000000000e+04 3.691800000000000000e+04 9.623800000000000000e+04 3.692000000000000000e+04 9.624200000000000000e+04 9.624400000000000000e+04 3.722300000000000000e+04 3.722400000000000000e+04 3.722500000000000000e+04 3.692600000000000000e+04 3.722600000000000000e+04 9.625600000000000000e+04 3.722800000000000000e+04 9.626300000000000000e+04 3.723100000000000000e+04 9.626700000000000000e+04 3.693300000000000000e+04 9.626800000000000000e+04 3.723400000000000000e+04 9.687100000000000000e+04 3.753600000000000000e+04 9.687500000000000000e+04 3.753800000000000000e+04 9.687900000000000000e+04 9.628500000000000000e+04 9.628700000000000000e+04 3.694300000000000000e+04 3.694400000000000000e+04 9.629000000000000000e+04 3.724600000000000000e+04 3.694700000000000000e+04 3.724700000000000000e+04 3.724800000000000000e+04 3.725000000000000000e+04 9.630500000000000000e+04 3.695200000000000000e+04 9.690600000000000000e+04 9.690800000000000000e+04 3.725500000000000000e+04 3.755500000000000000e+04 3.725600000000000000e+04 9.691600000000000000e+04 9.691800000000000000e+04 3.726000000000000000e+04 9.632500000000000000e+04 3.696200000000000000e+04 9.632600000000000000e+04 3.726300000000000000e+04 9.633300000000000000e+04 3.726600000000000000e+04 3.696700000000000000e+04 3.726700000000000000e+04 3.696900000000000000e+04 3.697000000000000000e+04 9.634200000000000000e+04 9.634400000000000000e+04 9.634600000000000000e+04 9.634800000000000000e+04 9.695000000000000000e+04 9.635500000000000000e+04 3.697700000000000000e+04 9.635900000000000000e+04 3.727900000000000000e+04 3.698000000000000000e+04 3.728000000000000000e+04 9.696300000000000000e+04 9.636900000000000000e+04 3.698400000000000000e+04 9.637000000000000000e+04 3.728600000000000000e+04 9.637700000000000000e+04 3.698800000000000000e+04 9.637800000000000000e+04 9.698000000000000000e+04 3.729100000000000000e+04 9.638700000000000000e+04 3.699300000000000000e+04 9.638800000000000000e+04 3.729400000000000000e+04 3.729500000000000000e+04 3.729700000000000000e+04 3.729800000000000000e+04 3.729900000000000000e+04 3.730000000000000000e+04 9.640500000000000000e+04 3.700200000000000000e+04 9.640600000000000000e+04 9.700800000000000000e+04 3.760400000000000000e+04 9.701100000000000000e+04 3.730600000000000000e+04 3.730700000000000000e+04 3.730800000000000000e+04
3.659100000000000000e+04 3.689200000000000000e+04 9.618700000000000000e+04 9.559300000000000000e+04 3.629600000000000000e+04 9.559700000000000000e+04 3.659800000000000000e+04 3.689800000000000000e+04 3.659900000000000000e+04 3.690000000000000000e+04 9.620300000000000000e+04 3.660200000000000000e+04 3.660300000000000000e+04 3.630500000000000000e+04 3.630600000000000000e+04 3.630700000000000000e+04 9.561600000000000000e+04 9.561800000000000000e+04 3.690900000000000000e+04 9.622200000000000000e+04 3.691100000000000000e+04 9.622500000000000000e+04 9.622800000000000000e+04 3.691400000000000000e+04 9.623100000000000000e+04 3.661700000000000000e+04 9.563900000000000000e+04 3.631900000000000000e+04 3.661900000000000000e+04 3.632100000000000000e+04 9.564400000000000000e+04 3.632300000000000000e+04 3.632400000000000000e+04 3.662500000000000000e+04 3.662600000000000000e+04 3.632700000000000000e+04 3.662700000000000000e+04 3.662800000000000000e+04 3.662900000000000000e+04 3.663100000000000000e+04 3.663200000000000000e+04 3.663300000000000000e+04 9.567100000000000000e+04 3.633500000000000000e+04 9.567200000000000000e+04 3.633700000000000000e+04 9.567600000000000000e+04 3.633900000000000000e+04 9.568000000000000000e+04 3.664000000000000000e+04 3.664200000000000000e+04 3.664300000000000000e+04 3.664400000000000000e+04 9.569300000000000000e+04 3.634600000000000000e+04 3.664700000000000000e+04 3.634800000000000000e+04 3.664800000000000000e+04 9.570000000000000000e+04 9.570200000000000000e+04 3.665200000000000000e+04 9.570900000000000000e+04 3.635400000000000000e+04 9.571000000000000000e+04 9.631200000000000000e+04 3.695600000000000000e+04 9.631500000000000000e+04 9.572100000000000000e+04 9.572300000000000000e+04 9.632200000000000000e+04 3.666200000000000000e+04 9.572900000000000000e+04 3.636400000000000000e+04 9.573000000000000000e+04 9.573500000000000000e+04 3.636700000000000000e+04 9.573600000000000000e+04 3.666800000000000000e+04 3.666900000000000000e+04 3.667000000000000000e+04 3.667100000000000000e+04 3.667200000000000000e+04 3.667300000000000000e+04 3.667400000000000000e+04 9.575500000000000000e+04 3.667700000000000000e+04 9.575900000000000000e+04 3.667900000000000000e+04 3.668000000000000000e+04 9.576500000000000000e+04 3.638200000000000000e+04 9.576600000000000000e+04 3.638400000000000000e+04 9.577000000000000000e+04 3.668500000000000000e+04 9.577700000000000000e+04 3.668800000000000000e+04 3.638900000000000000e+04 3.668900000000000000e+04 9.578200000000000000e+04 9.638400000000000000e+04 3.669300000000000000e+04 3.639400000000000000e+04 3.669400000000000000e+04 9.639100000000000000e+04 9.639300000000000000e+04 9.639600000000000000e+04 9.639800000000000000e+04 9.640000000000000000e+04 3.700000000000000000e+04 3.670200000000000000e+04 3.640300000000000000e+04 3.670300000000000000e+04 3.640500000000000000e+04 9.581200000000000000e+04 3.700600000000000000e+04 3.700700000000000000e+04 9.641700000000000000e+04 9.582300000000000000e+04
9.558500000000000000e+04 3.599300000000000000e+04 3.599500000000000000e+04 3.599600000000000000e+04 9.499700000000000000e+04 3.599800000000000000e+04 9.559800000000000000e+04 3.629900000000000000e+04 9.560100000000000000e+04 9.560400000000000000e+04 3.630200000000000000e+04 3.630300000000000000e+04 9.560900000000000000e+04 3.600500000000000000e+04 3.600600000000000000e+04 3.600700000000000000e+04 3.600800000000000000e+04 3.600900000000000000e+04 9.502500000000000000e+04 9.502700000000000000e+04 3.571300000000000000e+04 9.502800000000000000e+04 3.571500000000000000e+04 9.503200000000000000e+04 9.503700000000000000e+04 9.503900000000000000e+04 3.601900000000000000e+04 9.504300000000000000e+04 3.572100000000000000e+04 9.504400000000000000e+04 3.602200000000000000e+04 3.572400000000000000e+04 3.572500000000000000e+04 9.505200000000000000e+04 3.602700000000000000e+04 3.572800000000000000e+04 3.602800000000000000e+04 9.506000000000000000e+04 9.506200000000000000e+04 9.566400000000000000e+04 9.566600000000000000e+04 3.633300000000000000e+04 3.603500000000000000e+04 9.507500000000000000e+04 3.573700000000000000e+04 9.507600000000000000e+04 3.573900000000000000e+04 9.508000000000000000e+04 3.604000000000000000e+04 3.604100000000000000e+04 9.568600000000000000e+04 9.568800000000000000e+04 3.634400000000000000e+04 3.604600000000000000e+04 9.509700000000000000e+04 3.604800000000000000e+04 3.574900000000000000e+04 3.604900000000000000e+04 3.605000000000000000e+04 3.605100000000000000e+04 9.570600000000000000e+04 3.605400000000000000e+04 3.575500000000000000e+04 3.605500000000000000e+04 9.571400000000000000e+04 3.635700000000000000e+04 3.605900000000000000e+04 3.606000000000000000e+04 3.606100000000000000e+04 3.606200000000000000e+04 9.572600000000000000e+04 3.606400000000000000e+04 9.513300000000000000e+04 3.576600000000000000e+04 3.576700000000000000e+04 9.513600000000000000e+04 3.606800000000000000e+04 3.636900000000000000e+04 3.637000000000000000e+04 3.637100000000000000e+04 3.637200000000000000e+04 3.637300000000000000e+04 9.574900000000000000e+04 9.575100000000000000e+04 3.607700000000000000e+04 9.575600000000000000e+04 3.607900000000000000e+04 9.576000000000000000e+04 3.638000000000000000e+04 3.608200000000000000e+04 9.516900000000000000e+04 3.578400000000000000e+04 9.517000000000000000e+04 3.608500000000000000e+04 9.517400000000000000e+04 3.608800000000000000e+04 3.608900000000000000e+04 9.518300000000000000e+04 3.579100000000000000e+04 9.518400000000000000e+04 3.609300000000000000e+04 3.609400000000000000e+04 3.579500000000000000e+04 3.609500000000000000e+04 3.609600000000000000e+04 9.519900000000000000e+04 3.579900000000000000e+04 9.580000000000000000e+04 3.640000000000000000e+04 3.610200000000000000e+04 3.610300000000000000e+04 9.521100000000000000e+04 3.580500000000000000e+04 9.521200000000000000e+04 3.610600000000000000e+04 3.610700000000000000e+04 9.522100000000000000e+04 3.581000000000000000e+04 3.611100000000000000e+04
3.569300000000000000e+04 9.498900000000000000e+04 3.539600000000000000e+04 3.539700000000000000e+04 3.539800000000000000e+04 9.499800000000000000e+04 3.569900000000000000e+04 3.510100000000000000e+04 9.440400000000000000e+04 9.500500000000000000e+04 3.570300000000000000e+04 9.501000000000000000e+04 3.570500000000000000e+04 3.570600000000000000e+04 9.501500000000000000e+04 3.570800000000000000e+04 9.501900000000000000e+04 3.541000000000000000e+04 3.541200000000000000e+04 3.541300000000000000e+04 9.443100000000000000e+04 3.511500000000000000e+04 9.443200000000000000e+04 3.541600000000000000e+04 3.541800000000000000e+04 3.541900000000000000e+04 9.444300000000000000e+04 3.542100000000000000e+04 3.512200000000000000e+04 3.542200000000000000e+04 9.445100000000000000e+04 3.512500000000000000e+04 3.512600000000000000e+04 3.512700000000000000e+04 3.512800000000000000e+04 9.445800000000000000e+04 3.542900000000000000e+04 3.543000000000000000e+04 3.543100000000000000e+04 9.446900000000000000e+04 3.513400000000000000e+04 9.507000000000000000e+04 9.507200000000000000e+04 3.543700000000000000e+04 3.513800000000000000e+04 3.543800000000000000e+04 9.448000000000000000e+04 3.544000000000000000e+04 9.508300000000000000e+04 3.514300000000000000e+04 9.448800000000000000e+04 3.544500000000000000e+04 3.544600000000000000e+04 9.509400000000000000e+04 3.544800000000000000e+04 9.450100000000000000e+04 3.515000000000000000e+04 3.545000000000000000e+04 3.515200000000000000e+04 9.450600000000000000e+04 9.451100000000000000e+04 3.545500000000000000e+04 3.515600000000000000e+04 3.545600000000000000e+04 3.515800000000000000e+04 9.451800000000000000e+04 9.512000000000000000e+04 9.512200000000000000e+04 9.512400000000000000e+04 9.512600000000000000e+04 3.576300000000000000e+04 9.513000000000000000e+04 3.546600000000000000e+04 9.453700000000000000e+04 3.516800000000000000e+04 3.546800000000000000e+04 9.513900000000000000e+04 3.517100000000000000e+04 3.517200000000000000e+04 9.454600000000000000e+04 3.517400000000000000e+04 3.517500000000000000e+04 9.455200000000000000e+04 9.455400000000000000e+04 9.515600000000000000e+04 3.577800000000000000e+04 9.516000000000000000e+04 3.578000000000000000e+04 9.516400000000000000e+04 9.516600000000000000e+04 3.548400000000000000e+04 9.457300000000000000e+04 3.518600000000000000e+04 9.457400000000000000e+04 3.548700000000000000e+04 9.517800000000000000e+04 9.518000000000000000e+04 3.549100000000000000e+04 9.458700000000000000e+04 3.519300000000000000e+04 9.459100000000000000e+04 3.519500000000000000e+04 9.459200000000000000e+04 3.549600000000000000e+04 3.549700000000000000e+04 9.460100000000000000e+04 3.520000000000000000e+04 9.460200000000000000e+04 3.520200000000000000e+04 3.550300000000000000e+04 9.520800000000000000e+04 3.550500000000000000e+04 9.461500000000000000e+04 3.520700000000000000e+04 9.461600000000000000e+04 9.461800000000000000e+04 9.462300000000000000e+04 3.521100000000000000e+04 3.521200000000000000e+04
3.479400000000000000e+04 3.479500000000000000e+04 3.479700000000000000e+04 3.479800000000000000e+04 3.479900000000000000e+04 3.509900000000000000e+04 9.440100000000000000e+04 3.480100000000000000e+04 3.480200000000000000e+04 9.380800000000000000e+04 3.480400000000000000e+04 9.441200000000000000e+04 3.510600000000000000e+04 9.441500000000000000e+04 3.510800000000000000e+04 9.441900000000000000e+04 3.511000000000000000e+04 9.442300000000000000e+04 3.481300000000000000e+04 3.481400000000000000e+04 3.481500000000000000e+04 9.383500000000000000e+04 3.451700000000000000e+04 9.383600000000000000e+04 9.383800000000000000e+04 9.444000000000000000e+04 3.482100000000000000e+04 9.384700000000000000e+04 3.452300000000000000e+04 3.482300000000000000e+04 3.452500000000000000e+04 9.385200000000000000e+04 3.482600000000000000e+04 3.482700000000000000e+04 3.482800000000000000e+04 3.482900000000000000e+04 9.446100000000000000e+04 9.446300000000000000e+04 9.446500000000000000e+04 3.483400000000000000e+04 9.387300000000000000e+04 3.453600000000000000e+04 9.387400000000000000e+04 3.483800000000000000e+04 3.453900000000000000e+04 3.483900000000000000e+04 3.484000000000000000e+04 3.454200000000000000e+04 3.454300000000000000e+04 9.388800000000000000e+04 3.484400000000000000e+04 9.449200000000000000e+04 9.449400000000000000e+04 3.484800000000000000e+04 9.449800000000000000e+04 3.485000000000000000e+04 9.390500000000000000e+04 3.455200000000000000e+04 9.390600000000000000e+04 3.485300000000000000e+04 3.485500000000000000e+04 3.485600000000000000e+04 3.455700000000000000e+04 3.485700000000000000e+04 3.455900000000000000e+04 9.392000000000000000e+04 3.486000000000000000e+04 9.452400000000000000e+04 9.452600000000000000e+04 3.516300000000000000e+04 9.453000000000000000e+04 3.516500000000000000e+04 9.453400000000000000e+04 3.486800000000000000e+04 3.456900000000000000e+04 3.486900000000000000e+04 3.457100000000000000e+04 3.457200000000000000e+04 3.457300000000000000e+04 3.457400000000000000e+04 9.395000000000000000e+04 3.487500000000000000e+04 3.487600000000000000e+04 3.487700000000000000e+04 9.396100000000000000e+04 3.458000000000000000e+04 3.458100000000000000e+04 9.396400000000000000e+04 9.396900000000000000e+04 3.488400000000000000e+04 9.457000000000000000e+04 3.488600000000000000e+04 3.458700000000000000e+04 3.488700000000000000e+04 3.458900000000000000e+04 9.398000000000000000e+04 9.398500000000000000e+04 9.458400000000000000e+04 3.489300000000000000e+04 3.459400000000000000e+04 3.459500000000000000e+04 9.399200000000000000e+04 3.489600000000000000e+04 9.459500000000000000e+04 3.489800000000000000e+04 3.490000000000000000e+04 9.400500000000000000e+04 3.460200000000000000e+04 9.400600000000000000e+04 9.400800000000000000e+04 9.401300000000000000e+04 9.401500000000000000e+04 3.460700000000000000e+04 9.401600000000000000e+04 3.490800000000000000e+04 3.461000000000000000e+04 9.402500000000000000e+04 3.461200000000000000e+04 9.402600000000000000e+04
9.379100000000000000e+04 9.379300000000000000e+04 9.319900000000000000e+04 9.320100000000000000e+04 3.420000000000000000e+04 3.450000000000000000e+04 3.450100000000000000e+04 3.450200000000000000e+04 9.380700000000000000e+04 3.420400000000000000e+04 9.321200000000000000e+04 3.390700000000000000e+04 9.321600000000000000e+04 9.322100000000000000e+04 3.391000000000000000e+04 3.391100000000000000e+04 9.322400000000000000e+04 9.322600000000000000e+04 9.382800000000000000e+04 9.383000000000000000e+04 9.383200000000000000e+04 3.421700000000000000e+04 9.323900000000000000e+04 3.391900000000000000e+04 9.324000000000000000e+04 9.324200000000000000e+04 9.384400000000000000e+04 3.422300000000000000e+04 9.325100000000000000e+04 3.392500000000000000e+04 9.325200000000000000e+04 3.422600000000000000e+04 3.452700000000000000e+04 3.452800000000000000e+04 3.452900000000000000e+04 9.386100000000000000e+04 3.423100000000000000e+04 9.386500000000000000e+04 3.393400000000000000e+04 9.387000000000000000e+04 3.423600000000000000e+04 9.327700000000000000e+04 3.393800000000000000e+04 3.423900000000000000e+04 3.394000000000000000e+04 3.424000000000000000e+04 9.328400000000000000e+04 3.424200000000000000e+04 3.424300000000000000e+04 3.424400000000000000e+04 3.424500000000000000e+04 3.394700000000000000e+04 9.389600000000000000e+04 9.389800000000000000e+04 3.454900000000000000e+04 9.390200000000000000e+04 3.425200000000000000e+04 9.330900000000000000e+04 3.395400000000000000e+04 9.331000000000000000e+04 9.331200000000000000e+04 3.425700000000000000e+04 9.331900000000000000e+04 3.395900000000000000e+04 9.332000000000000000e+04 3.426000000000000000e+04 9.332400000000000000e+04 9.332900000000000000e+04 3.396400000000000000e+04 3.396500000000000000e+04 3.396600000000000000e+04 9.333700000000000000e+04 3.396800000000000000e+04 3.426900000000000000e+04 3.397000000000000000e+04 3.427000000000000000e+04 9.334400000000000000e+04 3.427200000000000000e+04 3.427300000000000000e+04 3.427400000000000000e+04 3.427500000000000000e+04 3.457600000000000000e+04 9.395500000000000000e+04 9.395700000000000000e+04 3.428000000000000000e+04 9.336500000000000000e+04 3.398200000000000000e+04 9.336600000000000000e+04 3.428400000000000000e+04 9.397000000000000000e+04 3.458500000000000000e+04 3.428700000000000000e+04 9.337900000000000000e+04 3.398900000000000000e+04 9.338000000000000000e+04 3.429000000000000000e+04 9.338700000000000000e+04 9.338900000000000000e+04 3.429400000000000000e+04 3.429500000000000000e+04 9.339500000000000000e+04 3.399700000000000000e+04 9.339600000000000000e+04 3.399900000000000000e+04 9.340000000000000000e+04 9.340500000000000000e+04 3.430200000000000000e+04 3.400300000000000000e+04 9.340800000000000000e+04 3.430400000000000000e+04 3.430600000000000000e+04 3.430700000000000000e+04 9.341900000000000000e+04 3.400900000000000000e+04 9.342300000000000000e+04 3.401100000000000000e+04 3.401200000000000000e+04 9.342600000000000000e+04 3.431300000000000000e+04
9.259400000000000000e+04 9.259600000000000000e+04 3.359900000000000000e+04 3.360000000000000000e+04 9.320200000000000000e+04 3.390100000000000000e+04 9.320500000000000000e+04 9.320800000000000000e+04 3.390400000000000000e+04 9.321100000000000000e+04 3.360600000000000000e+04 9.261600000000000000e+04 3.360800000000000000e+04 3.331000000000000000e+04 9.262200000000000000e+04 3.361100000000000000e+04 3.361200000000000000e+04 3.361300000000000000e+04 9.263300000000000000e+04 3.331600000000000000e+04 9.323400000000000000e+04 9.323600000000000000e+04 3.361900000000000000e+04 9.264300000000000000e+04 3.332100000000000000e+04 9.264400000000000000e+04 9.264900000000000000e+04 9.324800000000000000e+04 3.362500000000000000e+04 9.265500000000000000e+04 3.332700000000000000e+04 3.332800000000000000e+04 3.332900000000000000e+04 3.333000000000000000e+04 9.266200000000000000e+04 3.393100000000000000e+04 9.326500000000000000e+04 9.267100000000000000e+04 3.333500000000000000e+04 9.267200000000000000e+04 9.327400000000000000e+04 3.363800000000000000e+04 9.268100000000000000e+04 3.334000000000000000e+04 9.268200000000000000e+04 3.364100000000000000e+04 3.364200000000000000e+04 3.394300000000000000e+04 3.394400000000000000e+04 9.329100000000000000e+04 9.269700000000000000e+04 3.334800000000000000e+04 9.269800000000000000e+04 3.335000000000000000e+04 9.330200000000000000e+04 9.330400000000000000e+04 9.330600000000000000e+04 3.365400000000000000e+04 9.271300000000000000e+04 3.335600000000000000e+04 9.271400000000000000e+04 9.331600000000000000e+04 3.365900000000000000e+04 3.336000000000000000e+04 3.366000000000000000e+04 9.272400000000000000e+04 3.366200000000000000e+04 3.366400000000000000e+04 9.273300000000000000e+04 3.336600000000000000e+04 9.273400000000000000e+04 3.366800000000000000e+04 9.274100000000000000e+04 3.367000000000000000e+04 3.337100000000000000e+04 3.367100000000000000e+04 3.367200000000000000e+04 3.397300000000000000e+04 3.397400000000000000e+04 3.397500000000000000e+04 9.335300000000000000e+04 9.335500000000000000e+04 3.337900000000000000e+04 9.276000000000000000e+04 3.368100000000000000e+04 3.368200000000000000e+04 3.338300000000000000e+04 3.368300000000000000e+04 3.368400000000000000e+04 3.398500000000000000e+04 3.368700000000000000e+04 9.277900000000000000e+04 3.338900000000000000e+04 9.278000000000000000e+04 3.369000000000000000e+04 9.278700000000000000e+04 3.369300000000000000e+04 3.369400000000000000e+04 9.339000000000000000e+04 3.399500000000000000e+04 3.369700000000000000e+04 9.279900000000000000e+04 3.339900000000000000e+04 3.340000000000000000e+04 9.280200000000000000e+04 9.280700000000000000e+04 3.370300000000000000e+04 9.281100000000000000e+04 3.340500000000000000e+04 9.281200000000000000e+04 9.341400000000000000e+04 9.341600000000000000e+04 3.370900000000000000e+04 9.282300000000000000e+04 3.371100000000000000e+04 9.282700000000000000e+04 3.341300000000000000e+04 3.371300000000000000e+04 3.341500000000000000e+04
3.299700000000000000e+04 3.299800000000000000e+04 9.260000000000000000e+04 3.300100000000000000e+04 3.330100000000000000e+04 3.300200000000000000e+04 3.330300000000000000e+04 3.300500000000000000e+04 9.261200000000000000e+04 3.330600000000000000e+04 9.261500000000000000e+04 3.300800000000000000e+04 3.271000000000000000e+04 9.202200000000000000e+04 3.301100000000000000e+04 9.262500000000000000e+04 9.262700000000000000e+04 9.203300000000000000e+04 9.203500000000000000e+04 3.271700000000000000e+04 9.203600000000000000e+04 9.263800000000000000e+04 9.264000000000000000e+04 3.302100000000000000e+04 9.204700000000000000e+04 3.272300000000000000e+04 9.204800000000000000e+04 9.205300000000000000e+04 3.272600000000000000e+04 3.272700000000000000e+04 9.205600000000000000e+04 3.302800000000000000e+04 3.302900000000000000e+04 3.303000000000000000e+04 3.303100000000000000e+04 3.303200000000000000e+04 3.303300000000000000e+04 3.303500000000000000e+04 9.207500000000000000e+04 3.273700000000000000e+04 9.207600000000000000e+04 9.267800000000000000e+04 3.304000000000000000e+04 3.274100000000000000e+04 3.304100000000000000e+04 3.334200000000000000e+04 9.268700000000000000e+04 3.304400000000000000e+04 3.274600000000000000e+04 9.209400000000000000e+04 3.304800000000000000e+04 9.210100000000000000e+04 3.275000000000000000e+04 9.210200000000000000e+04 3.305100000000000000e+04 9.210900000000000000e+04 9.211100000000000000e+04 9.271000000000000000e+04 3.305600000000000000e+04 3.275700000000000000e+04 3.305700000000000000e+04 9.211800000000000000e+04 3.306000000000000000e+04 9.212500000000000000e+04 3.276200000000000000e+04 9.212600000000000000e+04 9.212800000000000000e+04 3.306500000000000000e+04 9.213500000000000000e+04 3.276700000000000000e+04 3.306700000000000000e+04 9.273800000000000000e+04 3.307000000000000000e+04 3.307100000000000000e+04 3.277200000000000000e+04 3.307200000000000000e+04 9.274700000000000000e+04 3.307400000000000000e+04 3.307500000000000000e+04 3.337600000000000000e+04 9.275500000000000000e+04 3.307900000000000000e+04 9.216300000000000000e+04 3.278100000000000000e+04 3.308200000000000000e+04 3.308300000000000000e+04 3.278400000000000000e+04 3.308400000000000000e+04 3.278600000000000000e+04 9.217400000000000000e+04 9.217900000000000000e+04 3.308900000000000000e+04 3.279000000000000000e+04 3.309000000000000000e+04 9.218700000000000000e+04 3.279300000000000000e+04 3.279400000000000000e+04 3.309500000000000000e+04 3.339500000000000000e+04 3.309600000000000000e+04 9.279600000000000000e+04 3.309900000000000000e+04 3.310000000000000000e+04 9.220500000000000000e+04 3.280200000000000000e+04 3.310300000000000000e+04 9.280800000000000000e+04 3.310500000000000000e+04 9.221500000000000000e+04 3.280700000000000000e+04 9.221600000000000000e+04 3.280900000000000000e+04 9.282000000000000000e+04 3.311100000000000000e+04 9.282400000000000000e+04 3.311300000000000000e+04 9.223100000000000000e+04 3.281500000000000000e+04 9.223200000000000000e+04
9.199700000000000000e+04 9.199900000000000000e+04 3.240100000000000000e+04 3.240200000000000000e+04 3.270200000000000000e+04 3.240300000000000000e+04 3.240400000000000000e+04 9.201200000000000000e+04 3.270600000000000000e+04 9.201600000000000000e+04 3.270800000000000000e+04 9.201900000000000000e+04 3.241000000000000000e+04 3.241100000000000000e+04 9.202500000000000000e+04 9.202700000000000000e+04 9.202900000000000000e+04 9.143500000000000000e+04 9.143700000000000000e+04 3.211800000000000000e+04 3.211900000000000000e+04 9.144000000000000000e+04 9.204200000000000000e+04 9.204400000000000000e+04 3.242300000000000000e+04 9.145100000000000000e+04 3.212500000000000000e+04 3.212600000000000000e+04 9.145400000000000000e+04 3.242700000000000000e+04 3.242800000000000000e+04 3.272900000000000000e+04 3.273000000000000000e+04 3.273100000000000000e+04 9.206500000000000000e+04 3.243300000000000000e+04 9.206900000000000000e+04 3.243600000000000000e+04 3.243700000000000000e+04 9.147900000000000000e+04 3.213900000000000000e+04 3.214000000000000000e+04 3.244100000000000000e+04 3.214200000000000000e+04 3.244200000000000000e+04 9.148800000000000000e+04 9.149000000000000000e+04 3.214600000000000000e+04 3.214700000000000000e+04 9.149600000000000000e+04 9.209800000000000000e+04 3.245000000000000000e+04 3.215100000000000000e+04 3.245100000000000000e+04 9.150600000000000000e+04 3.245400000000000000e+04 3.245500000000000000e+04 3.245600000000000000e+04 3.245700000000000000e+04 9.151900000000000000e+04 3.215900000000000000e+04 9.152000000000000000e+04 9.152500000000000000e+04 3.216200000000000000e+04 9.152600000000000000e+04 3.246300000000000000e+04 3.246400000000000000e+04 9.153500000000000000e+04 3.246700000000000000e+04 3.216800000000000000e+04 3.246800000000000000e+04 9.154000000000000000e+04 9.214200000000000000e+04 3.247200000000000000e+04 3.217300000000000000e+04 3.247300000000000000e+04 3.217500000000000000e+04 9.155200000000000000e+04 9.155400000000000000e+04 3.247800000000000000e+04 9.156100000000000000e+04 3.218000000000000000e+04 3.248100000000000000e+04 3.218200000000000000e+04 3.248300000000000000e+04 3.248400000000000000e+04 3.218500000000000000e+04 3.248500000000000000e+04 3.218700000000000000e+04 9.157600000000000000e+04 3.248900000000000000e+04 3.249000000000000000e+04 9.158500000000000000e+04 3.219200000000000000e+04 3.249300000000000000e+04 3.249400000000000000e+04 3.249500000000000000e+04 9.219200000000000000e+04 3.279600000000000000e+04 9.219500000000000000e+04 3.249900000000000000e+04 9.220000000000000000e+04 3.280000000000000000e+04 3.250200000000000000e+04 3.250300000000000000e+04 9.220800000000000000e+04 3.280400000000000000e+04 9.221200000000000000e+04 3.250700000000000000e+04 9.161900000000000000e+04 3.220900000000000000e+04 3.221000000000000000e+04 9.162200000000000000e+04 9.222400000000000000e+04 3.281200000000000000e+04 9.222800000000000000e+04 3.251500000000000000e+04 3.221600000000000000e+04 3.251600000000000000e+04
9.139900000000000000e+04 9.140100000000000000e+04 9.140400000000000000e+04 9.140600000000000000e+04 3.210300000000000000e+04 9.140900000000000000e+04 3.180500000000000000e+04 9.081400000000000000e+04 9.141600000000000000e+04 3.180900000000000000e+04 9.142000000000000000e+04 3.211000000000000000e+04 9.142300000000000000e+04 3.181200000000000000e+04 9.082800000000000000e+04 9.083000000000000000e+04 9.083500000000000000e+04 3.181700000000000000e+04 3.181800000000000000e+04 9.084100000000000000e+04 3.152000000000000000e+04 9.084200000000000000e+04 9.084400000000000000e+04 3.152300000000000000e+04 9.144800000000000000e+04 3.182500000000000000e+04 9.085500000000000000e+04 3.152700000000000000e+04 3.182700000000000000e+04 3.212800000000000000e+04 9.145900000000000000e+04 3.183000000000000000e+04 9.086400000000000000e+04 9.086600000000000000e+04 3.213300000000000000e+04 9.146900000000000000e+04 3.183600000000000000e+04 9.147400000000000000e+04 9.147600000000000000e+04 3.183900000000000000e+04 3.184000000000000000e+04 3.184100000000000000e+04 3.184200000000000000e+04 9.088900000000000000e+04 3.154400000000000000e+04 9.089000000000000000e+04 3.154600000000000000e+04 3.154700000000000000e+04 9.089600000000000000e+04 3.184800000000000000e+04 9.090300000000000000e+04 3.185100000000000000e+04 3.155200000000000000e+04 3.185200000000000000e+04 3.185300000000000000e+04 9.151000000000000000e+04 9.151200000000000000e+04 3.215600000000000000e+04 9.151600000000000000e+04 3.185900000000000000e+04 9.092300000000000000e+04 3.156100000000000000e+04 3.186200000000000000e+04 9.092900000000000000e+04 3.156400000000000000e+04 9.093000000000000000e+04 9.093200000000000000e+04 3.186700000000000000e+04 3.186800000000000000e+04 9.094100000000000000e+04 3.157000000000000000e+04 9.094200000000000000e+04 3.157200000000000000e+04 3.187300000000000000e+04 3.157400000000000000e+04 3.187400000000000000e+04 9.095200000000000000e+04 3.187600000000000000e+04 3.187700000000000000e+04 3.187900000000000000e+04 3.188000000000000000e+04 9.096500000000000000e+04 3.158200000000000000e+04 9.096600000000000000e+04 3.188300000000000000e+04 3.188500000000000000e+04 9.097500000000000000e+04 3.158700000000000000e+04 9.097600000000000000e+04 3.188800000000000000e+04 9.158000000000000000e+04 9.158200000000000000e+04 3.189200000000000000e+04 3.189300000000000000e+04 9.158800000000000000e+04 3.219400000000000000e+04 3.219500000000000000e+04 3.219600000000000000e+04 9.159500000000000000e+04 3.189800000000000000e+04 9.160000000000000000e+04 3.190100000000000000e+04 9.160400000000000000e+04 3.220200000000000000e+04 3.220300000000000000e+04 3.220400000000000000e+04 3.190500000000000000e+04 3.190700000000000000e+04 9.161600000000000000e+04 3.190900000000000000e+04 3.191000000000000000e+04 9.102500000000000000e+04 3.161200000000000000e+04 9.102600000000000000e+04 3.161400000000000000e+04 3.161500000000000000e+04 3.191600000000000000e+04 3.161700000000000000e+04 3.191700000000000000e+04
3.090100000000000000e+04 9.020400000000000000e+04 9.020600000000000000e+04 3.150300000000000000e+04 9.081000000000000000e+04 3.150500000000000000e+04 9.081300000000000000e+04 3.120700000000000000e+04 3.120800000000000000e+04 9.082000000000000000e+04 3.151000000000000000e+04 9.082400000000000000e+04 3.151200000000000000e+04 9.082700000000000000e+04 3.121400000000000000e+04 3.121500000000000000e+04 9.023700000000000000e+04 3.091800000000000000e+04 9.083800000000000000e+04 3.122000000000000000e+04 9.024500000000000000e+04 3.092200000000000000e+04 9.024600000000000000e+04 3.092400000000000000e+04 9.025000000000000000e+04 9.025500000000000000e+04 3.092700000000000000e+04 9.025600000000000000e+04 3.122800000000000000e+04 3.122900000000000000e+04 3.153000000000000000e+04 9.086300000000000000e+04 3.123200000000000000e+04 3.123300000000000000e+04 3.123400000000000000e+04 3.093600000000000000e+04 9.027400000000000000e+04 3.153700000000000000e+04 3.123900000000000000e+04 9.088000000000000000e+04 3.154000000000000000e+04 3.154100000000000000e+04 3.154200000000000000e+04 3.124400000000000000e+04 9.029300000000000000e+04 3.094600000000000000e+04 3.094700000000000000e+04 9.029600000000000000e+04 3.124800000000000000e+04 3.124900000000000000e+04 3.125100000000000000e+04 3.125200000000000000e+04 3.095300000000000000e+04 3.125300000000000000e+04 9.031000000000000000e+04 3.095600000000000000e+04 9.031400000000000000e+04 9.091600000000000000e+04 3.125900000000000000e+04 9.092000000000000000e+04 3.126100000000000000e+04 9.032700000000000000e+04 3.096300000000000000e+04 3.126400000000000000e+04 3.096500000000000000e+04 3.126500000000000000e+04 3.126600000000000000e+04 9.093600000000000000e+04 9.093800000000000000e+04 3.127000000000000000e+04 9.034500000000000000e+04 3.097200000000000000e+04 3.097300000000000000e+04 3.097400000000000000e+04 9.035000000000000000e+04 3.127500000000000000e+04 3.127600000000000000e+04 9.095500000000000000e+04 9.095700000000000000e+04 9.036300000000000000e+04 3.098100000000000000e+04 3.128200000000000000e+04 9.036900000000000000e+04 3.098400000000000000e+04 9.037000000000000000e+04 9.097200000000000000e+04 3.128700000000000000e+04 3.098800000000000000e+04 3.128800000000000000e+04 3.128900000000000000e+04 3.099100000000000000e+04 9.038400000000000000e+04 9.098600000000000000e+04 3.159300000000000000e+04 3.159400000000000000e+04 9.099100000000000000e+04 3.159600000000000000e+04 9.099600000000000000e+04 3.159800000000000000e+04 9.099900000000000000e+04 3.100100000000000000e+04 9.100400000000000000e+04 3.160200000000000000e+04 3.130400000000000000e+04 9.101000000000000000e+04 3.160500000000000000e+04 9.101300000000000000e+04 9.101600000000000000e+04 3.160800000000000000e+04 9.102000000000000000e+04 3.161000000000000000e+04 3.131200000000000000e+04 9.042900000000000000e+04 3.101400000000000000e+04 9.043000000000000000e+04 9.043500000000000000e+04 3.101700000000000000e+04 9.043600000000000000e+04 3.131800000000000000e+04
3.030200000000000000e+04 8.960600000000000000e+04 8.960800000000000000e+04 3.030500000000000000e+04 8.961200000000000000e+04 9.021400000000000000e+04 3.090700000000000000e+04 9.021700000000000000e+04 9.021900000000000000e+04 3.031100000000000000e+04 9.022400000000000000e+04 3.091200000000000000e+04 9.022800000000000000e+04 3.091400000000000000e+04 9.023100000000000000e+04 8.963700000000000000e+04 3.031800000000000000e+04 3.031900000000000000e+04 8.964000000000000000e+04 9.024200000000000000e+04 3.062200000000000000e+04 3.032300000000000000e+04 3.062300000000000000e+04 3.032500000000000000e+04 8.965200000000000000e+04 3.062700000000000000e+04 3.032800000000000000e+04 3.062800000000000000e+04 9.025900000000000000e+04 9.026100000000000000e+04 9.026400000000000000e+04 3.093200000000000000e+04 9.026700000000000000e+04 9.026900000000000000e+04 8.967500000000000000e+04 3.033700000000000000e+04 8.967600000000000000e+04 3.063900000000000000e+04 9.028000000000000000e+04 3.094000000000000000e+04 3.094100000000000000e+04 3.064300000000000000e+04 8.969100000000000000e+04 3.064500000000000000e+04 3.064600000000000000e+04 8.969700000000000000e+04 3.034800000000000000e+04 3.064800000000000000e+04 3.035000000000000000e+04 8.970200000000000000e+04 3.065200000000000000e+04 3.065300000000000000e+04 8.971100000000000000e+04 3.035500000000000000e+04 8.971200000000000000e+04 3.035700000000000000e+04 8.971600000000000000e+04 8.972100000000000000e+04 8.972300000000000000e+04 3.036100000000000000e+04 9.032400000000000000e+04 3.066300000000000000e+04 8.973100000000000000e+04 3.036500000000000000e+04 8.973200000000000000e+04 3.066600000000000000e+04 3.066700000000000000e+04 3.066900000000000000e+04 3.067000000000000000e+04 9.034200000000000000e+04 3.067200000000000000e+04 3.037300000000000000e+04 8.974800000000000000e+04 3.067400000000000000e+04 3.067500000000000000e+04 3.097600000000000000e+04 9.035500000000000000e+04 3.037900000000000000e+04 8.976000000000000000e+04 8.976500000000000000e+04 3.038200000000000000e+04 8.976900000000000000e+04 3.038400000000000000e+04 8.977000000000000000e+04 3.068500000000000000e+04 8.977700000000000000e+04 3.068800000000000000e+04 3.038900000000000000e+04 3.068900000000000000e+04 8.978500000000000000e+04 3.039200000000000000e+04 8.978600000000000000e+04 3.039400000000000000e+04 8.979000000000000000e+04 3.099500000000000000e+04 9.039300000000000000e+04 9.039500000000000000e+04 8.980100000000000000e+04 8.980300000000000000e+04 3.040100000000000000e+04 3.040200000000000000e+04 8.980600000000000000e+04 3.100300000000000000e+04 9.041000000000000000e+04 3.100500000000000000e+04 8.981700000000000000e+04 3.040800000000000000e+04 8.982100000000000000e+04 3.041000000000000000e+04 3.041100000000000000e+04 3.041200000000000000e+04 9.042600000000000000e+04 3.071400000000000000e+04 8.983300000000000000e+04 3.041600000000000000e+04 3.071700000000000000e+04 3.041800000000000000e+04 3.071800000000000000e+04 9.043900000000000000e+04
2.970300000000000000e+04 2.970400000000000000e+04 2.970500000000000000e+04 8.901200000000000000e+04 3.000600000000000000e+04 3.000700000000000000e+04 3.030800000000000000e+04 8.961900000000000000e+04 8.902500000000000000e+04 2.971200000000000000e+04 8.902600000000000000e+04 8.902800000000000000e+04 8.963000000000000000e+04 3.031500000000000000e+04 3.001700000000000000e+04 3.001800000000000000e+04 3.001900000000000000e+04 8.904300000000000000e+04 2.972100000000000000e+04 2.972200000000000000e+04 3.002300000000000000e+04 8.905100000000000000e+04 2.972500000000000000e+04 2.972600000000000000e+04 8.905700000000000000e+04 2.972800000000000000e+04 8.905800000000000000e+04 3.002900000000000000e+04 2.973100000000000000e+04 2.973200000000000000e+04 8.906600000000000000e+04 3.033300000000000000e+04 8.966900000000000000e+04 8.907500000000000000e+04 3.003700000000000000e+04 2.973800000000000000e+04 3.003800000000000000e+04 8.908000000000000000e+04 3.034000000000000000e+04 3.034100000000000000e+04 8.908900000000000000e+04 8.909100000000000000e+04 3.004500000000000000e+04 8.969200000000000000e+04 3.034600000000000000e+04 3.004800000000000000e+04 8.910100000000000000e+04 2.975000000000000000e+04 8.910200000000000000e+04 3.005100000000000000e+04 8.910600000000000000e+04 8.970800000000000000e+04 3.005500000000000000e+04 8.911500000000000000e+04 2.975700000000000000e+04 8.911600000000000000e+04 3.005800000000000000e+04 3.006000000000000000e+04 3.006100000000000000e+04 8.912700000000000000e+04 2.976300000000000000e+04 8.913100000000000000e+04 2.976500000000000000e+04 8.913200000000000000e+04 3.006600000000000000e+04 8.973500000000000000e+04 8.973700000000000000e+04 8.974000000000000000e+04 8.974200000000000000e+04 8.914700000000000000e+04 3.007300000000000000e+04 8.915100000000000000e+04 2.977500000000000000e+04 3.037500000000000000e+04 8.975300000000000000e+04 3.007700000000000000e+04 8.916100000000000000e+04 2.978000000000000000e+04 8.916200000000000000e+04 3.008200000000000000e+04 8.916900000000000000e+04 2.978400000000000000e+04 8.917000000000000000e+04 3.008500000000000000e+04 8.977300000000000000e+04 3.008800000000000000e+04 3.008900000000000000e+04 8.918300000000000000e+04 2.979100000000000000e+04 8.918400000000000000e+04 8.918900000000000000e+04 2.979400000000000000e+04 8.919000000000000000e+04 3.009500000000000000e+04 8.919700000000000000e+04 2.979800000000000000e+04 8.919800000000000000e+04 8.920300000000000000e+04 8.920500000000000000e+04 2.980200000000000000e+04 2.980300000000000000e+04 8.920800000000000000e+04 8.921300000000000000e+04 2.980600000000000000e+04 8.921400000000000000e+04 3.010800000000000000e+04 8.922100000000000000e+04 2.981000000000000000e+04 8.922500000000000000e+04 2.981200000000000000e+04 8.922600000000000000e+04 3.011300000000000000e+04 8.983000000000000000e+04 3.011600000000000000e+04 8.923700000000000000e+04 2.981800000000000000e+04 8.923800000000000000e+04 3.011900000000000000e+04 2.982100000000000000e+04
8.840800000000000000e+04 2.940400000000000000e+04 2.940500000000000000e+04 2.940600000000000000e+04 2.940700000000000000e+04 2.910900000000000000e+04 8.842000000000000000e+04 8.842500000000000000e+04 2.911200000000000000e+04 2.911300000000000000e+04 8.842800000000000000e+04 2.941400000000000000e+04 8.903200000000000000e+04 2.971600000000000000e+04 8.903600000000000000e+04 8.903800000000000000e+04 2.942000000000000000e+04 2.942100000000000000e+04 2.942200000000000000e+04 2.942300000000000000e+04 2.942400000000000000e+04 2.942500000000000000e+04 2.942600000000000000e+04 8.845700000000000000e+04 2.912800000000000000e+04 8.845800000000000000e+04 2.942900000000000000e+04 8.906100000000000000e+04 2.943100000000000000e+04 2.943200000000000000e+04 2.943300000000000000e+04 2.943400000000000000e+04 8.847500000000000000e+04 2.943700000000000000e+04 8.847900000000000000e+04 2.913900000000000000e+04 8.848000000000000000e+04 2.914100000000000000e+04 8.848400000000000000e+04 8.848600000000000000e+04 2.944400000000000000e+04 2.944500000000000000e+04 8.909200000000000000e+04 2.974600000000000000e+04 8.909500000000000000e+04 8.909800000000000000e+04 2.945000000000000000e+04 8.850500000000000000e+04 2.915200000000000000e+04 8.850600000000000000e+04 2.915400000000000000e+04 8.851000000000000000e+04 8.911200000000000000e+04 2.945700000000000000e+04 2.915800000000000000e+04 2.945800000000000000e+04 2.916000000000000000e+04 8.852200000000000000e+04 2.946200000000000000e+04 2.946300000000000000e+04 8.853100000000000000e+04 2.916500000000000000e+04 8.853200000000000000e+04 2.946600000000000000e+04 8.913500000000000000e+04 8.913700000000000000e+04 8.913900000000000000e+04 8.854500000000000000e+04 8.854700000000000000e+04 2.947300000000000000e+04 8.914800000000000000e+04 2.947500000000000000e+04 2.917600000000000000e+04 2.947600000000000000e+04 8.855600000000000000e+04 8.855800000000000000e+04 2.948000000000000000e+04 2.918100000000000000e+04 2.918200000000000000e+04 8.856600000000000000e+04 2.948400000000000000e+04 2.918500000000000000e+04 2.948500000000000000e+04 8.917300000000000000e+04 8.917500000000000000e+04 8.917800000000000000e+04 8.918000000000000000e+04 2.949100000000000000e+04 8.858700000000000000e+04 2.919300000000000000e+04 2.949400000000000000e+04 2.919500000000000000e+04 2.949500000000000000e+04 8.859400000000000000e+04 8.859900000000000000e+04 2.919900000000000000e+04 8.860000000000000000e+04 2.950100000000000000e+04 2.950200000000000000e+04 8.860900000000000000e+04 2.920400000000000000e+04 2.950400000000000000e+04 8.861500000000000000e+04 2.920700000000000000e+04 8.861600000000000000e+04 8.921800000000000000e+04 2.951000000000000000e+04 8.862500000000000000e+04 2.921200000000000000e+04 8.862600000000000000e+04 2.951300000000000000e+04 2.921500000000000000e+04 2.921600000000000000e+04 2.921700000000000000e+04 2.921800000000000000e+04 8.863800000000000000e+04 2.951900000000000000e+04 8.924100000000000000e+04 2.952100000000000000e+04
2.880400000000000000e+04 2.910500000000000000e+04 2.910600000000000000e+04 8.841500000000000000e+04 8.841700000000000000e+04 2.851000000000000000e+04 8.782200000000000000e+04 8.782700000000000000e+04 2.851300000000000000e+04 8.782800000000000000e+04 2.881400000000000000e+04 2.881500000000000000e+04 2.851700000000000000e+04 8.783600000000000000e+04 2.881900000000000000e+04 2.882000000000000000e+04 8.844200000000000000e+04 8.844400000000000000e+04 2.912200000000000000e+04 2.912300000000000000e+04 2.912400000000000000e+04 2.912500000000000000e+04 2.912600000000000000e+04 2.882800000000000000e+04 8.786100000000000000e+04 2.853000000000000000e+04 2.853100000000000000e+04 2.913100000000000000e+04 2.913200000000000000e+04 2.913300000000000000e+04 8.846900000000000000e+04 8.847100000000000000e+04 2.883700000000000000e+04 8.787900000000000000e+04 2.883900000000000000e+04 2.854000000000000000e+04 2.884000000000000000e+04 2.854200000000000000e+04 8.788600000000000000e+04 8.788800000000000000e+04 2.884500000000000000e+04 8.849200000000000000e+04 2.914600000000000000e+04 8.849500000000000000e+04 8.790100000000000000e+04 8.790300000000000000e+04 2.885100000000000000e+04 2.885200000000000000e+04 8.790900000000000000e+04 2.855400000000000000e+04 8.791000000000000000e+04 2.885500000000000000e+04 8.791400000000000000e+04 2.885800000000000000e+04 8.792100000000000000e+04 2.856000000000000000e+04 8.792200000000000000e+04 2.886100000000000000e+04 8.792900000000000000e+04 8.852800000000000000e+04 2.886500000000000000e+04 8.793500000000000000e+04 2.856700000000000000e+04 8.793600000000000000e+04 2.856900000000000000e+04 8.794000000000000000e+04 8.794200000000000000e+04 2.887200000000000000e+04 2.887300000000000000e+04 8.854800000000000000e+04 2.917400000000000000e+04 2.887600000000000000e+04 8.795700000000000000e+04 2.857800000000000000e+04 8.795800000000000000e+04 8.796000000000000000e+04 2.888100000000000000e+04 8.796700000000000000e+04 2.858300000000000000e+04 8.796800000000000000e+04 2.858500000000000000e+04 8.797200000000000000e+04 2.888600000000000000e+04 2.888700000000000000e+04 2.888800000000000000e+04 8.798300000000000000e+04 2.889100000000000000e+04 2.889200000000000000e+04 2.889300000000000000e+04 8.799100000000000000e+04 2.859500000000000000e+04 2.859600000000000000e+04 2.889600000000000000e+04 2.889700000000000000e+04 2.889900000000000000e+04 2.860000000000000000e+04 2.890000000000000000e+04 8.800700000000000000e+04 2.860300000000000000e+04 2.890400000000000000e+04 2.860500000000000000e+04 2.890500000000000000e+04 2.890700000000000000e+04 2.860800000000000000e+04 2.890800000000000000e+04 8.802300000000000000e+04 2.861100000000000000e+04 2.891200000000000000e+04 2.861300000000000000e+04 2.891300000000000000e+04 8.862900000000000000e+04 2.891500000000000000e+04 2.891600000000000000e+04 2.891700000000000000e+04 2.891800000000000000e+04 2.891900000000000000e+04 8.864100000000000000e+04 2.922100000000000000e+04 2.922200000000000000e+04
8.781100000000000000e+04 2.820600000000000000e+04 2.820700000000000000e+04 2.820800000000000000e+04 2.821000000000000000e+04 2.791100000000000000e+04 2.821100000000000000e+04 2.821300000000000000e+04 2.791400000000000000e+04 2.821400000000000000e+04 8.783100000000000000e+04 2.791700000000000000e+04 8.723600000000000000e+04 2.821800000000000000e+04 8.784000000000000000e+04 8.784200000000000000e+04 2.852100000000000000e+04 2.852200000000000000e+04 8.784800000000000000e+04 2.852400000000000000e+04 2.852500000000000000e+04 8.725700000000000000e+04 2.792800000000000000e+04 8.726100000000000000e+04 2.793000000000000000e+04 8.726200000000000000e+04 2.823100000000000000e+04 2.823200000000000000e+04 2.823300000000000000e+04 2.823400000000000000e+04 8.727500000000000000e+04 2.793700000000000000e+04 8.727600000000000000e+04 2.823900000000000000e+04 8.728300000000000000e+04 2.794100000000000000e+04 2.794200000000000000e+04 8.728600000000000000e+04 2.824300000000000000e+04 2.824400000000000000e+04 8.789200000000000000e+04 2.854600000000000000e+04 8.789500000000000000e+04 8.730100000000000000e+04 2.825000000000000000e+04 2.825100000000000000e+04 8.790400000000000000e+04 2.855200000000000000e+04 2.825400000000000000e+04 8.731300000000000000e+04 2.795600000000000000e+04 8.731400000000000000e+04 8.731600000000000000e+04 8.791800000000000000e+04 2.826000000000000000e+04 2.796100000000000000e+04 2.826100000000000000e+04 8.732600000000000000e+04 2.826400000000000000e+04 2.826500000000000000e+04 8.793200000000000000e+04 2.826700000000000000e+04 8.733900000000000000e+04 2.796900000000000000e+04 8.734000000000000000e+04 2.827000000000000000e+04 2.827100000000000000e+04 8.794600000000000000e+04 8.794800000000000000e+04 2.857400000000000000e+04 2.827600000000000000e+04 8.795400000000000000e+04 2.827800000000000000e+04 8.736100000000000000e+04 2.798000000000000000e+04 8.736200000000000000e+04 2.828200000000000000e+04 2.828300000000000000e+04 2.798400000000000000e+04 2.798500000000000000e+04 8.737200000000000000e+04 2.828600000000000000e+04 8.797500000000000000e+04 8.797700000000000000e+04 2.828900000000000000e+04 2.829100000000000000e+04 2.829200000000000000e+04 8.798600000000000000e+04 8.798800000000000000e+04 2.829500000000000000e+04 2.829600000000000000e+04 8.739700000000000000e+04 2.799800000000000000e+04 8.739800000000000000e+04 2.830000000000000000e+04 2.800100000000000000e+04 2.830100000000000000e+04 8.740900000000000000e+04 2.800400000000000000e+04 2.830500000000000000e+04 2.800600000000000000e+04 2.830600000000000000e+04 2.830800000000000000e+04 2.800900000000000000e+04 2.830900000000000000e+04 2.831100000000000000e+04 8.742700000000000000e+04 2.801300000000000000e+04 8.742800000000000000e+04 2.831400000000000000e+04 2.861500000000000000e+04 2.861600000000000000e+04 2.861700000000000000e+04 2.861800000000000000e+04 2.861900000000000000e+04 2.832000000000000000e+04 2.832100000000000000e+04 2.862200000000000000e+04 8.804800000000000000e+04
2.790600000000000000e+04 8.721500000000000000e+04 8.721700000000000000e+04 8.662300000000000000e+04 2.731100000000000000e+04 2.731200000000000000e+04 2.761200000000000000e+04 2.731400000000000000e+04 8.663000000000000000e+04 2.761500000000000000e+04 2.731700000000000000e+04 8.663600000000000000e+04 2.761800000000000000e+04 2.761900000000000000e+04 8.664500000000000000e+04 8.664700000000000000e+04 2.732300000000000000e+04 2.732400000000000000e+04 2.732500000000000000e+04 2.732600000000000000e+04 2.732700000000000000e+04 2.762800000000000000e+04 8.666100000000000000e+04 2.733000000000000000e+04 8.666200000000000000e+04 2.763100000000000000e+04 2.793200000000000000e+04 8.726700000000000000e+04 8.726900000000000000e+04 8.727100000000000000e+04 8.667700000000000000e+04 2.733800000000000000e+04 8.667800000000000000e+04 2.764000000000000000e+04 2.764100000000000000e+04 2.734200000000000000e+04 8.668600000000000000e+04 2.764300000000000000e+04 2.734500000000000000e+04 8.669200000000000000e+04 8.669400000000000000e+04 2.794700000000000000e+04 8.729700000000000000e+04 2.765000000000000000e+04 2.765100000000000000e+04 8.730400000000000000e+04 2.795200000000000000e+04 8.730800000000000000e+04 8.731000000000000000e+04 2.765600000000000000e+04 8.671700000000000000e+04 2.735800000000000000e+04 8.671800000000000000e+04 8.672300000000000000e+04 2.736100000000000000e+04 8.672400000000000000e+04 2.766200000000000000e+04 2.766300000000000000e+04 8.733000000000000000e+04 8.733200000000000000e+04 2.796600000000000000e+04 8.733600000000000000e+04 2.766900000000000000e+04 2.737000000000000000e+04 2.767000000000000000e+04 2.737200000000000000e+04 2.737300000000000000e+04 8.674800000000000000e+04 8.735000000000000000e+04 2.797500000000000000e+04 8.735400000000000000e+04 2.797700000000000000e+04 8.735800000000000000e+04 2.768000000000000000e+04 2.738100000000000000e+04 2.768100000000000000e+04 8.676900000000000000e+04 2.738400000000000000e+04 8.677000000000000000e+04 2.768500000000000000e+04 2.768600000000000000e+04 8.737500000000000000e+04 2.738900000000000000e+04 8.678000000000000000e+04 8.738100000000000000e+04 8.738400000000000000e+04 8.738600000000000000e+04 8.738800000000000000e+04 2.799400000000000000e+04 8.739200000000000000e+04 2.799600000000000000e+04 2.769800000000000000e+04 8.680100000000000000e+04 2.740000000000000000e+04 2.740100000000000000e+04 8.680400000000000000e+04 2.770200000000000000e+04 8.681100000000000000e+04 2.740500000000000000e+04 2.770600000000000000e+04 2.740700000000000000e+04 2.770700000000000000e+04 2.770900000000000000e+04 2.741000000000000000e+04 2.741100000000000000e+04 2.741200000000000000e+04 2.741300000000000000e+04 8.682800000000000000e+04 2.771400000000000000e+04 8.743100000000000000e+04 2.771700000000000000e+04 2.801700000000000000e+04 2.771800000000000000e+04 2.772000000000000000e+04 2.802000000000000000e+04 2.772100000000000000e+04 8.684600000000000000e+04 2.742400000000000000e+04 8.685000000000000000e+04
2.730700000000000000e+04 8.661700000000000000e+04 8.602300000000000000e+04 8.602500000000000000e+04 2.671200000000000000e+04 8.602600000000000000e+04 2.671400000000000000e+04 8.603000000000000000e+04 2.701500000000000000e+04 8.663300000000000000e+04 2.701700000000000000e+04 2.701800000000000000e+04 8.663900000000000000e+04 8.664100000000000000e+04 2.702200000000000000e+04 2.702300000000000000e+04 2.702400000000000000e+04 2.702500000000000000e+04 2.702600000000000000e+04 2.702700000000000000e+04 8.605900000000000000e+04 2.672900000000000000e+04 2.703000000000000000e+04 8.606500000000000000e+04 2.673200000000000000e+04 8.606600000000000000e+04 2.703300000000000000e+04 2.673500000000000000e+04 2.673600000000000000e+04 8.607400000000000000e+04 2.703800000000000000e+04 8.608100000000000000e+04 2.674000000000000000e+04 8.608500000000000000e+04 2.674200000000000000e+04 8.608600000000000000e+04 2.704300000000000000e+04 8.668900000000000000e+04 2.704500000000000000e+04 2.704600000000000000e+04 2.704700000000000000e+04 8.610100000000000000e+04 2.675000000000000000e+04 8.610500000000000000e+04 2.675200000000000000e+04 2.735200000000000000e+04 2.675400000000000000e+04 8.611300000000000000e+04 8.611500000000000000e+04 8.611700000000000000e+04 2.675800000000000000e+04 8.611800000000000000e+04 2.705900000000000000e+04 2.676100000000000000e+04 8.612400000000000000e+04 2.706200000000000000e+04 8.672700000000000000e+04 2.676500000000000000e+04 2.676600000000000000e+04 8.613400000000000000e+04 2.706800000000000000e+04 2.706900000000000000e+04 2.707000000000000000e+04 8.614500000000000000e+04 2.677200000000000000e+04 8.614600000000000000e+04 2.677400000000000000e+04 8.615000000000000000e+04 8.615200000000000000e+04 2.737600000000000000e+04 2.707800000000000000e+04 2.707900000000000000e+04 2.708000000000000000e+04 2.708100000000000000e+04 8.616700000000000000e+04 2.678300000000000000e+04 2.678400000000000000e+04 8.617000000000000000e+04 2.708500000000000000e+04 2.738600000000000000e+04 8.677500000000000000e+04 2.708800000000000000e+04 2.708900000000000000e+04 2.709000000000000000e+04 2.709100000000000000e+04 8.678600000000000000e+04 8.678800000000000000e+04 2.739400000000000000e+04 2.739500000000000000e+04 2.709700000000000000e+04 2.709800000000000000e+04 8.679800000000000000e+04 2.710000000000000000e+04 8.620500000000000000e+04 2.680200000000000000e+04 2.710200000000000000e+04 8.680700000000000000e+04 2.710500000000000000e+04 8.621500000000000000e+04 2.680700000000000000e+04 8.621600000000000000e+04 2.710800000000000000e+04 2.681000000000000000e+04 8.622200000000000000e+04 2.711100000000000000e+04 2.711200000000000000e+04 2.711300000000000000e+04 2.711400000000000000e+04 2.711500000000000000e+04 8.623400000000000000e+04 2.711800000000000000e+04 2.741800000000000000e+04 2.711900000000000000e+04 8.684200000000000000e+04 2.742100000000000000e+04 8.684500000000000000e+04 2.712300000000000000e+04 8.625000000000000000e+04 2.712500000000000000e+04
2.640800000000000000e+04 8.542300000000000000e+04 8.542500000000000000e+04 2.611200000000000000e+04 8.542600000000000000e+04 2.641300000000000000e+04 2.641400000000000000e+04 2.641500000000000000e+04 8.603300000000000000e+04 2.671700000000000000e+04 8.603700000000000000e+04 8.603900000000000000e+04 8.544500000000000000e+04 2.612200000000000000e+04 8.604600000000000000e+04 8.604800000000000000e+04 2.672400000000000000e+04 2.672500000000000000e+04 2.672600000000000000e+04 2.672700000000000000e+04 2.642900000000000000e+04 2.643000000000000000e+04 8.606200000000000000e+04 2.643200000000000000e+04 2.613300000000000000e+04 2.643300000000000000e+04 2.613500000000000000e+04 2.613600000000000000e+04 8.547400000000000000e+04 2.613800000000000000e+04 8.547800000000000000e+04 2.644000000000000000e+04 8.548500000000000000e+04 2.614200000000000000e+04 8.548600000000000000e+04 2.644300000000000000e+04 8.608900000000000000e+04 2.644500000000000000e+04 2.674600000000000000e+04 8.609500000000000000e+04 2.644800000000000000e+04 8.550300000000000000e+04 8.550500000000000000e+04 2.615200000000000000e+04 2.615300000000000000e+04 2.615400000000000000e+04 2.615500000000000000e+04 8.551200000000000000e+04 2.645700000000000000e+04 2.645800000000000000e+04 2.615900000000000000e+04 2.645900000000000000e+04 8.612100000000000000e+04 2.646100000000000000e+04 2.646200000000000000e+04 8.612700000000000000e+04 8.553300000000000000e+04 2.616600000000000000e+04 8.553400000000000000e+04 2.646700000000000000e+04 8.613800000000000000e+04 8.614000000000000000e+04 8.614200000000000000e+04 2.647200000000000000e+04 8.554900000000000000e+04 2.617400000000000000e+04 8.555000000000000000e+04 2.647500000000000000e+04 2.647600000000000000e+04 2.617800000000000000e+04 8.555800000000000000e+04 8.616000000000000000e+04 2.648100000000000000e+04 8.616400000000000000e+04 2.648300000000000000e+04 2.648400000000000000e+04 8.557300000000000000e+04 2.618600000000000000e+04 2.618700000000000000e+04 2.618800000000000000e+04 2.678800000000000000e+04 2.678900000000000000e+04 2.679000000000000000e+04 8.618300000000000000e+04 8.618500000000000000e+04 8.618800000000000000e+04 8.559300000000000000e+04 8.559500000000000000e+04 2.619700000000000000e+04 8.619600000000000000e+04 8.560100000000000000e+04 2.650000000000000000e+04 8.620200000000000000e+04 2.650200000000000000e+04 8.560900000000000000e+04 2.620400000000000000e+04 8.561000000000000000e+04 8.561500000000000000e+04 2.620700000000000000e+04 8.561600000000000000e+04 2.650800000000000000e+04 8.621900000000000000e+04 2.651000000000000000e+04 2.651100000000000000e+04 2.681200000000000000e+04 2.681300000000000000e+04 2.681400000000000000e+04 2.681500000000000000e+04 8.623300000000000000e+04 2.651700000000000000e+04 8.623800000000000000e+04 2.681900000000000000e+04 8.624100000000000000e+04 2.682100000000000000e+04 2.652300000000000000e+04 2.682300000000000000e+04 8.624900000000000000e+04 2.652500000000000000e+04 2.622700000000000000e+04
8.482300000000000000e+04 2.551100000000000000e+04 2.581200000000000000e+04 2.551300000000000000e+04 2.581300000000000000e+04 2.611400000000000000e+04 2.611500000000000000e+04 8.543300000000000000e+04 2.581700000000000000e+04 2.581800000000000000e+04 2.611900000000000000e+04 8.544100000000000000e+04 2.582200000000000000e+04 8.484900000000000000e+04 2.552400000000000000e+04 8.485000000000000000e+04 8.545200000000000000e+04 2.582700000000000000e+04 2.582800000000000000e+04 2.582900000000000000e+04 8.546000000000000000e+04 2.613000000000000000e+04 2.613100000000000000e+04 2.583300000000000000e+04 8.487100000000000000e+04 2.553500000000000000e+04 8.487200000000000000e+04 8.487400000000000000e+04 2.553800000000000000e+04 8.487800000000000000e+04 8.488000000000000000e+04 8.488500000000000000e+04 2.554200000000000000e+04 8.488600000000000000e+04 2.584300000000000000e+04 8.548900000000000000e+04 2.614500000000000000e+04 8.549300000000000000e+04 2.584700000000000000e+04 2.614800000000000000e+04 8.549900000000000000e+04 2.585100000000000000e+04 2.585200000000000000e+04 2.585300000000000000e+04 2.585400000000000000e+04 2.585500000000000000e+04 8.491500000000000000e+04 2.555700000000000000e+04 2.555800000000000000e+04 2.585900000000000000e+04 2.556000000000000000e+04 2.586000000000000000e+04 2.616100000000000000e+04 2.616200000000000000e+04 8.552700000000000000e+04 8.493300000000000000e+04 2.556600000000000000e+04 8.493400000000000000e+04 2.586700000000000000e+04 2.586800000000000000e+04 8.554000000000000000e+04 8.554200000000000000e+04 2.587200000000000000e+04 8.554600000000000000e+04 2.587400000000000000e+04 8.495300000000000000e+04 2.557600000000000000e+04 8.495400000000000000e+04 2.557800000000000000e+04 8.495800000000000000e+04 2.587900000000000000e+04 2.588100000000000000e+04 8.556400000000000000e+04 2.618200000000000000e+04 8.556800000000000000e+04 2.618400000000000000e+04 2.588600000000000000e+04 2.558700000000000000e+04 2.588700000000000000e+04 2.588800000000000000e+04 2.588900000000000000e+04 2.589000000000000000e+04 2.589100000000000000e+04 2.589200000000000000e+04 8.499100000000000000e+04 8.499300000000000000e+04 2.559600000000000000e+04 2.559700000000000000e+04 8.499900000000000000e+04 2.559900000000000000e+04 2.590000000000000000e+04 8.560200000000000000e+04 2.620100000000000000e+04 8.560600000000000000e+04 2.590400000000000000e+04 2.560500000000000000e+04 2.590500000000000000e+04 2.560700000000000000e+04 8.501600000000000000e+04 2.590800000000000000e+04 2.591000000000000000e+04 2.621000000000000000e+04 2.621100000000000000e+04 8.562500000000000000e+04 2.591400000000000000e+04 2.621400000000000000e+04 2.591500000000000000e+04 2.591700000000000000e+04 2.621700000000000000e+04 2.591800000000000000e+04 8.504000000000000000e+04 2.622000000000000000e+04 8.564300000000000000e+04 2.592300000000000000e+04 8.564800000000000000e+04 2.622400000000000000e+04 2.622500000000000000e+04 8.565300000000000000e+04 2.592700000000000000e+04
2.521100000000000000e+04 8.422700000000000000e+04 2.491300000000000000e+04 8.422800000000000000e+04 2.521400000000000000e+04 8.423200000000000000e+04 8.423400000000000000e+04 2.551700000000000000e+04 8.483700000000000000e+04 8.483900000000000000e+04 8.424500000000000000e+04 8.424700000000000000e+04 2.492300000000000000e+04 2.522400000000000000e+04 2.492500000000000000e+04 2.522500000000000000e+04 8.425400000000000000e+04 2.522800000000000000e+04 2.522900000000000000e+04 8.486000000000000000e+04 2.553000000000000000e+04 2.553100000000000000e+04 2.523300000000000000e+04 8.486800000000000000e+04 2.523500000000000000e+04 8.427500000000000000e+04 2.493700000000000000e+04 2.493800000000000000e+04 2.493900000000000000e+04 2.494000000000000000e+04 2.494100000000000000e+04 2.494200000000000000e+04 8.428600000000000000e+04 2.524300000000000000e+04 8.488900000000000000e+04 8.489100000000000000e+04 8.489300000000000000e+04 2.554700000000000000e+04 8.489700000000000000e+04 2.524900000000000000e+04 2.525100000000000000e+04 8.490400000000000000e+04 2.555200000000000000e+04 8.490800000000000000e+04 2.555400000000000000e+04 2.555500000000000000e+04 2.525700000000000000e+04 2.525800000000000000e+04 2.525900000000000000e+04 2.526000000000000000e+04 2.496100000000000000e+04 2.526100000000000000e+04 8.432900000000000000e+04 2.496400000000000000e+04 2.496500000000000000e+04 2.526600000000000000e+04 2.496700000000000000e+04 2.526700000000000000e+04 8.433800000000000000e+04 8.434000000000000000e+04 8.434500000000000000e+04 2.497200000000000000e+04 8.494600000000000000e+04 2.557300000000000000e+04 8.495000000000000000e+04 2.527600000000000000e+04 8.435700000000000000e+04 2.497800000000000000e+04 8.435800000000000000e+04 2.527900000000000000e+04 2.528000000000000000e+04 8.436400000000000000e+04 8.436900000000000000e+04 2.498400000000000000e+04 8.437300000000000000e+04 8.437500000000000000e+04 2.498700000000000000e+04 8.437600000000000000e+04 2.528800000000000000e+04 2.558900000000000000e+04 2.559000000000000000e+04 8.498300000000000000e+04 8.498500000000000000e+04 8.498700000000000000e+04 2.529500000000000000e+04 2.529600000000000000e+04 2.529700000000000000e+04 2.529800000000000000e+04 2.529900000000000000e+04 2.530000000000000000e+04 8.500200000000000000e+04 2.560100000000000000e+04 8.500500000000000000e+04 8.441100000000000000e+04 2.530500000000000000e+04 2.500600000000000000e+04 2.530700000000000000e+04 2.500800000000000000e+04 2.530800000000000000e+04 8.501900000000000000e+04 8.502200000000000000e+04 2.561100000000000000e+04 8.502500000000000000e+04 2.531300000000000000e+04 8.503000000000000000e+04 2.561500000000000000e+04 8.503300000000000000e+04 8.503600000000000000e+04 2.561800000000000000e+04 8.503900000000000000e+04 2.532000000000000000e+04 8.444400000000000000e+04 8.504500000000000000e+04 8.504800000000000000e+04 2.562400000000000000e+04 8.445500000000000000e+04 2.532700000000000000e+04 2.562700000000000000e+04 2.532800000000000000e+04
8.362700000000000000e+04 2.461300000000000000e+04 2.431400000000000000e+04 2.461400000000000000e+04 8.423100000000000000e+04 2.461600000000000000e+04 2.461700000000000000e+04 2.461800000000000000e+04 2.432000000000000000e+04 8.364200000000000000e+04 2.462200000000000000e+04 2.462300000000000000e+04 8.365100000000000000e+04 2.432500000000000000e+04 8.365200000000000000e+04 2.462600000000000000e+04 2.462700000000000000e+04 8.425800000000000000e+04 8.426000000000000000e+04 2.493000000000000000e+04 8.366700000000000000e+04 2.433300000000000000e+04 8.426800000000000000e+04 2.463500000000000000e+04 8.367500000000000000e+04 2.433700000000000000e+04 8.367600000000000000e+04 2.463800000000000000e+04 2.463900000000000000e+04 2.464000000000000000e+04 2.464100000000000000e+04 2.464200000000000000e+04 2.464300000000000000e+04 8.428900000000000000e+04 8.429100000000000000e+04 8.429300000000000000e+04 8.429500000000000000e+04 2.494800000000000000e+04 2.494900000000000000e+04 8.430100000000000000e+04 8.430400000000000000e+04 2.495200000000000000e+04 8.430800000000000000e+04 2.495400000000000000e+04 2.495500000000000000e+04 8.431400000000000000e+04 8.431600000000000000e+04 2.495800000000000000e+04 2.495900000000000000e+04 2.466100000000000000e+04 2.436200000000000000e+04 2.466200000000000000e+04 2.466400000000000000e+04 8.373300000000000000e+04 2.436600000000000000e+04 2.436700000000000000e+04 2.436800000000000000e+04 8.373800000000000000e+04 2.466900000000000000e+04 2.467000000000000000e+04 8.374700000000000000e+04 2.437300000000000000e+04 8.374800000000000000e+04 8.375300000000000000e+04 2.437600000000000000e+04 8.375700000000000000e+04 2.437800000000000000e+04 8.375800000000000000e+04 2.467900000000000000e+04 2.468000000000000000e+04 8.376400000000000000e+04 2.468200000000000000e+04 2.468400000000000000e+04 8.377300000000000000e+04 2.468600000000000000e+04 2.468700000000000000e+04 8.377900000000000000e+04 2.438900000000000000e+04 2.439000000000000000e+04 2.439100000000000000e+04 2.439200000000000000e+04 2.439300000000000000e+04 8.378800000000000000e+04 2.469400000000000000e+04 8.439200000000000000e+04 8.439400000000000000e+04 2.499700000000000000e+04 2.499800000000000000e+04 2.499900000000000000e+04 2.500000000000000000e+04 2.500100000000000000e+04 8.440500000000000000e+04 2.470400000000000000e+04 2.470500000000000000e+04 2.470600000000000000e+04 2.440700000000000000e+04 2.470800000000000000e+04 8.382100000000000000e+04 2.441000000000000000e+04 2.441100000000000000e+04 8.382400000000000000e+04 8.442600000000000000e+04 2.501300000000000000e+04 8.442900000000000000e+04 2.471500000000000000e+04 2.501600000000000000e+04 8.443500000000000000e+04 8.443800000000000000e+04 2.501900000000000000e+04 2.502000000000000000e+04 8.444300000000000000e+04 2.472200000000000000e+04 8.385100000000000000e+04 8.385300000000000000e+04 2.442600000000000000e+04 2.472700000000000000e+04 8.445600000000000000e+04 2.502800000000000000e+04 8.445900000000000000e+04
8.302900000000000000e+04 2.371400000000000000e+04 8.303000000000000000e+04 2.401500000000000000e+04 2.431600000000000000e+04 8.363500000000000000e+04 8.363700000000000000e+04 8.304300000000000000e+04 2.372100000000000000e+04 8.304400000000000000e+04 8.304900000000000000e+04 2.372400000000000000e+04 2.402500000000000000e+04 8.305500000000000000e+04 2.372700000000000000e+04 8.305600000000000000e+04 8.305800000000000000e+04 8.306300000000000000e+04 8.306500000000000000e+04 2.373200000000000000e+04 2.403300000000000000e+04 8.307100000000000000e+04 2.373500000000000000e+04 2.403600000000000000e+04 2.403700000000000000e+04 8.307900000000000000e+04 2.373900000000000000e+04 2.433900000000000000e+04 2.434000000000000000e+04 2.434100000000000000e+04 2.434200000000000000e+04 2.434300000000000000e+04 8.368900000000000000e+04 2.404500000000000000e+04 2.404600000000000000e+04 2.374800000000000000e+04 8.309800000000000000e+04 2.375000000000000000e+04 8.310200000000000000e+04 2.375200000000000000e+04 8.310600000000000000e+04 8.311100000000000000e+04 8.311300000000000000e+04 2.375600000000000000e+04 2.375700000000000000e+04 2.375800000000000000e+04 2.375900000000000000e+04 2.376000000000000000e+04 2.376100000000000000e+04 2.406200000000000000e+04 2.376300000000000000e+04 2.406300000000000000e+04 8.313300000000000000e+04 2.406600000000000000e+04 2.406700000000000000e+04 2.406800000000000000e+04 8.314100000000000000e+04 2.377000000000000000e+04 8.314200000000000000e+04 8.314400000000000000e+04 2.407300000000000000e+04 2.377400000000000000e+04 2.407400000000000000e+04 2.407600000000000000e+04 8.315700000000000000e+04 2.377800000000000000e+04 8.315800000000000000e+04 2.407900000000000000e+04 8.376100000000000000e+04 2.408100000000000000e+04 2.408200000000000000e+04 8.376700000000000000e+04 8.377000000000000000e+04 2.408600000000000000e+04 2.408700000000000000e+04 8.377600000000000000e+04 2.408900000000000000e+04 2.379000000000000000e+04 2.409000000000000000e+04 2.409100000000000000e+04 2.409200000000000000e+04 2.409300000000000000e+04 2.409400000000000000e+04 2.409500000000000000e+04 8.319700000000000000e+04 2.379800000000000000e+04 8.320100000000000000e+04 8.320300000000000000e+04 2.380100000000000000e+04 8.320700000000000000e+04 2.380300000000000000e+04 2.380400000000000000e+04 8.321300000000000000e+04 2.410600000000000000e+04 2.410700000000000000e+04 2.380800000000000000e+04 2.380900000000000000e+04 2.381000000000000000e+04 8.322200000000000000e+04 2.411100000000000000e+04 2.411200000000000000e+04 2.411300000000000000e+04 8.383000000000000000e+04 2.441500000000000000e+04 8.383300000000000000e+04 8.383500000000000000e+04 8.324100000000000000e+04 2.382000000000000000e+04 8.324200000000000000e+04 8.384400000000000000e+04 2.442200000000000000e+04 8.384700000000000000e+04 2.412500000000000000e+04 2.412600000000000000e+04 2.412700000000000000e+04 2.412800000000000000e+04 2.442800000000000000e+04 2.412900000000000000e+04 2.383100000000000000e+04
2.341400000000000000e+04 8.243300000000000000e+04 2.311600000000000000e+04 2.311700000000000000e+04 8.243600000000000000e+04 8.243800000000000000e+04 8.244300000000000000e+04 2.312100000000000000e+04 2.312200000000000000e+04 2.342200000000000000e+04 8.245100000000000000e+04 2.312500000000000000e+04 8.245200000000000000e+04 2.342700000000000000e+04 2.312800000000000000e+04 2.342800000000000000e+04 8.246000000000000000e+04 2.343100000000000000e+04 2.343200000000000000e+04 8.246900000000000000e+04 2.313400000000000000e+04 2.343500000000000000e+04 8.247500000000000000e+04 2.313700000000000000e+04 8.247900000000000000e+04 2.313900000000000000e+04 8.248000000000000000e+04 2.344000000000000000e+04 2.344100000000000000e+04 2.374200000000000000e+04 8.308700000000000000e+04 2.344500000000000000e+04 2.374500000000000000e+04 2.344600000000000000e+04 2.314800000000000000e+04 2.314900000000000000e+04 2.315000000000000000e+04 2.315100000000000000e+04 2.315200000000000000e+04 8.250600000000000000e+04 2.345300000000000000e+04 2.345500000000000000e+04 2.345600000000000000e+04 2.345700000000000000e+04 2.345800000000000000e+04 2.345900000000000000e+04 2.346000000000000000e+04 2.346100000000000000e+04 2.346200000000000000e+04 2.346300000000000000e+04 8.253100000000000000e+04 2.316500000000000000e+04 2.346600000000000000e+04 8.313400000000000000e+04 2.376700000000000000e+04 2.376800000000000000e+04 2.347000000000000000e+04 8.254500000000000000e+04 2.317200000000000000e+04 8.254600000000000000e+04 2.347400000000000000e+04 8.255300000000000000e+04 2.317600000000000000e+04 8.255700000000000000e+04 2.317800000000000000e+04 8.255800000000000000e+04 2.347900000000000000e+04 8.316100000000000000e+04 2.378100000000000000e+04 2.378200000000000000e+04 8.316700000000000000e+04 8.257300000000000000e+04 2.318600000000000000e+04 8.317400000000000000e+04 2.378700000000000000e+04 2.378800000000000000e+04 2.349000000000000000e+04 2.319100000000000000e+04 2.349100000000000000e+04 2.379200000000000000e+04 2.379300000000000000e+04 2.379400000000000000e+04 8.319100000000000000e+04 2.349600000000000000e+04 8.259900000000000000e+04 2.319900000000000000e+04 2.350000000000000000e+04 2.350100000000000000e+04 8.260700000000000000e+04 2.320300000000000000e+04 2.320400000000000000e+04 2.320500000000000000e+04 8.261200000000000000e+04 8.261700000000000000e+04 2.320800000000000000e+04 8.261800000000000000e+04 2.350900000000000000e+04 2.351000000000000000e+04 2.351100000000000000e+04 8.322500000000000000e+04 8.322700000000000000e+04 2.351400000000000000e+04 8.263500000000000000e+04 2.321700000000000000e+04 8.263600000000000000e+04 8.264100000000000000e+04 2.322000000000000000e+04 2.322100000000000000e+04 2.322200000000000000e+04 8.264600000000000000e+04 2.382300000000000000e+04 8.324900000000000000e+04 8.325200000000000000e+04 8.325400000000000000e+04 2.382700000000000000e+04 2.382800000000000000e+04 2.382900000000000000e+04 8.326100000000000000e+04 2.353100000000000000e+04
8.243000000000000000e+04 2.281600000000000000e+04 2.251700000000000000e+04 2.281700000000000000e+04 2.281800000000000000e+04 2.281900000000000000e+04 8.184500000000000000e+04 2.252200000000000000e+04 8.184600000000000000e+04 2.282300000000000000e+04 2.252500000000000000e+04 8.185500000000000000e+04 2.252700000000000000e+04 2.252800000000000000e+04 8.185800000000000000e+04 2.282900000000000000e+04 2.283000000000000000e+04 8.186700000000000000e+04 8.186900000000000000e+04 2.283400000000000000e+04 8.187300000000000000e+04 2.253600000000000000e+04 2.253700000000000000e+04 8.187900000000000000e+04 2.253900000000000000e+04 8.188000000000000000e+04 2.284000000000000000e+04 8.248300000000000000e+04 2.284200000000000000e+04 8.188800000000000000e+04 8.249000000000000000e+04 8.249200000000000000e+04 2.314600000000000000e+04 8.249500000000000000e+04 2.284800000000000000e+04 2.284900000000000000e+04 2.285000000000000000e+04 2.285100000000000000e+04 2.285200000000000000e+04 2.285300000000000000e+04 2.285400000000000000e+04 2.285500000000000000e+04 8.251400000000000000e+04 2.315700000000000000e+04 2.285900000000000000e+04 8.252000000000000000e+04 2.316000000000000000e+04 2.316100000000000000e+04 2.316200000000000000e+04 2.316300000000000000e+04 2.286500000000000000e+04 2.286600000000000000e+04 8.253400000000000000e+04 2.316700000000000000e+04 8.253700000000000000e+04 2.316900000000000000e+04 8.254200000000000000e+04 2.287200000000000000e+04 2.257300000000000000e+04 2.287300000000000000e+04 2.257500000000000000e+04 8.195200000000000000e+04 2.257700000000000000e+04 2.287800000000000000e+04 2.257900000000000000e+04 2.287900000000000000e+04 8.256100000000000000e+04 2.258200000000000000e+04 2.258300000000000000e+04 8.196800000000000000e+04 8.197300000000000000e+04 2.258600000000000000e+04 8.197700000000000000e+04 2.258800000000000000e+04 8.197800000000000000e+04 2.289000000000000000e+04 2.289100000000000000e+04 2.259200000000000000e+04 2.289200000000000000e+04 2.259400000000000000e+04 8.199000000000000000e+04 8.199200000000000000e+04 8.199700000000000000e+04 2.259800000000000000e+04 8.200100000000000000e+04 2.260000000000000000e+04 8.200200000000000000e+04 2.290200000000000000e+04 2.290300000000000000e+04 2.290400000000000000e+04 2.290500000000000000e+04 8.201500000000000000e+04 2.260700000000000000e+04 2.260800000000000000e+04 8.201800000000000000e+04 2.290900000000000000e+04 2.321000000000000000e+04 2.321100000000000000e+04 8.262500000000000000e+04 2.321300000000000000e+04 8.262900000000000000e+04 2.261600000000000000e+04 8.203700000000000000e+04 2.261800000000000000e+04 8.203800000000000000e+04 8.204300000000000000e+04 2.262100000000000000e+04 8.204400000000000000e+04 2.292200000000000000e+04 2.292300000000000000e+04 2.292400000000000000e+04 8.265200000000000000e+04 8.265400000000000000e+04 2.322700000000000000e+04 8.206100000000000000e+04 2.293000000000000000e+04 8.266200000000000000e+04 2.323100000000000000e+04 2.323200000000000000e+04
8.123500000000000000e+04 2.191700000000000000e+04 8.123600000000000000e+04 2.221800000000000000e+04 8.183900000000000000e+04 8.124500000000000000e+04 2.222200000000000000e+04 2.192300000000000000e+04 2.222300000000000000e+04 8.125300000000000000e+04 2.192600000000000000e+04 2.192700000000000000e+04 8.125600000000000000e+04 2.222800000000000000e+04 2.222900000000000000e+04 2.223000000000000000e+04 8.186300000000000000e+04 2.223300000000000000e+04 2.223400000000000000e+04 2.223500000000000000e+04 2.223600000000000000e+04 2.223700000000000000e+04 2.223800000000000000e+04 2.223900000000000000e+04 8.128300000000000000e+04 2.194100000000000000e+04 2.194200000000000000e+04 2.194300000000000000e+04 8.128800000000000000e+04 2.224400000000000000e+04 2.194600000000000000e+04 8.189400000000000000e+04 8.189600000000000000e+04 2.254800000000000000e+04 2.254900000000000000e+04 2.255000000000000000e+04 8.190300000000000000e+04 2.225200000000000000e+04 2.255300000000000000e+04 8.190900000000000000e+04 2.225500000000000000e+04 2.225700000000000000e+04 2.225800000000000000e+04 2.225900000000000000e+04 8.192000000000000000e+04 2.256000000000000000e+04 8.192300000000000000e+04 8.192600000000000000e+04 2.256300000000000000e+04 2.196500000000000000e+04 2.226600000000000000e+04 2.256600000000000000e+04 2.256700000000000000e+04 8.193700000000000000e+04 2.226900000000000000e+04 2.227100000000000000e+04 2.227200000000000000e+04 2.227300000000000000e+04 8.135100000000000000e+04 2.227500000000000000e+04 8.135500000000000000e+04 2.197700000000000000e+04 2.197800000000000000e+04 2.197900000000000000e+04 2.198000000000000000e+04 2.228000000000000000e+04 2.198200000000000000e+04 8.136600000000000000e+04 8.136800000000000000e+04 2.228400000000000000e+04 2.228600000000000000e+04 8.137700000000000000e+04 2.198800000000000000e+04 8.137800000000000000e+04 2.228900000000000000e+04 2.229100000000000000e+04 2.229200000000000000e+04 8.138900000000000000e+04 2.199400000000000000e+04 8.139000000000000000e+04 2.229500000000000000e+04 2.229600000000000000e+04 2.229800000000000000e+04 8.140100000000000000e+04 2.200000000000000000e+04 8.140200000000000000e+04 2.230100000000000000e+04 8.200600000000000000e+04 8.200800000000000000e+04 2.260400000000000000e+04 2.260500000000000000e+04 2.230700000000000000e+04 2.230800000000000000e+04 8.142100000000000000e+04 2.201000000000000000e+04 8.142200000000000000e+04 8.202400000000000000e+04 2.261200000000000000e+04 8.202700000000000000e+04 2.231400000000000000e+04 8.143500000000000000e+04 2.201700000000000000e+04 2.231800000000000000e+04 2.201900000000000000e+04 2.231900000000000000e+04 2.202100000000000000e+04 8.144400000000000000e+04 2.232200000000000000e+04 2.262300000000000000e+04 8.204900000000000000e+04 8.205100000000000000e+04 8.145700000000000000e+04 2.202800000000000000e+04 2.232900000000000000e+04 2.233000000000000000e+04 8.206200000000000000e+04 2.263100000000000000e+04 8.206500000000000000e+04 2.233400000000000000e+04
2.161700000000000000e+04 2.131800000000000000e+04 2.161800000000000000e+04 8.123900000000000000e+04 8.064500000000000000e+04 2.132200000000000000e+04 2.162300000000000000e+04 2.132400000000000000e+04 2.162400000000000000e+04 2.132600000000000000e+04 8.065400000000000000e+04 2.162700000000000000e+04 2.162800000000000000e+04 2.192900000000000000e+04 8.126100000000000000e+04 8.126300000000000000e+04 2.163200000000000000e+04 8.126800000000000000e+04 8.127000000000000000e+04 2.193500000000000000e+04 2.193600000000000000e+04 2.193700000000000000e+04 2.193800000000000000e+04 2.193900000000000000e+04 2.164100000000000000e+04 2.134200000000000000e+04 2.164200000000000000e+04 2.164300000000000000e+04 2.164400000000000000e+04 2.164500000000000000e+04 8.069700000000000000e+04 2.134800000000000000e+04 2.134900000000000000e+04 8.070000000000000000e+04 2.195000000000000000e+04 8.130400000000000000e+04 2.195200000000000000e+04 8.130700000000000000e+04 2.165400000000000000e+04 2.195500000000000000e+04 8.131300000000000000e+04 8.131600000000000000e+04 8.131800000000000000e+04 2.166000000000000000e+04 2.196000000000000000e+04 2.166100000000000000e+04 8.072900000000000000e+04 2.166400000000000000e+04 2.166500000000000000e+04 2.166600000000000000e+04 8.133400000000000000e+04 2.196700000000000000e+04 8.133700000000000000e+04 2.196900000000000000e+04 8.134100000000000000e+04 8.134400000000000000e+04 8.134600000000000000e+04 8.134800000000000000e+04 2.167500000000000000e+04 8.135200000000000000e+04 2.167700000000000000e+04 2.167800000000000000e+04 2.167900000000000000e+04 2.168000000000000000e+04 8.076500000000000000e+04 2.138200000000000000e+04 8.076600000000000000e+04 2.168300000000000000e+04 2.168400000000000000e+04 8.077500000000000000e+04 2.138700000000000000e+04 2.168800000000000000e+04 2.138900000000000000e+04 2.168900000000000000e+04 8.078200000000000000e+04 8.138400000000000000e+04 8.138600000000000000e+04 2.169400000000000000e+04 2.139500000000000000e+04 2.169500000000000000e+04 8.079400000000000000e+04 8.079600000000000000e+04 2.169900000000000000e+04 2.170000000000000000e+04 8.080500000000000000e+04 2.140200000000000000e+04 8.080600000000000000e+04 2.170300000000000000e+04 2.170500000000000000e+04 2.170600000000000000e+04 2.170700000000000000e+04 8.141600000000000000e+04 2.200800000000000000e+04 2.171000000000000000e+04 8.082500000000000000e+04 2.141200000000000000e+04 8.082600000000000000e+04 8.082800000000000000e+04 2.141500000000000000e+04 8.083500000000000000e+04 8.083700000000000000e+04 2.141800000000000000e+04 2.141900000000000000e+04 8.084000000000000000e+04 2.172000000000000000e+04 8.084400000000000000e+04 2.172200000000000000e+04 8.084800000000000000e+04 2.142500000000000000e+04 8.085200000000000000e+04 2.142700000000000000e+04 2.142800000000000000e+04 2.142900000000000000e+04 8.146000000000000000e+04 2.173100000000000000e+04 2.203100000000000000e+04 2.173200000000000000e+04 2.173400000000000000e+04 8.147000000000000000e+04
2.101800000000000000e+04 2.071900000000000000e+04 2.101900000000000000e+04 2.072100000000000000e+04 2.072200000000000000e+04 8.004900000000000000e+04 2.072400000000000000e+04 8.005000000000000000e+04 2.102500000000000000e+04 8.005400000000000000e+04 2.102700000000000000e+04 2.132800000000000000e+04 8.065900000000000000e+04 2.133000000000000000e+04 8.066300000000000000e+04 2.133200000000000000e+04 8.007100000000000000e+04 2.073500000000000000e+04 8.007200000000000000e+04 8.007700000000000000e+04 8.007900000000000000e+04 2.073900000000000000e+04 8.008300000000000000e+04 8.008500000000000000e+04 2.074200000000000000e+04 8.008600000000000000e+04 2.104300000000000000e+04 2.134400000000000000e+04 8.069100000000000000e+04 8.009700000000000000e+04 2.074800000000000000e+04 8.009800000000000000e+04 2.104900000000000000e+04 2.105000000000000000e+04 2.105100000000000000e+04 8.070600000000000000e+04 2.135300000000000000e+04 2.135400000000000000e+04 8.071100000000000000e+04 2.105600000000000000e+04 2.105700000000000000e+04 2.105800000000000000e+04 2.106000000000000000e+04 8.072200000000000000e+04 2.136100000000000000e+04 8.072500000000000000e+04 2.106400000000000000e+04 2.106500000000000000e+04 8.073200000000000000e+04 2.136600000000000000e+04 2.136700000000000000e+04 2.136800000000000000e+04 8.073900000000000000e+04 8.014500000000000000e+04 2.077200000000000000e+04 8.014600000000000000e+04 8.015100000000000000e+04 8.015300000000000000e+04 2.107600000000000000e+04 2.137600000000000000e+04 2.107700000000000000e+04 2.137800000000000000e+04 2.137900000000000000e+04 2.138000000000000000e+04 2.108200000000000000e+04 8.016900000000000000e+04 2.078400000000000000e+04 8.017000000000000000e+04 8.017200000000000000e+04 2.108700000000000000e+04 8.017900000000000000e+04 2.078900000000000000e+04 2.079000000000000000e+04 2.109000000000000000e+04 2.109100000000000000e+04 8.018900000000000000e+04 8.019100000000000000e+04 2.079500000000000000e+04 8.019200000000000000e+04 2.109600000000000000e+04 2.109700000000000000e+04 2.109800000000000000e+04 8.080000000000000000e+04 8.080200000000000000e+04 2.110200000000000000e+04 2.080300000000000000e+04 2.110300000000000000e+04 2.110400000000000000e+04 2.110600000000000000e+04 8.081400000000000000e+04 2.140700000000000000e+04 2.140800000000000000e+04 2.111000000000000000e+04 8.082200000000000000e+04 2.111200000000000000e+04 8.022900000000000000e+04 2.081400000000000000e+04 8.023000000000000000e+04 2.081600000000000000e+04 8.023700000000000000e+04 2.081800000000000000e+04 8.023800000000000000e+04 2.111900000000000000e+04 2.112000000000000000e+04 8.084300000000000000e+04 2.112200000000000000e+04 2.112300000000000000e+04 2.112400000000000000e+04 8.025200000000000000e+04 2.112600000000000000e+04 2.082800000000000000e+04 2.082900000000000000e+04 8.026000000000000000e+04 2.113000000000000000e+04 8.086400000000000000e+04 2.143200000000000000e+04 2.113400000000000000e+04 8.087000000000000000e+04 2.143500000000000000e+04
2.041900000000000000e+04 2.012000000000000000e+04 2.042000000000000000e+04 2.012200000000000000e+04 2.012300000000000000e+04 2.012400000000000000e+04 7.945000000000000000e+04 2.042500000000000000e+04 8.005300000000000000e+04 2.042700000000000000e+04 8.005700000000000000e+04 2.072900000000000000e+04 8.006100000000000000e+04 2.073100000000000000e+04 8.006500000000000000e+04 7.947100000000000000e+04 7.947300000000000000e+04 2.013600000000000000e+04 2.013700000000000000e+04 2.043800000000000000e+04 2.043900000000000000e+04 7.948300000000000000e+04 2.014100000000000000e+04 2.044200000000000000e+04 2.014300000000000000e+04 2.044300000000000000e+04 8.008900000000000000e+04 7.949500000000000000e+04 2.014700000000000000e+04 2.014800000000000000e+04 7.949800000000000000e+04 2.044900000000000000e+04 2.075000000000000000e+04 8.010300000000000000e+04 8.010500000000000000e+04 7.951100000000000000e+04 2.015500000000000000e+04 7.951200000000000000e+04 2.075600000000000000e+04 7.951900000000000000e+04 2.015900000000000000e+04 7.952000000000000000e+04 8.012200000000000000e+04 2.076100000000000000e+04 2.076200000000000000e+04 8.012700000000000000e+04 8.013000000000000000e+04 8.013200000000000000e+04 2.076600000000000000e+04 2.046700000000000000e+04 2.076800000000000000e+04 2.076900000000000000e+04 8.014100000000000000e+04 2.047200000000000000e+04 7.954900000000000000e+04 2.017400000000000000e+04 2.047500000000000000e+04 2.047600000000000000e+04 8.015400000000000000e+04 2.077700000000000000e+04 8.015700000000000000e+04 2.077900000000000000e+04 8.016100000000000000e+04 7.956700000000000000e+04 2.048300000000000000e+04 2.048400000000000000e+04 7.957300000000000000e+04 2.018600000000000000e+04 7.957400000000000000e+04 7.957900000000000000e+04 2.048900000000000000e+04 2.049000000000000000e+04 7.958500000000000000e+04 2.019200000000000000e+04 7.958600000000000000e+04 2.049400000000000000e+04 2.049500000000000000e+04 7.959500000000000000e+04 2.019700000000000000e+04 7.959600000000000000e+04 2.019900000000000000e+04 7.960000000000000000e+04 7.960500000000000000e+04 2.020200000000000000e+04 2.050300000000000000e+04 2.020400000000000000e+04 2.050400000000000000e+04 7.961200000000000000e+04 8.021400000000000000e+04 2.080700000000000000e+04 2.050900000000000000e+04 2.051000000000000000e+04 8.022200000000000000e+04 2.081100000000000000e+04 8.022600000000000000e+04 2.051400000000000000e+04 7.963300000000000000e+04 2.021600000000000000e+04 7.963400000000000000e+04 2.021800000000000000e+04 7.963800000000000000e+04 2.051900000000000000e+04 2.082000000000000000e+04 8.024300000000000000e+04 2.082200000000000000e+04 2.082300000000000000e+04 2.082400000000000000e+04 8.025100000000000000e+04 2.052600000000000000e+04 2.022800000000000000e+04 7.965800000000000000e+04 2.052900000000000000e+04 2.053000000000000000e+04 2.053100000000000000e+04 8.026600000000000000e+04 2.083300000000000000e+04 8.027000000000000000e+04 2.083500000000000000e+04 2.083600000000000000e+04
1.952000000000000000e+04 7.884200000000000000e+04 1.982100000000000000e+04 7.884600000000000000e+04 1.982300000000000000e+04 1.982400000000000000e+04 1.982500000000000000e+04 7.945300000000000000e+04 2.012700000000000000e+04 1.982800000000000000e+04 1.953000000000000000e+04 7.886200000000000000e+04 1.953200000000000000e+04 7.886600000000000000e+04 7.886800000000000000e+04 1.983500000000000000e+04 1.983600000000000000e+04 7.887700000000000000e+04 1.953800000000000000e+04 7.887800000000000000e+04 1.954000000000000000e+04 1.984100000000000000e+04 7.888700000000000000e+04 1.984300000000000000e+04 1.954400000000000000e+04 1.984400000000000000e+04 7.889500000000000000e+04 1.954700000000000000e+04 7.889600000000000000e+04 1.984800000000000000e+04 1.984900000000000000e+04 7.950100000000000000e+04 7.950300000000000000e+04 1.955300000000000000e+04 7.890800000000000000e+04 7.891300000000000000e+04 1.955600000000000000e+04 7.891400000000000000e+04 7.891600000000000000e+04 7.892100000000000000e+04 1.956000000000000000e+04 7.892200000000000000e+04 1.956200000000000000e+04 7.892600000000000000e+04 2.016300000000000000e+04 7.953000000000000000e+04 7.953200000000000000e+04 7.953400000000000000e+04 2.016700000000000000e+04 7.953700000000000000e+04 1.957000000000000000e+04 1.957100000000000000e+04 7.894700000000000000e+04 1.987300000000000000e+04 7.895100000000000000e+04 1.957500000000000000e+04 1.957600000000000000e+04 7.955400000000000000e+04 2.017700000000000000e+04 7.955700000000000000e+04 1.987900000000000000e+04 7.896200000000000000e+04 1.988200000000000000e+04 1.988300000000000000e+04 7.956800000000000000e+04 2.018400000000000000e+04 1.988600000000000000e+04 7.897700000000000000e+04 1.958800000000000000e+04 1.988900000000000000e+04 7.958000000000000000e+04 2.019000000000000000e+04 1.989200000000000000e+04 1.959300000000000000e+04 1.989300000000000000e+04 7.959000000000000000e+04 7.959200000000000000e+04 1.989700000000000000e+04 7.899900000000000000e+04 1.959900000000000000e+04 7.900000000000000000e+04 1.990000000000000000e+04 1.990200000000000000e+04 7.900900000000000000e+04 1.960400000000000000e+04 7.901000000000000000e+04 1.990500000000000000e+04 1.990600000000000000e+04 1.990700000000000000e+04 7.902100000000000000e+04 7.962000000000000000e+04 1.991100000000000000e+04 2.021100000000000000e+04 1.991200000000000000e+04 1.991400000000000000e+04 7.963000000000000000e+04 1.991600000000000000e+04 7.903700000000000000e+04 1.961800000000000000e+04 7.903800000000000000e+04 1.991900000000000000e+04 7.964100000000000000e+04 1.992100000000000000e+04 7.904600000000000000e+04 2.022300000000000000e+04 2.022400000000000000e+04 7.965200000000000000e+04 2.022600000000000000e+04 7.965500000000000000e+04 1.992800000000000000e+04 1.992900000000000000e+04 2.023000000000000000e+04 7.966300000000000000e+04 1.963300000000000000e+04 7.907100000000000000e+04 1.963500000000000000e+04 7.907200000000000000e+04 2.023600000000000000e+04 7.967600000000000000e+04
