ncols 119
nrows 32
xllcorner 190
yllcorner 20
cellsize 10.0
9.618000000000000000e+03 9.619000000000000000e+03 9.622000000000000000e+03 9.622000000000000000e+03 9.622000000000000000e+03 9.925000000000000000e+03 9.626000000000000000e+03 9.626000000000000000e+03 9.928000000000000000e+03 9.929000000000000000e+03 9.630000000000000000e+03 9.630000000000000000e+03 9.631000000000000000e+03 9.632000000000000000e+03 9.633000000000000000e+03 9.635000000000000000e+03 9.635000000000000000e+03 9.636000000000000000e+03 9.938000000000000000e+03 9.939000000000000000e+03 1.024000000000000000e+04 9.941000000000000000e+03 9.641000000000000000e+03 9.641000000000000000e+03 9.942000000000000000e+03 9.943000000000000000e+03 1.024400000000000000e+04 1.024500000000000000e+04 1.024800000000000000e+04 1.024900000000000000e+04 1.024900000000000000e+04 1.024900000000000000e+04 9.950000000000000000e+03 9.653000000000000000e+03 9.653000000000000000e+03 9.653000000000000000e+03 9.954000000000000000e+03 9.655000000000000000e+03 9.956000000000000000e+03 9.957000000000000000e+03 9.958000000000000000e+03 1.025900000000000000e+04 1.026100000000000000e+04 9.961000000000000000e+03 9.663000000000000000e+03 9.663000000000000000e+03 9.665000000000000000e+03 9.665000000000000000e+03 9.666000000000000000e+03 9.969000000000000000e+03 9.970000000000000000e+03 9.671000000000000000e+03 9.671000000000000000e+03 9.671000000000000000e+03 9.673000000000000000e+03 9.975000000000000000e+03 9.676000000000000000e+03 9.977000000000000000e+03 9.677000000000000000e+03 9.977000000000000000e+03 9.680000000000000000e+03 9.680000000000000000e+03 9.680000000000000000e+03 9.981000000000000000e+03 9.982000000000000000e+03 1.028300000000000000e+04 1.028400000000000000e+04 9.686000000000000000e+03 9.686000000000000000e+03 9.689000000000000000e+03 9.689000000000000000e+03 9.689000000000000000e+03 9.690000000000000000e+03 9.693000000000000000e+03 9.693000000000000000e+03 9.693000000000000000e+03 9.695000000000000000e+03 9.695000000000000000e+03 1.029700000000000000e+04 1.029900000000000000e+04 1.030000000000000000e+04 1.030100000000000000e+04 1.030100000000000000e+04 1.030100000000000000e+04 9.703000000000000000e+03 9.704000000000000000e+03 9.706000000000000000e+03 1.000700000000000000e+04 9.708000000000000000e+03 9.708000000000000000e+03 9.709000000000000000e+03 1.031100000000000000e+04 1.031100000000000000e+04 1.031100000000000000e+04 1.001200000000000000e+04 9.713000000000000000e+03 1.001600000000000000e+04 1.001700000000000000e+04 1.031800000000000000e+04 1.031800000000000000e+04 1.002000000000000000e+04 9.721000000000000000e+03 9.721000000000000000e+03 1.002300000000000000e+04 1.032400000000000000e+04 1.032400000000000000e+04 1.002600000000000000e+04 9.726000000000000000e+03 1.002600000000000000e+04 1.032900000000000000e+04 1.033000000000000000e+04 1.003100000000000000e+04 9.732000000000000000e+03 9.732000000000000000e+03 9.732000000000000000e+03 1.003300000000000000e+04 1.003600000000000000e+04 9.737000000000000000e+03 9.737000000000000000e+03
9.618000000000000000e+03 9.619000000000000000e+03 9.622000000000000000e+03 9.323000000000000000e+03 9.323000000000000000e+03 9.323000000000000000e+03 9.626000000000000000e+03 9.327000000000000000e+03 9.327000000000000000e+03 9.929000000000000000e+03 9.630000000000000000e+03 9.631000000000000000e+03 9.632000000000000000e+03 9.633000000000000000e+03 9.334000000000000000e+03 9.635000000000000000e+03 9.636000000000000000e+03 9.637000000000000000e+03 9.938000000000000000e+03 9.938000000000000000e+03 9.939000000000000000e+03 9.641000000000000000e+03 9.342000000000000000e+03 9.342000000000000000e+03 9.943000000000000000e+03 9.943000000000000000e+03 9.644000000000000000e+03 9.945000000000000000e+03 9.648000000000000000e+03 9.649000000000000000e+03 9.950000000000000000e+03 9.950000000000000000e+03 9.351000000000000000e+03 9.352000000000000000e+03 9.352000000000000000e+03 9.653000000000000000e+03 9.654000000000000000e+03 9.655000000000000000e+03 9.957000000000000000e+03 9.958000000000000000e+03 9.658000000000000000e+03 9.961000000000000000e+03 9.961000000000000000e+03 9.961000000000000000e+03 9.662000000000000000e+03 9.663000000000000000e+03 9.364000000000000000e+03 9.665000000000000000e+03 9.666000000000000000e+03 9.669000000000000000e+03 9.670000000000000000e+03 9.671000000000000000e+03 9.372000000000000000e+03 9.372000000000000000e+03 9.373000000000000000e+03 9.675000000000000000e+03 9.676000000000000000e+03 9.677000000000000000e+03 9.378000000000000000e+03 9.378000000000000000e+03 9.379000000000000000e+03 9.379000000000000000e+03 9.680000000000000000e+03 9.982000000000000000e+03 9.982000000000000000e+03 9.384000000000000000e+03 9.386000000000000000e+03 9.386000000000000000e+03 9.388000000000000000e+03 9.388000000000000000e+03 9.388000000000000000e+03 9.689000000000000000e+03 9.690000000000000000e+03 9.693000000000000000e+03 9.393000000000000000e+03 9.394000000000000000e+03 9.395000000000000000e+03 9.396000000000000000e+03 9.396000000000000000e+03 9.397000000000000000e+03 1.000000000000000000e+04 1.000100000000000000e+04 1.000100000000000000e+04 9.703000000000000000e+03 9.404000000000000000e+03 9.405000000000000000e+03 9.405000000000000000e+03 9.407000000000000000e+03 9.708000000000000000e+03 9.709000000000000000e+03 9.410000000000000000e+03 9.711000000000000000e+03 1.001200000000000000e+04 1.001200000000000000e+04 1.001200000000000000e+04 9.713000000000000000e+03 9.716000000000000000e+03 1.001700000000000000e+04 1.001700000000000000e+04 9.719000000000000000e+03 1.002000000000000000e+04 9.721000000000000000e+03 9.722000000000000000e+03 1.002300000000000000e+04 1.002300000000000000e+04 1.002300000000000000e+04 9.726000000000000000e+03 9.426000000000000000e+03 9.726000000000000000e+03 9.427000000000000000e+03 9.730000000000000000e+03 1.003100000000000000e+04 9.732000000000000000e+03 9.433000000000000000e+03 9.433000000000000000e+03 9.433000000000000000e+03 9.436000000000000000e+03 9.436000000000000000e+03 9.436000000000000000e+03
9.019000000000000000e+03 9.019000000000000000e+03 9.322000000000000000e+03 9.323000000000000000e+03 9.024000000000000000e+03 9.024000000000000000e+03 9.024000000000000000e+03 9.327000000000000000e+03 9.027000000000000000e+03 9.327000000000000000e+03 9.630000000000000000e+03 9.630000000000000000e+03 9.631000000000000000e+03 9.632000000000000000e+03 9.334000000000000000e+03 9.635000000000000000e+03 9.635000000000000000e+03 9.636000000000000000e+03 9.637000000000000000e+03 9.637000000000000000e+03 9.040000000000000000e+03 9.040000000000000000e+03 9.041000000000000000e+03 9.041000000000000000e+03 9.342000000000000000e+03 9.343000000000000000e+03 9.644000000000000000e+03 9.045000000000000000e+03 9.648000000000000000e+03 9.649000000000000000e+03 9.649000000000000000e+03 9.649000000000000000e+03 9.350000000000000000e+03 9.351000000000000000e+03 9.352000000000000000e+03 9.654000000000000000e+03 9.655000000000000000e+03 9.655000000000000000e+03 9.358000000000000000e+03 9.658000000000000000e+03 9.358000000000000000e+03 9.059000000000000000e+03 9.662000000000000000e+03 9.662000000000000000e+03 9.663000000000000000e+03 9.663000000000000000e+03 9.364000000000000000e+03 9.665000000000000000e+03 9.666000000000000000e+03 9.069000000000000000e+03 9.070000000000000000e+03 9.671000000000000000e+03 9.372000000000000000e+03 9.373000000000000000e+03 9.374000000000000000e+03 9.675000000000000000e+03 9.675000000000000000e+03 9.676000000000000000e+03 9.378000000000000000e+03 9.078000000000000000e+03 9.378000000000000000e+03 9.379000000000000000e+03 9.680000000000000000e+03 9.381000000000000000e+03 9.084000000000000000e+03 9.084000000000000000e+03 9.084000000000000000e+03 9.086000000000000000e+03 9.087000000000000000e+03 9.087000000000000000e+03 9.388000000000000000e+03 9.090000000000000000e+03 9.091000000000000000e+03 9.092000000000000000e+03 9.092000000000000000e+03 9.393000000000000000e+03 9.394000000000000000e+03 9.395000000000000000e+03 9.396000000000000000e+03 9.397000000000000000e+03 9.100000000000000000e+03 9.100000000000000000e+03 9.701000000000000000e+03 9.703000000000000000e+03 9.404000000000000000e+03 9.405000000000000000e+03 9.106000000000000000e+03 9.407000000000000000e+03 9.708000000000000000e+03 9.708000000000000000e+03 9.410000000000000000e+03 9.711000000000000000e+03 9.711000000000000000e+03 9.711000000000000000e+03 9.713000000000000000e+03 9.713000000000000000e+03 9.716000000000000000e+03 9.716000000000000000e+03 9.717000000000000000e+03 9.719000000000000000e+03 9.120000000000000000e+03 9.421000000000000000e+03 9.721000000000000000e+03 9.722000000000000000e+03 9.722000000000000000e+03 9.125000000000000000e+03 9.426000000000000000e+03 9.127000000000000000e+03 9.127000000000000000e+03 9.127000000000000000e+03 9.730000000000000000e+03 9.730000000000000000e+03 9.732000000000000000e+03 9.433000000000000000e+03 9.134000000000000000e+03 9.134000000000000000e+03 9.436000000000000000e+03 9.136000000000000000e+03 9.436000000000000000e+03
8.718000000000000000e+03 9.019000000000000000e+03 8.720000000000000000e+03 9.323000000000000000e+03 9.024000000000000000e+03 8.725000000000000000e+03 8.725000000000000000e+03 9.027000000000000000e+03 8.727000000000000000e+03 9.027000000000000000e+03 9.030000000000000000e+03 9.031000000000000000e+03 9.032000000000000000e+03 9.033000000000000000e+03 9.334000000000000000e+03 9.334000000000000000e+03 9.334000000000000000e+03 9.337000000000000000e+03 9.337000000000000000e+03 9.039000000000000000e+03 9.040000000000000000e+03 9.041000000000000000e+03 8.742000000000000000e+03 8.742000000000000000e+03 8.742000000000000000e+03 8.743000000000000000e+03 8.745000000000000000e+03 8.745000000000000000e+03 8.746000000000000000e+03 9.049000000000000000e+03 9.350000000000000000e+03 9.350000000000000000e+03 9.351000000000000000e+03 9.352000000000000000e+03 9.352000000000000000e+03 9.354000000000000000e+03 9.355000000000000000e+03 9.355000000000000000e+03 9.358000000000000000e+03 9.358000000000000000e+03 9.358000000000000000e+03 9.059000000000000000e+03 9.362000000000000000e+03 9.362000000000000000e+03 9.364000000000000000e+03 9.364000000000000000e+03 9.364000000000000000e+03 9.065000000000000000e+03 9.066000000000000000e+03 9.069000000000000000e+03 9.070000000000000000e+03 9.071000000000000000e+03 9.372000000000000000e+03 9.372000000000000000e+03 9.373000000000000000e+03 9.374000000000000000e+03 9.374000000000000000e+03 9.077000000000000000e+03 9.078000000000000000e+03 8.778000000000000000e+03 9.078000000000000000e+03 9.379000000000000000e+03 8.781000000000000000e+03 8.782000000000000000e+03 8.783000000000000000e+03 8.784000000000000000e+03 8.785000000000000000e+03 8.786000000000000000e+03 8.786000000000000000e+03 8.788000000000000000e+03 8.789000000000000000e+03 8.789000000000000000e+03 9.090000000000000000e+03 9.091000000000000000e+03 9.092000000000000000e+03 9.093000000000000000e+03 9.395000000000000000e+03 9.395000000000000000e+03 9.396000000000000000e+03 9.397000000000000000e+03 8.800000000000000000e+03 8.800000000000000000e+03 8.802000000000000000e+03 8.802000000000000000e+03 9.404000000000000000e+03 9.404000000000000000e+03 9.106000000000000000e+03 9.407000000000000000e+03 9.407000000000000000e+03 9.109000000000000000e+03 9.410000000000000000e+03 9.410000000000000000e+03 9.410000000000000000e+03 9.412000000000000000e+03 9.412000000000000000e+03 9.414000000000000000e+03 9.414000000000000000e+03 8.817000000000000000e+03 8.817000000000000000e+03 8.819000000000000000e+03 9.120000000000000000e+03 9.421000000000000000e+03 9.421000000000000000e+03 9.421000000000000000e+03 8.823000000000000000e+03 9.125000000000000000e+03 9.426000000000000000e+03 9.127000000000000000e+03 8.828000000000000000e+03 8.828000000000000000e+03 8.828000000000000000e+03 8.831000000000000000e+03 8.831000000000000000e+03 9.433000000000000000e+03 9.134000000000000000e+03 8.834000000000000000e+03 9.134000000000000000e+03 8.836000000000000000e+03 9.136000000000000000e+03
8.718000000000000000e+03 8.719000000000000000e+03 8.720000000000000000e+03 8.723000000000000000e+03 9.024000000000000000e+03 8.725000000000000000e+03 8.426000000000000000e+03 8.426000000000000000e+03 8.427000000000000000e+03 8.727000000000000000e+03 8.428000000000000000e+03 9.031000000000000000e+03 9.032000000000000000e+03 9.033000000000000000e+03 9.033000000000000000e+03 9.033000000000000000e+03 8.436000000000000000e+03 8.436000000000000000e+03 8.437000000000000000e+03 9.039000000000000000e+03 9.040000000000000000e+03 9.040000000000000000e+03 8.742000000000000000e+03 8.442000000000000000e+03 8.742000000000000000e+03 8.444000000000000000e+03 8.444000000000000000e+03 8.745000000000000000e+03 8.746000000000000000e+03 9.049000000000000000e+03 9.049000000000000000e+03 9.049000000000000000e+03 9.051000000000000000e+03 9.051000000000000000e+03 9.054000000000000000e+03 9.054000000000000000e+03 9.054000000000000000e+03 8.755000000000000000e+03 9.056000000000000000e+03 9.059000000000000000e+03 9.059000000000000000e+03 9.059000000000000000e+03 8.760000000000000000e+03 9.063000000000000000e+03 9.063000000000000000e+03 9.064000000000000000e+03 9.065000000000000000e+03 9.065000000000000000e+03 8.468000000000000000e+03 9.069000000000000000e+03 9.070000000000000000e+03 9.070000000000000000e+03 9.071000000000000000e+03 8.472000000000000000e+03 8.472000000000000000e+03 8.474000000000000000e+03 8.476000000000000000e+03 8.476000000000000000e+03 8.778000000000000000e+03 8.478000000000000000e+03 8.778000000000000000e+03 8.480000000000000000e+03 8.480000000000000000e+03 8.781000000000000000e+03 8.782000000000000000e+03 8.783000000000000000e+03 8.784000000000000000e+03 8.785000000000000000e+03 8.786000000000000000e+03 8.787000000000000000e+03 8.788000000000000000e+03 8.789000000000000000e+03 9.091000000000000000e+03 9.092000000000000000e+03 9.092000000000000000e+03 9.093000000000000000e+03 9.094000000000000000e+03 9.096000000000000000e+03 9.096000000000000000e+03 8.499000000000000000e+03 8.800000000000000000e+03 8.501000000000000000e+03 8.501000000000000000e+03 8.502000000000000000e+03 8.503000000000000000e+03 8.505000000000000000e+03 8.806000000000000000e+03 9.106000000000000000e+03 8.806000000000000000e+03 8.809000000000000000e+03 9.109000000000000000e+03 8.809000000000000000e+03 9.111000000000000000e+03 9.111000000000000000e+03 9.113000000000000000e+03 9.113000000000000000e+03 8.516000000000000000e+03 8.817000000000000000e+03 8.518000000000000000e+03 8.819000000000000000e+03 9.120000000000000000e+03 9.120000000000000000e+03 9.120000000000000000e+03 8.823000000000000000e+03 8.824000000000000000e+03 9.125000000000000000e+03 9.125000000000000000e+03 9.127000000000000000e+03 8.828000000000000000e+03 8.529000000000000000e+03 8.529000000000000000e+03 8.531000000000000000e+03 8.531000000000000000e+03 8.533000000000000000e+03 8.834000000000000000e+03 8.535000000000000000e+03 8.535000000000000000e+03 8.536000000000000000e+03 8.836000000000000000e+03
8.119000000000000000e+03 8.120000000000000000e+03 8.120000000000000000e+03 8.121000000000000000e+03 8.724000000000000000e+03 8.425000000000000000e+03 8.426000000000000000e+03 8.427000000000000000e+03 8.128000000000000000e+03 8.128000000000000000e+03 8.128000000000000000e+03 8.129000000000000000e+03 8.732000000000000000e+03 8.733000000000000000e+03 8.733000000000000000e+03 8.135000000000000000e+03 8.135000000000000000e+03 8.137000000000000000e+03 8.137000000000000000e+03 8.137000000000000000e+03 8.440000000000000000e+03 8.441000000000000000e+03 8.442000000000000000e+03 8.143000000000000000e+03 8.143000000000000000e+03 8.143000000000000000e+03 8.444000000000000000e+03 8.745000000000000000e+03 8.746000000000000000e+03 8.749000000000000000e+03 8.749000000000000000e+03 8.151000000000000000e+03 8.151000000000000000e+03 8.152000000000000000e+03 8.152000000000000000e+03 8.755000000000000000e+03 8.755000000000000000e+03 8.156000000000000000e+03 8.156000000000000000e+03 8.759000000000000000e+03 8.759000000000000000e+03 8.760000000000000000e+03 8.760000000000000000e+03 8.163000000000000000e+03 8.163000000000000000e+03 8.165000000000000000e+03 8.165000000000000000e+03 8.165000000000000000e+03 8.168000000000000000e+03 8.169000000000000000e+03 8.169000000000000000e+03 8.471000000000000000e+03 8.472000000000000000e+03 8.173000000000000000e+03 8.173000000000000000e+03 8.173000000000000000e+03 8.476000000000000000e+03 8.177000000000000000e+03 8.177000000000000000e+03 8.177000000000000000e+03 8.478000000000000000e+03 8.479000000000000000e+03 8.480000000000000000e+03 8.782000000000000000e+03 8.783000000000000000e+03 8.784000000000000000e+03 8.785000000000000000e+03 8.785000000000000000e+03 8.787000000000000000e+03 8.788000000000000000e+03 8.789000000000000000e+03 8.789000000000000000e+03 8.790000000000000000e+03 8.792000000000000000e+03 8.793000000000000000e+03 8.793000000000000000e+03 8.195000000000000000e+03 8.195000000000000000e+03 8.196000000000000000e+03 8.499000000000000000e+03 8.500000000000000000e+03 8.501000000000000000e+03 8.502000000000000000e+03 8.503000000000000000e+03 8.204000000000000000e+03 8.505000000000000000e+03 8.806000000000000000e+03 8.806000000000000000e+03 8.806000000000000000e+03 8.809000000000000000e+03 8.809000000000000000e+03 8.809000000000000000e+03 8.510000000000000000e+03 8.511000000000000000e+03 8.212000000000000000e+03 8.515000000000000000e+03 8.216000000000000000e+03 8.217000000000000000e+03 8.518000000000000000e+03 8.819000000000000000e+03 8.819000000000000000e+03 8.819000000000000000e+03 8.522000000000000000e+03 8.823000000000000000e+03 8.823000000000000000e+03 8.824000000000000000e+03 8.524000000000000000e+03 8.527000000000000000e+03 8.828000000000000000e+03 8.529000000000000000e+03 8.230000000000000000e+03 8.531000000000000000e+03 8.232000000000000000e+03 8.533000000000000000e+03 8.834000000000000000e+03 8.535000000000000000e+03 8.536000000000000000e+03 8.237000000000000000e+03 8.237000000000000000e+03
8.118000000000000000e+03 8.119000000000000000e+03 8.120000000000000000e+03 8.121000000000000000e+03 7.822000000000000000e+03 8.425000000000000000e+03 8.426000000000000000e+03 8.426000000000000000e+03 8.128000000000000000e+03 7.829000000000000000e+03 7.829000000000000000e+03 7.829000000000000000e+03 7.830000000000000000e+03 8.133000000000000000e+03 8.134000000000000000e+03 8.135000000000000000e+03 8.136000000000000000e+03 8.137000000000000000e+03 7.838000000000000000e+03 7.838000000000000000e+03 7.839000000000000000e+03 7.841000000000000000e+03 7.841000000000000000e+03 7.842000000000000000e+03 7.842000000000000000e+03 8.143000000000000000e+03 8.444000000000000000e+03 7.845000000000000000e+03 8.146000000000000000e+03 8.147000000000000000e+03 7.850000000000000000e+03 7.851000000000000000e+03 7.851000000000000000e+03 7.851000000000000000e+03 8.152000000000000000e+03 7.855000000000000000e+03 7.855000000000000000e+03 7.855000000000000000e+03 7.856000000000000000e+03 7.857000000000000000e+03 7.860000000000000000e+03 7.860000000000000000e+03 7.860000000000000000e+03 7.863000000000000000e+03 7.863000000000000000e+03 7.865000000000000000e+03 7.865000000000000000e+03 7.865000000000000000e+03 7.868000000000000000e+03 7.869000000000000000e+03 7.869000000000000000e+03 7.869000000000000000e+03 8.472000000000000000e+03 8.173000000000000000e+03 7.874000000000000000e+03 7.874000000000000000e+03 7.874000000000000000e+03 8.177000000000000000e+03 7.877000000000000000e+03 8.177000000000000000e+03 8.479000000000000000e+03 8.480000000000000000e+03 8.480000000000000000e+03 8.181000000000000000e+03 8.483000000000000000e+03 8.484000000000000000e+03 8.486000000000000000e+03 8.486000000000000000e+03 8.486000000000000000e+03 8.187000000000000000e+03 8.188000000000000000e+03 8.189000000000000000e+03 8.190000000000000000e+03 8.191000000000000000e+03 8.192000000000000000e+03 7.895000000000000000e+03 7.895000000000000000e+03 7.895000000000000000e+03 7.896000000000000000e+03 7.899000000000000000e+03 7.899000000000000000e+03 8.501000000000000000e+03 8.501000000000000000e+03 8.502000000000000000e+03 8.204000000000000000e+03 8.505000000000000000e+03 8.505000000000000000e+03 8.505000000000000000e+03 8.206000000000000000e+03 8.509000000000000000e+03 8.210000000000000000e+03 8.510000000000000000e+03 8.210000000000000000e+03 8.511000000000000000e+03 8.212000000000000000e+03 7.915000000000000000e+03 8.216000000000000000e+03 8.217000000000000000e+03 8.518000000000000000e+03 8.518000000000000000e+03 8.518000000000000000e+03 8.221000000000000000e+03 8.522000000000000000e+03 8.522000000000000000e+03 8.224000000000000000e+03 8.524000000000000000e+03 8.224000000000000000e+03 8.527000000000000000e+03 8.527000000000000000e+03 8.229000000000000000e+03 8.230000000000000000e+03 8.531000000000000000e+03 8.232000000000000000e+03 8.533000000000000000e+03 8.533000000000000000e+03 8.535000000000000000e+03 8.535000000000000000e+03 8.237000000000000000e+03 7.938000000000000000e+03
7.818000000000000000e+03 8.120000000000000000e+03 8.120000000000000000e+03 7.522000000000000000e+03 7.522000000000000000e+03 7.525000000000000000e+03 7.525000000000000000e+03 8.127000000000000000e+03 8.128000000000000000e+03 7.829000000000000000e+03 7.529000000000000000e+03 7.829000000000000000e+03 7.830000000000000000e+03 8.133000000000000000e+03 8.134000000000000000e+03 8.135000000000000000e+03 8.136000000000000000e+03 8.136000000000000000e+03 7.838000000000000000e+03 7.839000000000000000e+03 7.540000000000000000e+03 7.841000000000000000e+03 7.842000000000000000e+03 7.542000000000000000e+03 7.842000000000000000e+03 8.143000000000000000e+03 7.544000000000000000e+03 7.845000000000000000e+03 7.547000000000000000e+03 7.548000000000000000e+03 7.850000000000000000e+03 7.551000000000000000e+03 7.551000000000000000e+03 7.851000000000000000e+03 7.554000000000000000e+03 7.554000000000000000e+03 7.554000000000000000e+03 7.855000000000000000e+03 7.856000000000000000e+03 7.857000000000000000e+03 7.560000000000000000e+03 7.560000000000000000e+03 7.560000000000000000e+03 7.863000000000000000e+03 7.564000000000000000e+03 7.564000000000000000e+03 7.565000000000000000e+03 7.865000000000000000e+03 7.568000000000000000e+03 7.569000000000000000e+03 7.569000000000000000e+03 7.869000000000000000e+03 7.872000000000000000e+03 8.173000000000000000e+03 7.874000000000000000e+03 7.575000000000000000e+03 7.575000000000000000e+03 7.576000000000000000e+03 7.576000000000000000e+03 7.877000000000000000e+03 7.579000000000000000e+03 7.579000000000000000e+03 8.181000000000000000e+03 8.181000000000000000e+03 8.182000000000000000e+03 7.584000000000000000e+03 7.584000000000000000e+03 8.187000000000000000e+03 8.187000000000000000e+03 8.188000000000000000e+03 8.189000000000000000e+03 8.190000000000000000e+03 8.190000000000000000e+03 8.191000000000000000e+03 7.592000000000000000e+03 7.895000000000000000e+03 7.595000000000000000e+03 7.595000000000000000e+03 7.896000000000000000e+03 7.599000000000000000e+03 7.599000000000000000e+03 7.600000000000000000e+03 7.600000000000000000e+03 7.903000000000000000e+03 8.204000000000000000e+03 8.204000000000000000e+03 8.204000000000000000e+03 8.206000000000000000e+03 8.206000000000000000e+03 7.907000000000000000e+03 7.910000000000000000e+03 8.210000000000000000e+03 7.910000000000000000e+03 8.212000000000000000e+03 7.914000000000000000e+03 7.915000000000000000e+03 8.216000000000000000e+03 7.917000000000000000e+03 8.217000000000000000e+03 7.917000000000000000e+03 8.218000000000000000e+03 7.921000000000000000e+03 8.221000000000000000e+03 7.921000000000000000e+03 8.224000000000000000e+03 8.224000000000000000e+03 8.224000000000000000e+03 7.927000000000000000e+03 7.928000000000000000e+03 8.229000000000000000e+03 8.229000000000000000e+03 8.230000000000000000e+03 7.932000000000000000e+03 8.232000000000000000e+03 7.932000000000000000e+03 7.933000000000000000e+03 8.236000000000000000e+03 8.237000000000000000e+03 7.938000000000000000e+03
7.818000000000000000e+03 7.220000000000000000e+03 7.222000000000000000e+03 7.222000000000000000e+03 7.222000000000000000e+03 7.225000000000000000e+03 7.225000000000000000e+03 7.225000000000000000e+03 7.228000000000000000e+03 7.529000000000000000e+03 7.229000000000000000e+03 7.529000000000000000e+03 7.530000000000000000e+03 7.232000000000000000e+03 7.232000000000000000e+03 7.835000000000000000e+03 7.835000000000000000e+03 7.237000000000000000e+03 7.538000000000000000e+03 7.839000000000000000e+03 7.540000000000000000e+03 7.841000000000000000e+03 7.542000000000000000e+03 7.243000000000000000e+03 7.243000000000000000e+03 7.243000000000000000e+03 7.544000000000000000e+03 7.246000000000000000e+03 7.247000000000000000e+03 7.247000000000000000e+03 7.250000000000000000e+03 7.551000000000000000e+03 7.251000000000000000e+03 7.252000000000000000e+03 7.253000000000000000e+03 7.253000000000000000e+03 7.554000000000000000e+03 7.555000000000000000e+03 7.856000000000000000e+03 7.857000000000000000e+03 7.560000000000000000e+03 7.260000000000000000e+03 7.560000000000000000e+03 7.563000000000000000e+03 7.564000000000000000e+03 7.565000000000000000e+03 7.266000000000000000e+03 7.266000000000000000e+03 7.266000000000000000e+03 7.268000000000000000e+03 7.268000000000000000e+03 7.569000000000000000e+03 7.872000000000000000e+03 7.573000000000000000e+03 7.874000000000000000e+03 7.575000000000000000e+03 7.576000000000000000e+03 7.276000000000000000e+03 7.576000000000000000e+03 7.278000000000000000e+03 7.278000000000000000e+03 7.579000000000000000e+03 7.280000000000000000e+03 7.283000000000000000e+03 7.283000000000000000e+03 7.284000000000000000e+03 7.285000000000000000e+03 7.286000000000000000e+03 7.287000000000000000e+03 7.288000000000000000e+03 7.288000000000000000e+03 7.289000000000000000e+03 7.292000000000000000e+03 7.292000000000000000e+03 7.292000000000000000e+03 7.595000000000000000e+03 7.295000000000000000e+03 7.595000000000000000e+03 7.297000000000000000e+03 7.599000000000000000e+03 7.300000000000000000e+03 7.300000000000000000e+03 7.300000000000000000e+03 7.302000000000000000e+03 7.302000000000000000e+03 7.305000000000000000e+03 7.305000000000000000e+03 7.305000000000000000e+03 7.907000000000000000e+03 7.907000000000000000e+03 7.910000000000000000e+03 7.910000000000000000e+03 7.910000000000000000e+03 7.312000000000000000e+03 7.614000000000000000e+03 7.915000000000000000e+03 7.616000000000000000e+03 7.917000000000000000e+03 7.917000000000000000e+03 7.917000000000000000e+03 7.618000000000000000e+03 7.621000000000000000e+03 7.921000000000000000e+03 7.621000000000000000e+03 7.924000000000000000e+03 7.924000000000000000e+03 7.924000000000000000e+03 7.927000000000000000e+03 7.928000000000000000e+03 7.928000000000000000e+03 7.929000000000000000e+03 7.930000000000000000e+03 7.632000000000000000e+03 7.932000000000000000e+03 7.632000000000000000e+03 7.335000000000000000e+03 7.335000000000000000e+03 7.337000000000000000e+03 7.638000000000000000e+03
6.918000000000000000e+03 6.921000000000000000e+03 6.921000000000000000e+03 6.921000000000000000e+03 7.222000000000000000e+03 7.225000000000000000e+03 6.925000000000000000e+03 7.225000000000000000e+03 7.228000000000000000e+03 7.229000000000000000e+03 6.929000000000000000e+03 7.229000000000000000e+03 6.931000000000000000e+03 6.931000000000000000e+03 7.232000000000000000e+03 6.935000000000000000e+03 6.936000000000000000e+03 7.237000000000000000e+03 7.538000000000000000e+03 7.538000000000000000e+03 7.540000000000000000e+03 7.540000000000000000e+03 7.542000000000000000e+03 7.243000000000000000e+03 6.944000000000000000e+03 6.944000000000000000e+03 6.945000000000000000e+03 6.946000000000000000e+03 6.946000000000000000e+03 7.247000000000000000e+03 6.950000000000000000e+03 6.950000000000000000e+03 6.950000000000000000e+03 7.251000000000000000e+03 7.252000000000000000e+03 7.253000000000000000e+03 7.554000000000000000e+03 7.555000000000000000e+03 6.958000000000000000e+03 6.958000000000000000e+03 7.260000000000000000e+03 6.960000000000000000e+03 7.260000000000000000e+03 7.563000000000000000e+03 7.564000000000000000e+03 7.564000000000000000e+03 7.266000000000000000e+03 6.966000000000000000e+03 7.266000000000000000e+03 6.968000000000000000e+03 7.268000000000000000e+03 6.970000000000000000e+03 6.970000000000000000e+03 7.573000000000000000e+03 7.274000000000000000e+03 7.575000000000000000e+03 7.276000000000000000e+03 6.977000000000000000e+03 6.977000000000000000e+03 6.977000000000000000e+03 7.278000000000000000e+03 6.979000000000000000e+03 7.280000000000000000e+03 6.983000000000000000e+03 6.983000000000000000e+03 6.983000000000000000e+03 7.284000000000000000e+03 7.285000000000000000e+03 7.286000000000000000e+03 7.287000000000000000e+03 7.288000000000000000e+03 7.289000000000000000e+03 6.992000000000000000e+03 6.992000000000000000e+03 6.992000000000000000e+03 7.295000000000000000e+03 6.995000000000000000e+03 7.295000000000000000e+03 6.997000000000000000e+03 6.997000000000000000e+03 7.300000000000000000e+03 7.000000000000000000e+03 7.300000000000000000e+03 7.002000000000000000e+03 7.002000000000000000e+03 7.005000000000000000e+03 7.005000000000000000e+03 7.005000000000000000e+03 7.006000000000000000e+03 7.009000000000000000e+03 7.009000000000000000e+03 7.009000000000000000e+03 7.012000000000000000e+03 7.012000000000000000e+03 7.012000000000000000e+03 7.614000000000000000e+03 7.316000000000000000e+03 7.616000000000000000e+03 7.617000000000000000e+03 7.617000000000000000e+03 7.618000000000000000e+03 7.621000000000000000e+03 7.621000000000000000e+03 7.621000000000000000e+03 7.024000000000000000e+03 7.025000000000000000e+03 7.025000000000000000e+03 7.025000000000000000e+03 7.628000000000000000e+03 7.628000000000000000e+03 7.628000000000000000e+03 7.331000000000000000e+03 7.632000000000000000e+03 7.632000000000000000e+03 7.632000000000000000e+03 7.335000000000000000e+03 7.036000000000000000e+03 7.337000000000000000e+03 7.638000000000000000e+03
6.918000000000000000e+03 6.921000000000000000e+03 6.621000000000000000e+03 6.921000000000000000e+03 6.622000000000000000e+03 6.925000000000000000e+03 6.626000000000000000e+03 6.626000000000000000e+03 6.627000000000000000e+03 6.628000000000000000e+03 6.628000000000000000e+03 6.929000000000000000e+03 6.930000000000000000e+03 6.931000000000000000e+03 6.932000000000000000e+03 6.935000000000000000e+03 6.936000000000000000e+03 7.237000000000000000e+03 7.237000000000000000e+03 7.239000000000000000e+03 7.239000000000000000e+03 6.941000000000000000e+03 6.942000000000000000e+03 7.243000000000000000e+03 6.944000000000000000e+03 6.945000000000000000e+03 6.946000000000000000e+03 6.647000000000000000e+03 6.647000000000000000e+03 6.647000000000000000e+03 6.649000000000000000e+03 6.649000000000000000e+03 6.950000000000000000e+03 7.252000000000000000e+03 7.253000000000000000e+03 7.253000000000000000e+03 6.954000000000000000e+03 7.255000000000000000e+03 6.958000000000000000e+03 6.659000000000000000e+03 6.659000000000000000e+03 6.659000000000000000e+03 6.960000000000000000e+03 6.661000000000000000e+03 6.964000000000000000e+03 6.965000000000000000e+03 6.966000000000000000e+03 6.667000000000000000e+03 6.667000000000000000e+03 6.667000000000000000e+03 6.968000000000000000e+03 6.669000000000000000e+03 6.970000000000000000e+03 6.673000000000000000e+03 7.274000000000000000e+03 7.274000000000000000e+03 7.276000000000000000e+03 6.977000000000000000e+03 6.677000000000000000e+03 6.977000000000000000e+03 7.278000000000000000e+03 6.979000000000000000e+03 6.680000000000000000e+03 6.983000000000000000e+03 6.683000000000000000e+03 6.983000000000000000e+03 7.285000000000000000e+03 7.286000000000000000e+03 7.287000000000000000e+03 7.288000000000000000e+03 7.288000000000000000e+03 6.691000000000000000e+03 6.992000000000000000e+03 6.692000000000000000e+03 6.992000000000000000e+03 6.995000000000000000e+03 6.695000000000000000e+03 6.995000000000000000e+03 6.697000000000000000e+03 6.697000000000000000e+03 7.000000000000000000e+03 6.700000000000000000e+03 7.000000000000000000e+03 6.702000000000000000e+03 6.702000000000000000e+03 7.005000000000000000e+03 6.705000000000000000e+03 6.705000000000000000e+03 7.006000000000000000e+03 6.709000000000000000e+03 6.709000000000000000e+03 6.710000000000000000e+03 6.711000000000000000e+03 6.712000000000000000e+03 6.712000000000000000e+03 6.713000000000000000e+03 7.016000000000000000e+03 7.316000000000000000e+03 7.316000000000000000e+03 7.318000000000000000e+03 7.318000000000000000e+03 7.321000000000000000e+03 7.321000000000000000e+03 6.723000000000000000e+03 6.724000000000000000e+03 6.725000000000000000e+03 6.725000000000000000e+03 6.726000000000000000e+03 6.726000000000000000e+03 7.328000000000000000e+03 6.730000000000000000e+03 6.730000000000000000e+03 7.331000000000000000e+03 7.332000000000000000e+03 6.734000000000000000e+03 6.735000000000000000e+03 7.036000000000000000e+03 7.337000000000000000e+03 7.337000000000000000e+03
6.618000000000000000e+03 6.621000000000000000e+03 6.321000000000000000e+03 6.621000000000000000e+03 6.622000000000000000e+03 6.625000000000000000e+03 6.626000000000000000e+03 6.627000000000000000e+03 6.628000000000000000e+03 6.329000000000000000e+03 6.329000000000000000e+03 6.329000000000000000e+03 6.931000000000000000e+03 6.333000000000000000e+03 6.333000000000000000e+03 6.333000000000000000e+03 6.936000000000000000e+03 6.936000000000000000e+03 6.338000000000000000e+03 6.338000000000000000e+03 6.340000000000000000e+03 6.340000000000000000e+03 6.942000000000000000e+03 6.942000000000000000e+03 6.944000000000000000e+03 6.944000000000000000e+03 6.945000000000000000e+03 6.647000000000000000e+03 6.348000000000000000e+03 6.348000000000000000e+03 6.348000000000000000e+03 6.649000000000000000e+03 6.950000000000000000e+03 6.952000000000000000e+03 6.952000000000000000e+03 6.954000000000000000e+03 6.954000000000000000e+03 6.356000000000000000e+03 6.658000000000000000e+03 6.659000000000000000e+03 6.359000000000000000e+03 6.659000000000000000e+03 6.360000000000000000e+03 6.661000000000000000e+03 6.664000000000000000e+03 6.665000000000000000e+03 6.666000000000000000e+03 6.667000000000000000e+03 6.368000000000000000e+03 6.368000000000000000e+03 6.368000000000000000e+03 6.669000000000000000e+03 6.371000000000000000e+03 6.673000000000000000e+03 6.374000000000000000e+03 6.374000000000000000e+03 6.376000000000000000e+03 6.376000000000000000e+03 6.376000000000000000e+03 6.677000000000000000e+03 6.979000000000000000e+03 6.979000000000000000e+03 6.680000000000000000e+03 6.381000000000000000e+03 6.383000000000000000e+03 6.683000000000000000e+03 6.384000000000000000e+03 6.685000000000000000e+03 6.387000000000000000e+03 6.388000000000000000e+03 6.388000000000000000e+03 6.691000000000000000e+03 6.692000000000000000e+03 6.392000000000000000e+03 6.692000000000000000e+03 6.695000000000000000e+03 6.395000000000000000e+03 6.695000000000000000e+03 6.397000000000000000e+03 6.697000000000000000e+03 6.700000000000000000e+03 6.401000000000000000e+03 6.401000000000000000e+03 6.402000000000000000e+03 6.702000000000000000e+03 6.705000000000000000e+03 6.405000000000000000e+03 6.705000000000000000e+03 6.406000000000000000e+03 6.709000000000000000e+03 6.410000000000000000e+03 6.410000000000000000e+03 6.411000000000000000e+03 6.411000000000000000e+03 6.712000000000000000e+03 6.713000000000000000e+03 7.016000000000000000e+03 7.016000000000000000e+03 7.016000000000000000e+03 7.017000000000000000e+03 6.420000000000000000e+03 6.420000000000000000e+03 6.722000000000000000e+03 6.723000000000000000e+03 6.724000000000000000e+03 6.725000000000000000e+03 6.426000000000000000e+03 6.426000000000000000e+03 6.426000000000000000e+03 6.427000000000000000e+03 6.430000000000000000e+03 6.430000000000000000e+03 6.430000000000000000e+03 6.433000000000000000e+03 6.434000000000000000e+03 6.735000000000000000e+03 7.036000000000000000e+03 7.036000000000000000e+03 7.036000000000000000e+03
6.018000000000000000e+03 6.321000000000000000e+03 6.021000000000000000e+03 6.321000000000000000e+03 6.022000000000000000e+03 6.023000000000000000e+03 6.626000000000000000e+03 6.626000000000000000e+03 6.627000000000000000e+03 6.329000000000000000e+03 6.030000000000000000e+03 6.030000000000000000e+03 6.030000000000000000e+03 6.033000000000000000e+03 6.033000000000000000e+03 6.033000000000000000e+03 6.036000000000000000e+03 6.036000000000000000e+03 6.338000000000000000e+03 6.039000000000000000e+03 6.039000000000000000e+03 6.040000000000000000e+03 6.042000000000000000e+03 6.042000000000000000e+03 6.042000000000000000e+03 6.644000000000000000e+03 6.346000000000000000e+03 6.647000000000000000e+03 6.348000000000000000e+03 6.048000000000000000e+03 6.348000000000000000e+03 6.649000000000000000e+03 6.050000000000000000e+03 6.051000000000000000e+03 6.653000000000000000e+03 6.653000000000000000e+03 6.356000000000000000e+03 6.057000000000000000e+03 6.057000000000000000e+03 6.359000000000000000e+03 6.059000000000000000e+03 6.059000000000000000e+03 6.360000000000000000e+03 6.062000000000000000e+03 6.063000000000000000e+03 6.665000000000000000e+03 6.666000000000000000e+03 6.666000000000000000e+03 6.368000000000000000e+03 6.068000000000000000e+03 6.368000000000000000e+03 6.070000000000000000e+03 6.070000000000000000e+03 6.371000000000000000e+03 6.374000000000000000e+03 6.075000000000000000e+03 6.075000000000000000e+03 6.075000000000000000e+03 6.376000000000000000e+03 6.677000000000000000e+03 6.680000000000000000e+03 6.680000000000000000e+03 6.680000000000000000e+03 6.381000000000000000e+03 6.082000000000000000e+03 6.383000000000000000e+03 6.384000000000000000e+03 6.086000000000000000e+03 6.087000000000000000e+03 6.087000000000000000e+03 6.388000000000000000e+03 6.091000000000000000e+03 6.392000000000000000e+03 6.092000000000000000e+03 6.392000000000000000e+03 6.395000000000000000e+03 6.095000000000000000e+03 6.395000000000000000e+03 6.097000000000000000e+03 6.397000000000000000e+03 6.700000000000000000e+03 6.401000000000000000e+03 6.102000000000000000e+03 6.102000000000000000e+03 6.402000000000000000e+03 6.405000000000000000e+03 6.105000000000000000e+03 6.405000000000000000e+03 6.406000000000000000e+03 6.409000000000000000e+03 6.110000000000000000e+03 6.110000000000000000e+03 6.110000000000000000e+03 6.411000000000000000e+03 6.712000000000000000e+03 6.114000000000000000e+03 6.114000000000000000e+03 6.716000000000000000e+03 6.716000000000000000e+03 6.118000000000000000e+03 6.120000000000000000e+03 6.120000000000000000e+03 6.120000000000000000e+03 6.723000000000000000e+03 6.724000000000000000e+03 6.724000000000000000e+03 6.426000000000000000e+03 6.127000000000000000e+03 6.127000000000000000e+03 6.127000000000000000e+03 6.430000000000000000e+03 6.131000000000000000e+03 6.131000000000000000e+03 6.132000000000000000e+03 6.434000000000000000e+03 6.735000000000000000e+03 6.735000000000000000e+03 6.735000000000000000e+03 6.436000000000000000e+03
5.719000000000000000e+03 5.720000000000000000e+03 5.720000000000000000e+03 6.021000000000000000e+03 6.022000000000000000e+03 6.023000000000000000e+03 6.024000000000000000e+03 6.327000000000000000e+03 6.028000000000000000e+03 6.329000000000000000e+03 6.030000000000000000e+03 5.731000000000000000e+03 5.731000000000000000e+03 5.732000000000000000e+03 5.732000000000000000e+03 6.033000000000000000e+03 6.036000000000000000e+03 5.737000000000000000e+03 5.737000000000000000e+03 6.039000000000000000e+03 6.040000000000000000e+03 5.741000000000000000e+03 6.042000000000000000e+03 5.743000000000000000e+03 5.743000000000000000e+03 5.743000000000000000e+03 6.346000000000000000e+03 6.346000000000000000e+03 6.048000000000000000e+03 5.748000000000000000e+03 6.048000000000000000e+03 6.049000000000000000e+03 6.050000000000000000e+03 6.051000000000000000e+03 6.052000000000000000e+03 5.753000000000000000e+03 6.056000000000000000e+03 6.057000000000000000e+03 6.058000000000000000e+03 6.059000000000000000e+03 5.760000000000000000e+03 5.760000000000000000e+03 5.760000000000000000e+03 5.762000000000000000e+03 5.762000000000000000e+03 5.765000000000000000e+03 5.765000000000000000e+03 6.067000000000000000e+03 6.068000000000000000e+03 5.769000000000000000e+03 5.769000000000000000e+03 5.769000000000000000e+03 6.070000000000000000e+03 5.773000000000000000e+03 5.773000000000000000e+03 6.075000000000000000e+03 5.775000000000000000e+03 6.075000000000000000e+03 6.376000000000000000e+03 6.377000000000000000e+03 6.378000000000000000e+03 6.381000000000000000e+03 6.381000000000000000e+03 6.381000000000000000e+03 6.082000000000000000e+03 6.383000000000000000e+03 6.084000000000000000e+03 5.785000000000000000e+03 6.086000000000000000e+03 6.087000000000000000e+03 6.088000000000000000e+03 6.091000000000000000e+03 6.092000000000000000e+03 5.792000000000000000e+03 6.092000000000000000e+03 6.095000000000000000e+03 5.796000000000000000e+03 5.796000000000000000e+03 5.797000000000000000e+03 6.097000000000000000e+03 5.800000000000000000e+03 5.801000000000000000e+03 6.102000000000000000e+03 5.802000000000000000e+03 6.102000000000000000e+03 5.804000000000000000e+03 5.804000000000000000e+03 6.105000000000000000e+03 6.106000000000000000e+03 5.809000000000000000e+03 6.110000000000000000e+03 5.810000000000000000e+03 6.110000000000000000e+03 6.411000000000000000e+03 5.814000000000000000e+03 5.814000000000000000e+03 5.814000000000000000e+03 5.815000000000000000e+03 5.816000000000000000e+03 5.819000000000000000e+03 6.120000000000000000e+03 5.820000000000000000e+03 6.120000000000000000e+03 5.823000000000000000e+03 5.823000000000000000e+03 5.825000000000000000e+03 5.826000000000000000e+03 6.127000000000000000e+03 5.828000000000000000e+03 5.828000000000000000e+03 5.829000000000000000e+03 6.131000000000000000e+03 6.132000000000000000e+03 6.133000000000000000e+03 6.434000000000000000e+03 6.434000000000000000e+03 6.434000000000000000e+03 6.436000000000000000e+03 6.436000000000000000e+03
5.420000000000000000e+03 5.420000000000000000e+03 5.720000000000000000e+03 6.021000000000000000e+03 5.423000000000000000e+03 5.423000000000000000e+03 5.425000000000000000e+03 5.426000000000000000e+03 6.028000000000000000e+03 6.028000000000000000e+03 6.030000000000000000e+03 5.731000000000000000e+03 5.732000000000000000e+03 5.433000000000000000e+03 5.433000000000000000e+03 5.434000000000000000e+03 5.434000000000000000e+03 5.437000000000000000e+03 5.437000000000000000e+03 5.438000000000000000e+03 5.439000000000000000e+03 5.741000000000000000e+03 6.042000000000000000e+03 5.743000000000000000e+03 5.444000000000000000e+03 5.444000000000000000e+03 5.444000000000000000e+03 5.747000000000000000e+03 5.748000000000000000e+03 5.448000000000000000e+03 5.748000000000000000e+03 6.050000000000000000e+03 6.050000000000000000e+03 5.452000000000000000e+03 5.452000000000000000e+03 5.453000000000000000e+03 5.756000000000000000e+03 6.057000000000000000e+03 6.057000000000000000e+03 6.058000000000000000e+03 5.760000000000000000e+03 5.461000000000000000e+03 5.461000000000000000e+03 5.461000000000000000e+03 5.762000000000000000e+03 5.465000000000000000e+03 5.465000000000000000e+03 5.465000000000000000e+03 6.068000000000000000e+03 5.769000000000000000e+03 5.469000000000000000e+03 5.769000000000000000e+03 5.471000000000000000e+03 5.473000000000000000e+03 5.473000000000000000e+03 5.474000000000000000e+03 5.474000000000000000e+03 5.775000000000000000e+03 5.776000000000000000e+03 5.477000000000000000e+03 5.478000000000000000e+03 6.081000000000000000e+03 5.782000000000000000e+03 6.082000000000000000e+03 5.782000000000000000e+03 6.084000000000000000e+03 6.084000000000000000e+03 5.785000000000000000e+03 6.087000000000000000e+03 6.087000000000000000e+03 5.490000000000000000e+03 5.491000000000000000e+03 5.792000000000000000e+03 5.492000000000000000e+03 5.792000000000000000e+03 6.095000000000000000e+03 5.796000000000000000e+03 5.497000000000000000e+03 5.497000000000000000e+03 5.797000000000000000e+03 5.800000000000000000e+03 5.801000000000000000e+03 5.802000000000000000e+03 5.503000000000000000e+03 5.503000000000000000e+03 5.503000000000000000e+03 5.804000000000000000e+03 6.105000000000000000e+03 5.508000000000000000e+03 5.509000000000000000e+03 5.509000000000000000e+03 5.509000000000000000e+03 5.810000000000000000e+03 5.513000000000000000e+03 5.513000000000000000e+03 5.513000000000000000e+03 5.814000000000000000e+03 5.815000000000000000e+03 5.816000000000000000e+03 5.819000000000000000e+03 5.820000000000000000e+03 5.521000000000000000e+03 5.521000000000000000e+03 5.523000000000000000e+03 5.523000000000000000e+03 5.524000000000000000e+03 5.826000000000000000e+03 6.127000000000000000e+03 5.828000000000000000e+03 5.829000000000000000e+03 5.830000000000000000e+03 6.131000000000000000e+03 6.131000000000000000e+03 6.132000000000000000e+03 6.133000000000000000e+03 5.833000000000000000e+03 6.135000000000000000e+03 6.135000000000000000e+03 5.538000000000000000e+03
5.420000000000000000e+03 5.121000000000000000e+03 5.121000000000000000e+03 5.122000000000000000e+03 5.122000000000000000e+03 5.423000000000000000e+03 5.125000000000000000e+03 5.126000000000000000e+03 5.126000000000000000e+03 5.729000000000000000e+03 5.430000000000000000e+03 5.731000000000000000e+03 5.731000000000000000e+03 5.433000000000000000e+03 5.434000000000000000e+03 5.135000000000000000e+03 5.135000000000000000e+03 5.437000000000000000e+03 5.438000000000000000e+03 5.439000000000000000e+03 5.440000000000000000e+03 5.741000000000000000e+03 5.741000000000000000e+03 5.743000000000000000e+03 5.444000000000000000e+03 5.144000000000000000e+03 5.444000000000000000e+03 5.146000000000000000e+03 5.448000000000000000e+03 5.148000000000000000e+03 5.448000000000000000e+03 5.150000000000000000e+03 5.151000000000000000e+03 5.152000000000000000e+03 5.152000000000000000e+03 5.153000000000000000e+03 5.154000000000000000e+03 5.756000000000000000e+03 5.158000000000000000e+03 5.159000000000000000e+03 5.760000000000000000e+03 5.461000000000000000e+03 5.162000000000000000e+03 5.162000000000000000e+03 5.162000000000000000e+03 5.465000000000000000e+03 5.166000000000000000e+03 5.166000000000000000e+03 5.166000000000000000e+03 5.168000000000000000e+03 5.168000000000000000e+03 5.469000000000000000e+03 5.171000000000000000e+03 5.172000000000000000e+03 5.172000000000000000e+03 5.473000000000000000e+03 5.474000000000000000e+03 5.776000000000000000e+03 5.776000000000000000e+03 5.477000000000000000e+03 5.478000000000000000e+03 5.179000000000000000e+03 5.782000000000000000e+03 5.782000000000000000e+03 5.782000000000000000e+03 5.785000000000000000e+03 5.785000000000000000e+03 5.785000000000000000e+03 5.486000000000000000e+03 5.788000000000000000e+03 5.490000000000000000e+03 5.491000000000000000e+03 5.492000000000000000e+03 5.192000000000000000e+03 5.492000000000000000e+03 5.193000000000000000e+03 5.796000000000000000e+03 5.497000000000000000e+03 5.197000000000000000e+03 5.497000000000000000e+03 5.198000000000000000e+03 5.801000000000000000e+03 5.801000000000000000e+03 5.503000000000000000e+03 5.204000000000000000e+03 5.204000000000000000e+03 5.204000000000000000e+03 5.206000000000000000e+03 5.206000000000000000e+03 5.509000000000000000e+03 5.209000000000000000e+03 5.210000000000000000e+03 5.211000000000000000e+03 5.212000000000000000e+03 5.212000000000000000e+03 5.513000000000000000e+03 5.514000000000000000e+03 5.515000000000000000e+03 5.516000000000000000e+03 5.819000000000000000e+03 5.520000000000000000e+03 5.521000000000000000e+03 5.222000000000000000e+03 5.523000000000000000e+03 5.524000000000000000e+03 5.225000000000000000e+03 5.526000000000000000e+03 5.826000000000000000e+03 5.828000000000000000e+03 5.828000000000000000e+03 5.829000000000000000e+03 5.830000000000000000e+03 5.530000000000000000e+03 5.833000000000000000e+03 5.833000000000000000e+03 5.833000000000000000e+03 5.534000000000000000e+03 5.835000000000000000e+03 5.538000000000000000e+03
5.420000000000000000e+03 5.121000000000000000e+03 4.821000000000000000e+03 5.121000000000000000e+03 5.122000000000000000e+03 4.825000000000000000e+03 4.825000000000000000e+03 4.825000000000000000e+03 5.126000000000000000e+03 4.828000000000000000e+03 5.430000000000000000e+03 5.430000000000000000e+03 5.132000000000000000e+03 5.433000000000000000e+03 5.433000000000000000e+03 5.135000000000000000e+03 5.136000000000000000e+03 5.437000000000000000e+03 5.437000000000000000e+03 5.438000000000000000e+03 5.439000000000000000e+03 5.440000000000000000e+03 5.440000000000000000e+03 4.843000000000000000e+03 5.144000000000000000e+03 4.844000000000000000e+03 5.144000000000000000e+03 4.847000000000000000e+03 4.847000000000000000e+03 4.847000000000000000e+03 5.148000000000000000e+03 5.149000000000000000e+03 5.150000000000000000e+03 5.151000000000000000e+03 5.152000000000000000e+03 5.153000000000000000e+03 4.854000000000000000e+03 4.855000000000000000e+03 5.158000000000000000e+03 5.159000000000000000e+03 5.160000000000000000e+03 5.461000000000000000e+03 5.162000000000000000e+03 4.863000000000000000e+03 4.863000000000000000e+03 4.865000000000000000e+03 5.166000000000000000e+03 4.867000000000000000e+03 4.867000000000000000e+03 4.867000000000000000e+03 5.168000000000000000e+03 4.870000000000000000e+03 4.870000000000000000e+03 5.171000000000000000e+03 5.172000000000000000e+03 5.474000000000000000e+03 5.474000000000000000e+03 5.175000000000000000e+03 5.477000000000000000e+03 5.477000000000000000e+03 5.178000000000000000e+03 5.179000000000000000e+03 5.482000000000000000e+03 5.482000000000000000e+03 5.482000000000000000e+03 5.485000000000000000e+03 5.485000000000000000e+03 5.486000000000000000e+03 5.486000000000000000e+03 4.889000000000000000e+03 4.890000000000000000e+03 4.891000000000000000e+03 5.192000000000000000e+03 4.892000000000000000e+03 5.192000000000000000e+03 5.193000000000000000e+03 5.196000000000000000e+03 5.197000000000000000e+03 4.898000000000000000e+03 4.898000000000000000e+03 4.898000000000000000e+03 4.899000000000000000e+03 4.901000000000000000e+03 5.503000000000000000e+03 5.204000000000000000e+03 4.905000000000000000e+03 4.905000000000000000e+03 4.905000000000000000e+03 5.206000000000000000e+03 5.209000000000000000e+03 4.909000000000000000e+03 4.909000000000000000e+03 5.210000000000000000e+03 5.211000000000000000e+03 5.212000000000000000e+03 5.514000000000000000e+03 5.514000000000000000e+03 5.515000000000000000e+03 4.917000000000000000e+03 4.917000000000000000e+03 5.520000000000000000e+03 5.521000000000000000e+03 5.222000000000000000e+03 5.523000000000000000e+03 5.523000000000000000e+03 5.225000000000000000e+03 5.526000000000000000e+03 5.526000000000000000e+03 5.526000000000000000e+03 5.229000000000000000e+03 5.530000000000000000e+03 5.530000000000000000e+03 5.230000000000000000e+03 5.532000000000000000e+03 5.234000000000000000e+03 5.534000000000000000e+03 5.234000000000000000e+03 4.937000000000000000e+03 4.938000000000000000e+03
4.519000000000000000e+03 4.520000000000000000e+03 4.520000000000000000e+03 4.821000000000000000e+03 5.122000000000000000e+03 4.825000000000000000e+03 4.525000000000000000e+03 4.526000000000000000e+03 4.527000000000000000e+03 4.527000000000000000e+03 4.528000000000000000e+03 5.130000000000000000e+03 5.132000000000000000e+03 5.132000000000000000e+03 5.133000000000000000e+03 5.135000000000000000e+03 5.135000000000000000e+03 5.136000000000000000e+03 5.136000000000000000e+03 4.539000000000000000e+03 4.539000000000000000e+03 4.539000000000000000e+03 4.541000000000000000e+03 4.843000000000000000e+03 4.844000000000000000e+03 4.544000000000000000e+03 4.844000000000000000e+03 4.546000000000000000e+03 4.546000000000000000e+03 4.847000000000000000e+03 5.149000000000000000e+03 5.150000000000000000e+03 5.151000000000000000e+03 5.152000000000000000e+03 5.152000000000000000e+03 4.853000000000000000e+03 4.854000000000000000e+03 4.855000000000000000e+03 4.858000000000000000e+03 5.159000000000000000e+03 5.160000000000000000e+03 5.160000000000000000e+03 5.162000000000000000e+03 4.863000000000000000e+03 4.564000000000000000e+03 4.865000000000000000e+03 5.166000000000000000e+03 4.867000000000000000e+03 4.568000000000000000e+03 4.568000000000000000e+03 4.870000000000000000e+03 4.570000000000000000e+03 4.870000000000000000e+03 5.172000000000000000e+03 5.172000000000000000e+03 5.174000000000000000e+03 5.174000000000000000e+03 5.175000000000000000e+03 5.178000000000000000e+03 5.178000000000000000e+03 5.178000000000000000e+03 5.179000000000000000e+03 4.582000000000000000e+03 4.582000000000000000e+03 4.582000000000000000e+03 4.584000000000000000e+03 5.186000000000000000e+03 5.186000000000000000e+03 5.186000000000000000e+03 4.889000000000000000e+03 4.890000000000000000e+03 4.891000000000000000e+03 4.892000000000000000e+03 4.592000000000000000e+03 4.892000000000000000e+03 4.893000000000000000e+03 5.196000000000000000e+03 5.197000000000000000e+03 4.898000000000000000e+03 4.599000000000000000e+03 4.599000000000000000e+03 4.599000000000000000e+03 4.602000000000000000e+03 4.602000000000000000e+03 4.604000000000000000e+03 4.604000000000000000e+03 4.604000000000000000e+03 4.905000000000000000e+03 4.607000000000000000e+03 4.608000000000000000e+03 4.608000000000000000e+03 4.909000000000000000e+03 5.211000000000000000e+03 5.212000000000000000e+03 5.212000000000000000e+03 4.913000000000000000e+03 4.914000000000000000e+03 4.617000000000000000e+03 4.617000000000000000e+03 4.617000000000000000e+03 4.620000000000000000e+03 4.620000000000000000e+03 4.620000000000000000e+03 5.222000000000000000e+03 5.222000000000000000e+03 4.925000000000000000e+03 5.225000000000000000e+03 5.225000000000000000e+03 4.926000000000000000e+03 5.229000000000000000e+03 5.229000000000000000e+03 5.230000000000000000e+03 5.230000000000000000e+03 5.232000000000000000e+03 5.234000000000000000e+03 5.234000000000000000e+03 5.234000000000000000e+03 4.937000000000000000e+03 4.938000000000000000e+03
4.520000000000000000e+03 4.220000000000000000e+03 4.520000000000000000e+03 4.821000000000000000e+03 4.224000000000000000e+03 4.224000000000000000e+03 4.224000000000000000e+03 4.525000000000000000e+03 4.526000000000000000e+03 4.527000000000000000e+03 4.528000000000000000e+03 4.529000000000000000e+03 4.232000000000000000e+03 4.233000000000000000e+03 4.233000000000000000e+03 4.234000000000000000e+03 4.235000000000000000e+03 4.235000000000000000e+03 4.238000000000000000e+03 4.239000000000000000e+03 4.239000000000000000e+03 4.239000000000000000e+03 4.241000000000000000e+03 4.241000000000000000e+03 4.544000000000000000e+03 4.245000000000000000e+03 4.245000000000000000e+03 4.245000000000000000e+03 4.546000000000000000e+03 4.847000000000000000e+03 4.548000000000000000e+03 4.549000000000000000e+03 4.250000000000000000e+03 4.853000000000000000e+03 4.853000000000000000e+03 4.853000000000000000e+03 4.554000000000000000e+03 4.555000000000000000e+03 4.858000000000000000e+03 4.858000000000000000e+03 4.859000000000000000e+03 4.561000000000000000e+03 4.262000000000000000e+03 4.863000000000000000e+03 4.564000000000000000e+03 4.865000000000000000e+03 4.865000000000000000e+03 4.867000000000000000e+03 4.568000000000000000e+03 4.268000000000000000e+03 4.269000000000000000e+03 4.269000000000000000e+03 4.570000000000000000e+03 4.571000000000000000e+03 4.873000000000000000e+03 4.873000000000000000e+03 4.875000000000000000e+03 4.277000000000000000e+03 4.277000000000000000e+03 4.277000000000000000e+03 4.279000000000000000e+03 4.281000000000000000e+03 4.281000000000000000e+03 4.281000000000000000e+03 4.582000000000000000e+03 4.283000000000000000e+03 4.584000000000000000e+03 4.287000000000000000e+03 4.287000000000000000e+03 4.288000000000000000e+03 4.290000000000000000e+03 4.290000000000000000e+03 4.592000000000000000e+03 4.292000000000000000e+03 4.592000000000000000e+03 4.293000000000000000e+03 4.296000000000000000e+03 4.897000000000000000e+03 4.898000000000000000e+03 4.599000000000000000e+03 4.300000000000000000e+03 4.300000000000000000e+03 4.300000000000000000e+03 4.303000000000000000e+03 4.303000000000000000e+03 4.303000000000000000e+03 4.604000000000000000e+03 4.905000000000000000e+03 4.606000000000000000e+03 4.607000000000000000e+03 4.608000000000000000e+03 4.909000000000000000e+03 4.610000000000000000e+03 4.611000000000000000e+03 4.913000000000000000e+03 4.913000000000000000e+03 4.316000000000000000e+03 4.617000000000000000e+03 4.317000000000000000e+03 4.617000000000000000e+03 4.320000000000000000e+03 4.320000000000000000e+03 4.320000000000000000e+03 4.321000000000000000e+03 4.624000000000000000e+03 4.925000000000000000e+03 4.925000000000000000e+03 4.926000000000000000e+03 4.926000000000000000e+03 4.929000000000000000e+03 4.929000000000000000e+03 4.930000000000000000e+03 4.930000000000000000e+03 4.931000000000000000e+03 4.934000000000000000e+03 4.934000000000000000e+03 4.934000000000000000e+03 4.937000000000000000e+03 4.938000000000000000e+03
4.220000000000000000e+03 3.920000000000000000e+03 4.220000000000000000e+03 3.923000000000000000e+03 3.923000000000000000e+03 3.923000000000000000e+03 4.224000000000000000e+03 4.526000000000000000e+03 4.527000000000000000e+03 4.528000000000000000e+03 4.528000000000000000e+03 4.529000000000000000e+03 4.232000000000000000e+03 4.233000000000000000e+03 4.234000000000000000e+03 4.235000000000000000e+03 3.936000000000000000e+03 3.936000000000000000e+03 3.936000000000000000e+03 4.239000000000000000e+03 3.940000000000000000e+03 3.940000000000000000e+03 3.941000000000000000e+03 3.941000000000000000e+03 3.944000000000000000e+03 3.944000000000000000e+03 3.944000000000000000e+03 4.245000000000000000e+03 4.546000000000000000e+03 4.548000000000000000e+03 4.549000000000000000e+03 4.549000000000000000e+03 4.250000000000000000e+03 4.251000000000000000e+03 4.554000000000000000e+03 4.554000000000000000e+03 4.554000000000000000e+03 4.555000000000000000e+03 3.958000000000000000e+03 3.958000000000000000e+03 3.958000000000000000e+03 4.261000000000000000e+03 4.262000000000000000e+03 4.263000000000000000e+03 4.564000000000000000e+03 4.564000000000000000e+03 3.966000000000000000e+03 3.967000000000000000e+03 3.967000000000000000e+03 3.967000000000000000e+03 4.268000000000000000e+03 4.269000000000000000e+03 4.570000000000000000e+03 4.571000000000000000e+03 3.973000000000000000e+03 3.973000000000000000e+03 3.975000000000000000e+03 3.977000000000000000e+03 3.977000000000000000e+03 3.978000000000000000e+03 3.979000000000000000e+03 3.980000000000000000e+03 3.980000000000000000e+03 4.281000000000000000e+03 4.282000000000000000e+03 4.283000000000000000e+03 3.986000000000000000e+03 3.987000000000000000e+03 3.987000000000000000e+03 3.988000000000000000e+03 3.990000000000000000e+03 3.990000000000000000e+03 4.292000000000000000e+03 3.992000000000000000e+03 4.292000000000000000e+03 4.293000000000000000e+03 4.296000000000000000e+03 3.997000000000000000e+03 3.997000000000000000e+03 4.599000000000000000e+03 4.300000000000000000e+03 4.001000000000000000e+03 4.001000000000000000e+03 4.002000000000000000e+03 4.002000000000000000e+03 4.303000000000000000e+03 4.604000000000000000e+03 4.606000000000000000e+03 4.607000000000000000e+03 4.608000000000000000e+03 4.308000000000000000e+03 4.610000000000000000e+03 4.610000000000000000e+03 4.611000000000000000e+03 4.014000000000000000e+03 4.014000000000000000e+03 4.016000000000000000e+03 4.017000000000000000e+03 4.017000000000000000e+03 4.317000000000000000e+03 4.320000000000000000e+03 4.020000000000000000e+03 4.021000000000000000e+03 4.021000000000000000e+03 4.022000000000000000e+03 4.624000000000000000e+03 4.625000000000000000e+03 4.027000000000000000e+03 4.027000000000000000e+03 4.028000000000000000e+03 4.028000000000000000e+03 4.031000000000000000e+03 4.031000000000000000e+03 4.032000000000000000e+03 4.032000000000000000e+03 4.035000000000000000e+03 4.035000000000000000e+03 4.035000000000000000e+03 4.638000000000000000e+03
3.920000000000000000e+03 3.620000000000000000e+03 3.920000000000000000e+03 3.923000000000000000e+03 3.623000000000000000e+03 3.923000000000000000e+03 4.224000000000000000e+03 3.626000000000000000e+03 3.626000000000000000e+03 3.629000000000000000e+03 3.629000000000000000e+03 3.630000000000000000e+03 4.232000000000000000e+03 4.233000000000000000e+03 4.233000000000000000e+03 4.234000000000000000e+03 3.936000000000000000e+03 3.637000000000000000e+03 3.637000000000000000e+03 3.639000000000000000e+03 3.639000000000000000e+03 3.639000000000000000e+03 3.940000000000000000e+03 3.941000000000000000e+03 3.643000000000000000e+03 3.643000000000000000e+03 3.944000000000000000e+03 4.245000000000000000e+03 3.946000000000000000e+03 4.248000000000000000e+03 4.248000000000000000e+03 4.250000000000000000e+03 4.250000000000000000e+03 4.251000000000000000e+03 4.254000000000000000e+03 4.254000000000000000e+03 4.254000000000000000e+03 3.656000000000000000e+03 3.658000000000000000e+03 3.658000000000000000e+03 3.658000000000000000e+03 3.961000000000000000e+03 4.262000000000000000e+03 4.262000000000000000e+03 4.263000000000000000e+03 4.263000000000000000e+03 3.966000000000000000e+03 3.967000000000000000e+03 3.668000000000000000e+03 3.668000000000000000e+03 4.269000000000000000e+03 4.269000000000000000e+03 3.672000000000000000e+03 3.672000000000000000e+03 3.672000000000000000e+03 3.973000000000000000e+03 3.676000000000000000e+03 3.676000000000000000e+03 3.676000000000000000e+03 3.977000000000000000e+03 3.978000000000000000e+03 3.979000000000000000e+03 3.980000000000000000e+03 4.282000000000000000e+03 4.283000000000000000e+03 4.283000000000000000e+03 3.986000000000000000e+03 3.987000000000000000e+03 3.688000000000000000e+03 3.688000000000000000e+03 3.990000000000000000e+03 3.691000000000000000e+03 3.691000000000000000e+03 3.691000000000000000e+03 3.992000000000000000e+03 4.293000000000000000e+03 3.695000000000000000e+03 3.997000000000000000e+03 3.998000000000000000e+03 3.699000000000000000e+03 3.699000000000000000e+03 4.001000000000000000e+03 4.002000000000000000e+03 3.703000000000000000e+03 3.703000000000000000e+03 3.704000000000000000e+03 3.705000000000000000e+03 3.705000000000000000e+03 4.308000000000000000e+03 4.308000000000000000e+03 4.308000000000000000e+03 4.009000000000000000e+03 4.010000000000000000e+03 3.713000000000000000e+03 3.713000000000000000e+03 3.714000000000000000e+03 4.016000000000000000e+03 3.717000000000000000e+03 3.717000000000000000e+03 4.017000000000000000e+03 4.020000000000000000e+03 3.721000000000000000e+03 3.721000000000000000e+03 3.721000000000000000e+03 3.723000000000000000e+03 3.723000000000000000e+03 3.725000000000000000e+03 4.027000000000000000e+03 3.728000000000000000e+03 3.728000000000000000e+03 3.728000000000000000e+03 3.731000000000000000e+03 3.731000000000000000e+03 3.732000000000000000e+03 3.732000000000000000e+03 3.734000000000000000e+03 3.735000000000000000e+03 3.735000000000000000e+03 3.736000000000000000e+03
3.620000000000000000e+03 3.321000000000000000e+03 3.321000000000000000e+03 3.322000000000000000e+03 3.322000000000000000e+03 3.623000000000000000e+03 3.325000000000000000e+03 3.325000000000000000e+03 3.626000000000000000e+03 3.629000000000000000e+03 3.330000000000000000e+03 3.330000000000000000e+03 3.330000000000000000e+03 3.631000000000000000e+03 3.334000000000000000e+03 3.335000000000000000e+03 3.936000000000000000e+03 3.637000000000000000e+03 3.338000000000000000e+03 3.338000000000000000e+03 3.338000000000000000e+03 3.639000000000000000e+03 3.941000000000000000e+03 3.941000000000000000e+03 3.642000000000000000e+03 3.643000000000000000e+03 3.944000000000000000e+03 3.946000000000000000e+03 3.946000000000000000e+03 3.647000000000000000e+03 3.648000000000000000e+03 3.950000000000000000e+03 3.950000000000000000e+03 3.352000000000000000e+03 3.352000000000000000e+03 3.353000000000000000e+03 3.356000000000000000e+03 3.356000000000000000e+03 3.658000000000000000e+03 3.358000000000000000e+03 3.658000000000000000e+03 3.361000000000000000e+03 3.361000000000000000e+03 3.363000000000000000e+03 3.363000000000000000e+03 3.363000000000000000e+03 3.966000000000000000e+03 3.967000000000000000e+03 3.668000000000000000e+03 3.369000000000000000e+03 3.369000000000000000e+03 3.369000000000000000e+03 3.371000000000000000e+03 3.371000000000000000e+03 3.672000000000000000e+03 3.375000000000000000e+03 3.375000000000000000e+03 3.375000000000000000e+03 3.676000000000000000e+03 3.978000000000000000e+03 3.979000000000000000e+03 3.980000000000000000e+03 3.980000000000000000e+03 3.681000000000000000e+03 3.682000000000000000e+03 3.385000000000000000e+03 3.385000000000000000e+03 3.387000000000000000e+03 3.688000000000000000e+03 3.388000000000000000e+03 3.688000000000000000e+03 3.691000000000000000e+03 3.391000000000000000e+03 3.691000000000000000e+03 3.992000000000000000e+03 3.394000000000000000e+03 3.394000000000000000e+03 3.997000000000000000e+03 3.997000000000000000e+03 3.699000000000000000e+03 3.400000000000000000e+03 3.400000000000000000e+03 4.001000000000000000e+03 3.402000000000000000e+03 3.402000000000000000e+03 3.703000000000000000e+03 3.704000000000000000e+03 3.705000000000000000e+03 3.706000000000000000e+03 4.008000000000000000e+03 4.009000000000000000e+03 4.009000000000000000e+03 4.010000000000000000e+03 3.713000000000000000e+03 3.414000000000000000e+03 3.414000000000000000e+03 3.414000000000000000e+03 3.717000000000000000e+03 3.417000000000000000e+03 3.717000000000000000e+03 4.020000000000000000e+03 3.721000000000000000e+03 3.421000000000000000e+03 3.721000000000000000e+03 3.422000000000000000e+03 3.425000000000000000e+03 3.425000000000000000e+03 3.425000000000000000e+03 3.728000000000000000e+03 3.429000000000000000e+03 3.429000000000000000e+03 3.429000000000000000e+03 3.432000000000000000e+03 3.432000000000000000e+03 3.434000000000000000e+03 3.434000000000000000e+03 3.434000000000000000e+03 3.735000000000000000e+03 3.736000000000000000e+03
3.019000000000000000e+03 3.321000000000000000e+03 3.322000000000000000e+03 3.023000000000000000e+03 3.023000000000000000e+03 3.024000000000000000e+03 3.024000000000000000e+03 3.325000000000000000e+03 3.027000000000000000e+03 3.027000000000000000e+03 3.330000000000000000e+03 3.030000000000000000e+03 3.330000000000000000e+03 3.031000000000000000e+03 3.034000000000000000e+03 3.035000000000000000e+03 3.035000000000000000e+03 3.037000000000000000e+03 3.338000000000000000e+03 3.038000000000000000e+03 3.338000000000000000e+03 3.639000000000000000e+03 3.642000000000000000e+03 3.642000000000000000e+03 3.643000000000000000e+03 3.643000000000000000e+03 3.644000000000000000e+03 3.646000000000000000e+03 3.647000000000000000e+03 3.647000000000000000e+03 3.648000000000000000e+03 3.051000000000000000e+03 3.051000000000000000e+03 3.051000000000000000e+03 3.352000000000000000e+03 3.353000000000000000e+03 3.356000000000000000e+03 3.057000000000000000e+03 3.057000000000000000e+03 3.058000000000000000e+03 3.060000000000000000e+03 3.060000000000000000e+03 3.061000000000000000e+03 3.363000000000000000e+03 3.064000000000000000e+03 3.064000000000000000e+03 3.065000000000000000e+03 3.065000000000000000e+03 3.668000000000000000e+03 3.369000000000000000e+03 3.070000000000000000e+03 3.070000000000000000e+03 3.070000000000000000e+03 3.371000000000000000e+03 3.372000000000000000e+03 3.375000000000000000e+03 3.076000000000000000e+03 3.076000000000000000e+03 3.077000000000000000e+03 3.078000000000000000e+03 3.078000000000000000e+03 3.079000000000000000e+03 3.681000000000000000e+03 3.681000000000000000e+03 3.084000000000000000e+03 3.085000000000000000e+03 3.085000000000000000e+03 3.387000000000000000e+03 3.388000000000000000e+03 3.089000000000000000e+03 3.089000000000000000e+03 3.090000000000000000e+03 3.090000000000000000e+03 3.391000000000000000e+03 3.094000000000000000e+03 3.094000000000000000e+03 3.094000000000000000e+03 3.395000000000000000e+03 3.398000000000000000e+03 3.699000000000000000e+03 3.400000000000000000e+03 3.101000000000000000e+03 3.402000000000000000e+03 3.102000000000000000e+03 3.402000000000000000e+03 3.704000000000000000e+03 3.705000000000000000e+03 3.705000000000000000e+03 3.706000000000000000e+03 3.108000000000000000e+03 3.109000000000000000e+03 3.110000000000000000e+03 3.112000000000000000e+03 3.112000000000000000e+03 3.414000000000000000e+03 3.115000000000000000e+03 3.115000000000000000e+03 3.417000000000000000e+03 3.117000000000000000e+03 3.417000000000000000e+03 3.120000000000000000e+03 3.421000000000000000e+03 3.121000000000000000e+03 3.121000000000000000e+03 3.422000000000000000e+03 3.125000000000000000e+03 3.125000000000000000e+03 3.125000000000000000e+03 3.728000000000000000e+03 3.429000000000000000e+03 3.130000000000000000e+03 3.130000000000000000e+03 3.130000000000000000e+03 3.133000000000000000e+03 3.133000000000000000e+03 3.133000000000000000e+03 3.434000000000000000e+03 3.435000000000000000e+03 3.436000000000000000e+03
3.020000000000000000e+03 3.321000000000000000e+03 3.321000000000000000e+03 3.023000000000000000e+03 2.723000000000000000e+03 3.023000000000000000e+03 3.024000000000000000e+03 2.726000000000000000e+03 2.726000000000000000e+03 3.027000000000000000e+03 3.030000000000000000e+03 2.730000000000000000e+03 3.030000000000000000e+03 3.031000000000000000e+03 3.034000000000000000e+03 3.035000000000000000e+03 2.736000000000000000e+03 3.037000000000000000e+03 3.038000000000000000e+03 2.739000000000000000e+03 2.739000000000000000e+03 2.739000000000000000e+03 2.742000000000000000e+03 2.742000000000000000e+03 2.742000000000000000e+03 2.745000000000000000e+03 2.745000000000000000e+03 2.745000000000000000e+03 2.748000000000000000e+03 2.748000000000000000e+03 2.750000000000000000e+03 2.750000000000000000e+03 2.750000000000000000e+03 3.051000000000000000e+03 3.352000000000000000e+03 3.353000000000000000e+03 3.056000000000000000e+03 3.057000000000000000e+03 3.058000000000000000e+03 2.759000000000000000e+03 3.060000000000000000e+03 3.061000000000000000e+03 3.062000000000000000e+03 3.363000000000000000e+03 3.064000000000000000e+03 3.065000000000000000e+03 2.766000000000000000e+03 2.766000000000000000e+03 2.767000000000000000e+03 2.768000000000000000e+03 3.070000000000000000e+03 2.770000000000000000e+03 3.070000000000000000e+03 3.371000000000000000e+03 3.372000000000000000e+03 2.775000000000000000e+03 2.775000000000000000e+03 2.775000000000000000e+03 3.076000000000000000e+03 3.077000000000000000e+03 3.078000000000000000e+03 3.079000000000000000e+03 2.781000000000000000e+03 2.781000000000000000e+03 2.784000000000000000e+03 2.785000000000000000e+03 2.785000000000000000e+03 2.785000000000000000e+03 3.388000000000000000e+03 3.089000000000000000e+03 2.790000000000000000e+03 2.790000000000000000e+03 3.090000000000000000e+03 2.792000000000000000e+03 2.793000000000000000e+03 2.793000000000000000e+03 3.094000000000000000e+03 3.095000000000000000e+03 3.398000000000000000e+03 3.399000000000000000e+03 3.400000000000000000e+03 3.101000000000000000e+03 3.102000000000000000e+03 2.802000000000000000e+03 3.102000000000000000e+03 3.103000000000000000e+03 2.805000000000000000e+03 2.805000000000000000e+03 2.806000000000000000e+03 2.809000000000000000e+03 2.809000000000000000e+03 2.811000000000000000e+03 2.811000000000000000e+03 2.812000000000000000e+03 2.812000000000000000e+03 3.115000000000000000e+03 2.816000000000000000e+03 2.816000000000000000e+03 2.816000000000000000e+03 3.117000000000000000e+03 3.120000000000000000e+03 3.121000000000000000e+03 2.822000000000000000e+03 2.822000000000000000e+03 2.822000000000000000e+03 3.125000000000000000e+03 2.825000000000000000e+03 3.125000000000000000e+03 2.827000000000000000e+03 3.429000000000000000e+03 3.130000000000000000e+03 2.830000000000000000e+03 3.130000000000000000e+03 3.133000000000000000e+03 2.833000000000000000e+03 3.133000000000000000e+03 3.434000000000000000e+03 3.435000000000000000e+03 2.837000000000000000e+03
3.019000000000000000e+03 3.020000000000000000e+03 3.020000000000000000e+03 2.723000000000000000e+03 2.424000000000000000e+03 2.424000000000000000e+03 2.425000000000000000e+03 2.425000000000000000e+03 2.726000000000000000e+03 3.027000000000000000e+03 2.730000000000000000e+03 2.430000000000000000e+03 2.730000000000000000e+03 2.432000000000000000e+03 3.034000000000000000e+03 2.735000000000000000e+03 2.736000000000000000e+03 3.037000000000000000e+03 3.037000000000000000e+03 2.739000000000000000e+03 2.439000000000000000e+03 2.739000000000000000e+03 2.442000000000000000e+03 2.442000000000000000e+03 2.442000000000000000e+03 2.444000000000000000e+03 2.444000000000000000e+03 2.745000000000000000e+03 2.748000000000000000e+03 2.449000000000000000e+03 2.449000000000000000e+03 2.449000000000000000e+03 2.750000000000000000e+03 2.452000000000000000e+03 2.452000000000000000e+03 2.453000000000000000e+03 3.056000000000000000e+03 3.057000000000000000e+03 3.057000000000000000e+03 2.759000000000000000e+03 3.060000000000000000e+03 3.060000000000000000e+03 3.061000000000000000e+03 3.062000000000000000e+03 3.064000000000000000e+03 3.064000000000000000e+03 2.465000000000000000e+03 2.465000000000000000e+03 2.766000000000000000e+03 2.767000000000000000e+03 2.768000000000000000e+03 2.469000000000000000e+03 2.770000000000000000e+03 2.472000000000000000e+03 2.473000000000000000e+03 2.474000000000000000e+03 2.474000000000000000e+03 2.775000000000000000e+03 2.776000000000000000e+03 3.078000000000000000e+03 3.078000000000000000e+03 2.481000000000000000e+03 2.481000000000000000e+03 2.481000000000000000e+03 2.784000000000000000e+03 2.485000000000000000e+03 2.485000000000000000e+03 2.785000000000000000e+03 2.487000000000000000e+03 3.089000000000000000e+03 2.790000000000000000e+03 2.491000000000000000e+03 2.491000000000000000e+03 2.491000000000000000e+03 2.792000000000000000e+03 2.793000000000000000e+03 3.094000000000000000e+03 2.497000000000000000e+03 2.497000000000000000e+03 2.497000000000000000e+03 3.100000000000000000e+03 3.101000000000000000e+03 2.802000000000000000e+03 2.503000000000000000e+03 2.503000000000000000e+03 2.503000000000000000e+03 2.505000000000000000e+03 2.505000000000000000e+03 2.506000000000000000e+03 2.509000000000000000e+03 2.509000000000000000e+03 2.511000000000000000e+03 2.511000000000000000e+03 2.511000000000000000e+03 2.812000000000000000e+03 3.115000000000000000e+03 2.816000000000000000e+03 2.516000000000000000e+03 2.816000000000000000e+03 3.117000000000000000e+03 3.120000000000000000e+03 3.121000000000000000e+03 2.822000000000000000e+03 2.523000000000000000e+03 2.523000000000000000e+03 2.523000000000000000e+03 2.525000000000000000e+03 2.825000000000000000e+03 2.528000000000000000e+03 2.528000000000000000e+03 2.830000000000000000e+03 2.530000000000000000e+03 2.531000000000000000e+03 2.532000000000000000e+03 2.532000000000000000e+03 2.833000000000000000e+03 2.534000000000000000e+03 2.537000000000000000e+03 2.537000000000000000e+03
2.418000000000000000e+03 2.720000000000000000e+03 2.722000000000000000e+03 2.723000000000000000e+03 2.424000000000000000e+03 2.124000000000000000e+03 2.424000000000000000e+03 2.425000000000000000e+03 2.726000000000000000e+03 2.429000000000000000e+03 2.430000000000000000e+03 2.130000000000000000e+03 2.430000000000000000e+03 2.131000000000000000e+03 2.432000000000000000e+03 2.735000000000000000e+03 2.436000000000000000e+03 2.736000000000000000e+03 2.436000000000000000e+03 2.439000000000000000e+03 2.140000000000000000e+03 2.140000000000000000e+03 2.442000000000000000e+03 2.143000000000000000e+03 2.143000000000000000e+03 2.144000000000000000e+03 2.444000000000000000e+03 2.145000000000000000e+03 2.147000000000000000e+03 2.449000000000000000e+03 2.150000000000000000e+03 2.150000000000000000e+03 2.150000000000000000e+03 2.152000000000000000e+03 2.152000000000000000e+03 2.153000000000000000e+03 2.154000000000000000e+03 2.157000000000000000e+03 2.157000000000000000e+03 2.759000000000000000e+03 2.759000000000000000e+03 2.759000000000000000e+03 2.462000000000000000e+03 2.463000000000000000e+03 2.164000000000000000e+03 2.465000000000000000e+03 2.165000000000000000e+03 2.465000000000000000e+03 2.767000000000000000e+03 2.768000000000000000e+03 2.768000000000000000e+03 2.469000000000000000e+03 2.770000000000000000e+03 2.471000000000000000e+03 2.472000000000000000e+03 2.473000000000000000e+03 2.474000000000000000e+03 2.776000000000000000e+03 2.776000000000000000e+03 2.477000000000000000e+03 2.478000000000000000e+03 2.481000000000000000e+03 2.182000000000000000e+03 2.182000000000000000e+03 2.182000000000000000e+03 2.485000000000000000e+03 2.186000000000000000e+03 2.186000000000000000e+03 2.187000000000000000e+03 2.187000000000000000e+03 2.790000000000000000e+03 2.491000000000000000e+03 2.191000000000000000e+03 2.491000000000000000e+03 2.793000000000000000e+03 2.793000000000000000e+03 2.196000000000000000e+03 2.196000000000000000e+03 2.197000000000000000e+03 2.197000000000000000e+03 2.198000000000000000e+03 2.501000000000000000e+03 2.802000000000000000e+03 2.503000000000000000e+03 2.204000000000000000e+03 2.204000000000000000e+03 2.204000000000000000e+03 2.505000000000000000e+03 2.506000000000000000e+03 2.509000000000000000e+03 2.209000000000000000e+03 2.511000000000000000e+03 2.211000000000000000e+03 2.511000000000000000e+03 2.212000000000000000e+03 2.515000000000000000e+03 2.516000000000000000e+03 2.217000000000000000e+03 2.217000000000000000e+03 2.217000000000000000e+03 2.218000000000000000e+03 2.221000000000000000e+03 2.822000000000000000e+03 2.523000000000000000e+03 2.224000000000000000e+03 2.224000000000000000e+03 2.224000000000000000e+03 2.525000000000000000e+03 2.528000000000000000e+03 2.229000000000000000e+03 2.229000000000000000e+03 2.229000000000000000e+03 2.530000000000000000e+03 2.531000000000000000e+03 2.532000000000000000e+03 2.833000000000000000e+03 2.534000000000000000e+03 2.537000000000000000e+03 2.238000000000000000e+03
2.418000000000000000e+03 1.821000000000000000e+03 1.821000000000000000e+03 1.822000000000000000e+03 1.823000000000000000e+03 1.823000000000000000e+03 2.124000000000000000e+03 2.425000000000000000e+03 1.827000000000000000e+03 1.827000000000000000e+03 2.130000000000000000e+03 1.831000000000000000e+03 1.831000000000000000e+03 1.831000000000000000e+03 1.832000000000000000e+03 2.135000000000000000e+03 2.436000000000000000e+03 2.436000000000000000e+03 2.138000000000000000e+03 2.439000000000000000e+03 2.140000000000000000e+03 2.141000000000000000e+03 2.442000000000000000e+03 2.143000000000000000e+03 2.144000000000000000e+03 1.845000000000000000e+03 1.845000000000000000e+03 1.846000000000000000e+03 1.846000000000000000e+03 2.147000000000000000e+03 2.150000000000000000e+03 1.851000000000000000e+03 1.851000000000000000e+03 1.851000000000000000e+03 2.152000000000000000e+03 2.153000000000000000e+03 2.154000000000000000e+03 1.857000000000000000e+03 1.857000000000000000e+03 1.857000000000000000e+03 1.860000000000000000e+03 1.860000000000000000e+03 1.862000000000000000e+03 1.862000000000000000e+03 1.864000000000000000e+03 1.864000000000000000e+03 1.864000000000000000e+03 2.165000000000000000e+03 2.166000000000000000e+03 2.169000000000000000e+03 2.469000000000000000e+03 2.169000000000000000e+03 2.471000000000000000e+03 2.472000000000000000e+03 2.473000000000000000e+03 2.474000000000000000e+03 2.474000000000000000e+03 2.175000000000000000e+03 2.477000000000000000e+03 2.477000000000000000e+03 1.880000000000000000e+03 1.880000000000000000e+03 2.182000000000000000e+03 1.883000000000000000e+03 1.883000000000000000e+03 1.883000000000000000e+03 2.186000000000000000e+03 1.887000000000000000e+03 1.887000000000000000e+03 1.887000000000000000e+03 1.890000000000000000e+03 1.890000000000000000e+03 1.890000000000000000e+03 2.191000000000000000e+03 2.192000000000000000e+03 1.895000000000000000e+03 1.896000000000000000e+03 1.896000000000000000e+03 1.896000000000000000e+03 2.197000000000000000e+03 2.198000000000000000e+03 2.501000000000000000e+03 2.501000000000000000e+03 2.503000000000000000e+03 2.204000000000000000e+03 1.905000000000000000e+03 1.905000000000000000e+03 1.905000000000000000e+03 1.906000000000000000e+03 2.209000000000000000e+03 1.909000000000000000e+03 2.211000000000000000e+03 1.911000000000000000e+03 2.211000000000000000e+03 2.212000000000000000e+03 2.515000000000000000e+03 2.516000000000000000e+03 2.217000000000000000e+03 1.917000000000000000e+03 2.217000000000000000e+03 2.218000000000000000e+03 1.921000000000000000e+03 1.921000000000000000e+03 2.523000000000000000e+03 2.224000000000000000e+03 1.925000000000000000e+03 1.925000000000000000e+03 1.925000000000000000e+03 1.927000000000000000e+03 2.229000000000000000e+03 1.929000000000000000e+03 2.229000000000000000e+03 2.531000000000000000e+03 2.532000000000000000e+03 2.532000000000000000e+03 2.534000000000000000e+03 2.534000000000000000e+03 2.237000000000000000e+03 2.238000000000000000e+03
1.820000000000000000e+03 1.821000000000000000e+03 1.822000000000000000e+03 1.823000000000000000e+03 1.523000000000000000e+03 1.823000000000000000e+03 2.124000000000000000e+03 1.526000000000000000e+03 1.526000000000000000e+03 1.827000000000000000e+03 2.130000000000000000e+03 1.831000000000000000e+03 1.531000000000000000e+03 1.831000000000000000e+03 1.832000000000000000e+03 2.135000000000000000e+03 2.135000000000000000e+03 2.135000000000000000e+03 2.138000000000000000e+03 2.138000000000000000e+03 2.140000000000000000e+03 2.140000000000000000e+03 2.141000000000000000e+03 2.143000000000000000e+03 2.143000000000000000e+03 1.544000000000000000e+03 1.544000000000000000e+03 1.845000000000000000e+03 1.846000000000000000e+03 1.847000000000000000e+03 2.150000000000000000e+03 1.851000000000000000e+03 1.551000000000000000e+03 1.851000000000000000e+03 1.553000000000000000e+03 1.553000000000000000e+03 1.556000000000000000e+03 1.556000000000000000e+03 1.556000000000000000e+03 1.857000000000000000e+03 1.860000000000000000e+03 1.561000000000000000e+03 1.561000000000000000e+03 1.563000000000000000e+03 1.563000000000000000e+03 1.563000000000000000e+03 1.864000000000000000e+03 2.165000000000000000e+03 1.866000000000000000e+03 2.169000000000000000e+03 2.169000000000000000e+03 2.169000000000000000e+03 2.171000000000000000e+03 2.173000000000000000e+03 2.173000000000000000e+03 2.173000000000000000e+03 2.175000000000000000e+03 2.175000000000000000e+03 1.578000000000000000e+03 1.578000000000000000e+03 1.880000000000000000e+03 1.581000000000000000e+03 1.581000000000000000e+03 1.582000000000000000e+03 1.582000000000000000e+03 1.883000000000000000e+03 2.186000000000000000e+03 1.887000000000000000e+03 1.588000000000000000e+03 1.588000000000000000e+03 1.589000000000000000e+03 1.589000000000000000e+03 1.890000000000000000e+03 2.191000000000000000e+03 1.593000000000000000e+03 1.595000000000000000e+03 1.595000000000000000e+03 1.595000000000000000e+03 1.896000000000000000e+03 2.197000000000000000e+03 2.198000000000000000e+03 1.601000000000000000e+03 2.202000000000000000e+03 2.203000000000000000e+03 2.204000000000000000e+03 1.905000000000000000e+03 1.606000000000000000e+03 1.606000000000000000e+03 1.606000000000000000e+03 1.909000000000000000e+03 1.610000000000000000e+03 1.610000000000000000e+03 1.610000000000000000e+03 1.911000000000000000e+03 1.612000000000000000e+03 1.613000000000000000e+03 1.916000000000000000e+03 1.917000000000000000e+03 1.618000000000000000e+03 1.618000000000000000e+03 1.618000000000000000e+03 1.621000000000000000e+03 1.621000000000000000e+03 1.621000000000000000e+03 2.224000000000000000e+03 1.925000000000000000e+03 1.626000000000000000e+03 1.626000000000000000e+03 1.628000000000000000e+03 1.628000000000000000e+03 1.628000000000000000e+03 1.929000000000000000e+03 1.930000000000000000e+03 1.632000000000000000e+03 1.632000000000000000e+03 1.635000000000000000e+03 1.635000000000000000e+03 1.637000000000000000e+03 1.938000000000000000e+03
1.520000000000000000e+03 1.821000000000000000e+03 1.821000000000000000e+03 1.523000000000000000e+03 1.224000000000000000e+03 1.224000000000000000e+03 1.224000000000000000e+03 1.226000000000000000e+03 1.526000000000000000e+03 1.229000000000000000e+03 1.229000000000000000e+03 1.531000000000000000e+03 1.231000000000000000e+03 1.531000000000000000e+03 1.232000000000000000e+03 1.234000000000000000e+03 1.235000000000000000e+03 1.237000000000000000e+03 1.237000000000000000e+03 1.839000000000000000e+03 1.840000000000000000e+03 1.840000000000000000e+03 1.840000000000000000e+03 1.243000000000000000e+03 1.243000000000000000e+03 1.243000000000000000e+03 1.544000000000000000e+03 1.846000000000000000e+03 1.846000000000000000e+03 1.547000000000000000e+03 1.550000000000000000e+03 1.551000000000000000e+03 1.252000000000000000e+03 1.252000000000000000e+03 1.252000000000000000e+03 1.553000000000000000e+03 1.556000000000000000e+03 1.256000000000000000e+03 1.556000000000000000e+03 1.857000000000000000e+03 1.560000000000000000e+03 1.561000000000000000e+03 1.562000000000000000e+03 1.563000000000000000e+03 1.264000000000000000e+03 1.264000000000000000e+03 1.264000000000000000e+03 1.866000000000000000e+03 1.866000000000000000e+03 1.869000000000000000e+03 1.869000000000000000e+03 1.869000000000000000e+03 1.272000000000000000e+03 1.272000000000000000e+03 1.272000000000000000e+03 1.874000000000000000e+03 1.874000000000000000e+03 1.277000000000000000e+03 1.278000000000000000e+03 1.278000000000000000e+03 1.278000000000000000e+03 1.581000000000000000e+03 1.282000000000000000e+03 1.282000000000000000e+03 1.582000000000000000e+03 1.284000000000000000e+03 1.284000000000000000e+03 1.887000000000000000e+03 1.588000000000000000e+03 1.288000000000000000e+03 1.288000000000000000e+03 1.589000000000000000e+03 1.890000000000000000e+03 1.293000000000000000e+03 1.294000000000000000e+03 1.294000000000000000e+03 1.294000000000000000e+03 1.595000000000000000e+03 1.896000000000000000e+03 1.297000000000000000e+03 1.300000000000000000e+03 1.300000000000000000e+03 1.301000000000000000e+03 1.301000000000000000e+03 1.904000000000000000e+03 1.905000000000000000e+03 1.606000000000000000e+03 1.306000000000000000e+03 1.606000000000000000e+03 1.307000000000000000e+03 1.610000000000000000e+03 1.311000000000000000e+03 1.311000000000000000e+03 1.311000000000000000e+03 1.612000000000000000e+03 1.613000000000000000e+03 1.916000000000000000e+03 1.917000000000000000e+03 1.618000000000000000e+03 1.319000000000000000e+03 1.319000000000000000e+03 1.320000000000000000e+03 1.321000000000000000e+03 1.621000000000000000e+03 1.322000000000000000e+03 1.925000000000000000e+03 1.626000000000000000e+03 1.327000000000000000e+03 1.327000000000000000e+03 1.327000000000000000e+03 1.628000000000000000e+03 1.929000000000000000e+03 1.331000000000000000e+03 1.331000000000000000e+03 1.332000000000000000e+03 1.335000000000000000e+03 1.335000000000000000e+03 1.337000000000000000e+03 1.337000000000000000e+03
9.190000000000000000e+02 9.190000000000000000e+02 1.522000000000000000e+03 1.523000000000000000e+03 1.224000000000000000e+03 9.250000000000000000e+02 9.250000000000000000e+02 9.250000000000000000e+02 1.226000000000000000e+03 1.229000000000000000e+03 9.300000000000000000e+02 9.300000000000000000e+02 9.300000000000000000e+02 1.231000000000000000e+03 1.232000000000000000e+03 9.350000000000000000e+02 9.350000000000000000e+02 9.370000000000000000e+02 9.370000000000000000e+02 9.370000000000000000e+02 9.400000000000000000e+02 9.400000000000000000e+02 9.420000000000000000e+02 9.420000000000000000e+02 9.420000000000000000e+02 1.243000000000000000e+03 1.544000000000000000e+03 1.546000000000000000e+03 1.547000000000000000e+03 1.547000000000000000e+03 1.550000000000000000e+03 1.551000000000000000e+03 1.252000000000000000e+03 9.520000000000000000e+02 1.252000000000000000e+03 1.253000000000000000e+03 1.256000000000000000e+03 9.560000000000000000e+02 1.256000000000000000e+03 9.580000000000000000e+02 1.560000000000000000e+03 1.561000000000000000e+03 1.561000000000000000e+03 1.563000000000000000e+03 1.264000000000000000e+03 9.640000000000000000e+02 1.264000000000000000e+03 9.650000000000000000e+02 9.660000000000000000e+02 9.690000000000000000e+02 9.690000000000000000e+02 9.700000000000000000e+02 9.720000000000000000e+02 9.720000000000000000e+02 9.720000000000000000e+02 9.740000000000000000e+02 9.740000000000000000e+02 1.277000000000000000e+03 9.780000000000000000e+02 9.780000000000000000e+02 1.278000000000000000e+03 1.581000000000000000e+03 1.282000000000000000e+03 9.830000000000000000e+02 9.830000000000000000e+02 9.830000000000000000e+02 1.284000000000000000e+03 9.870000000000000000e+02 1.288000000000000000e+03 9.880000000000000000e+02 1.288000000000000000e+03 1.589000000000000000e+03 9.910000000000000000e+02 1.293000000000000000e+03 1.294000000000000000e+03 9.950000000000000000e+02 9.950000000000000000e+02 9.950000000000000000e+02 9.960000000000000000e+02 1.297000000000000000e+03 1.300000000000000000e+03 1.001000000000000000e+03 1.001000000000000000e+03 1.002000000000000000e+03 1.002000000000000000e+03 1.305000000000000000e+03 1.306000000000000000e+03 1.007000000000000000e+03 1.007000000000000000e+03 1.007000000000000000e+03 1.010000000000000000e+03 1.010000000000000000e+03 1.010000000000000000e+03 1.311000000000000000e+03 1.612000000000000000e+03 1.014000000000000000e+03 1.016000000000000000e+03 1.016000000000000000e+03 1.618000000000000000e+03 1.319000000000000000e+03 1.320000000000000000e+03 1.321000000000000000e+03 1.022000000000000000e+03 1.022000000000000000e+03 1.022000000000000000e+03 1.023000000000000000e+03 1.626000000000000000e+03 1.327000000000000000e+03 1.027000000000000000e+03 1.327000000000000000e+03 1.628000000000000000e+03 1.031000000000000000e+03 1.031000000000000000e+03 1.031000000000000000e+03 1.332000000000000000e+03 1.335000000000000000e+03 1.036000000000000000e+03 1.036000000000000000e+03 1.036000000000000000e+03
6.180000000000000000e+02 9.190000000000000000e+02 9.220000000000000000e+02 1.223000000000000000e+03 1.224000000000000000e+03 9.250000000000000000e+02 6.250000000000000000e+02 9.250000000000000000e+02 1.226000000000000000e+03 1.229000000000000000e+03 9.300000000000000000e+02 6.310000000000000000e+02 6.310000000000000000e+02 6.310000000000000000e+02 6.320000000000000000e+02 9.350000000000000000e+02 6.360000000000000000e+02 6.360000000000000000e+02 6.360000000000000000e+02 9.370000000000000000e+02 9.400000000000000000e+02 6.410000000000000000e+02 6.410000000000000000e+02 6.410000000000000000e+02 9.420000000000000000e+02 1.243000000000000000e+03 1.244000000000000000e+03 6.470000000000000000e+02 6.470000000000000000e+02 6.470000000000000000e+02 6.490000000000000000e+02 6.510000000000000000e+02 9.520000000000000000e+02 6.520000000000000000e+02 9.520000000000000000e+02 6.540000000000000000e+02 9.560000000000000000e+02 6.560000000000000000e+02 6.570000000000000000e+02 6.570000000000000000e+02 6.600000000000000000e+02 6.600000000000000000e+02 1.262000000000000000e+03 1.262000000000000000e+03 9.640000000000000000e+02 6.640000000000000000e+02 9.640000000000000000e+02 9.650000000000000000e+02 9.660000000000000000e+02 9.690000000000000000e+02 6.700000000000000000e+02 6.700000000000000000e+02 6.700000000000000000e+02 6.730000000000000000e+02 6.730000000000000000e+02 6.730000000000000000e+02 9.740000000000000000e+02 6.760000000000000000e+02 9.780000000000000000e+02 6.780000000000000000e+02 9.780000000000000000e+02 6.800000000000000000e+02 1.282000000000000000e+03 9.830000000000000000e+02 6.830000000000000000e+02 9.830000000000000000e+02 9.840000000000000000e+02 9.870000000000000000e+02 9.880000000000000000e+02 6.880000000000000000e+02 9.880000000000000000e+02 6.910000000000000000e+02 6.910000000000000000e+02 6.910000000000000000e+02 1.294000000000000000e+03 9.950000000000000000e+02 6.950000000000000000e+02 9.950000000000000000e+02 9.960000000000000000e+02 6.990000000000000000e+02 6.990000000000000000e+02 1.001000000000000000e+03 7.020000000000000000e+02 7.020000000000000000e+02 7.020000000000000000e+02 7.040000000000000000e+02 7.060000000000000000e+02 7.060000000000000000e+02 7.060000000000000000e+02 1.007000000000000000e+03 1.010000000000000000e+03 7.110000000000000000e+02 7.110000000000000000e+02 7.110000000000000000e+02 7.140000000000000000e+02 7.140000000000000000e+02 7.140000000000000000e+02 7.170000000000000000e+02 7.170000000000000000e+02 1.319000000000000000e+03 1.319000000000000000e+03 1.320000000000000000e+03 1.022000000000000000e+03 7.220000000000000000e+02 1.022000000000000000e+03 1.023000000000000000e+03 1.026000000000000000e+03 1.027000000000000000e+03 7.280000000000000000e+02 7.280000000000000000e+02 7.280000000000000000e+02 1.031000000000000000e+03 7.310000000000000000e+02 1.031000000000000000e+03 7.340000000000000000e+02 7.350000000000000000e+02 7.350000000000000000e+02 7.350000000000000000e+02 1.036000000000000000e+03
6.180000000000000000e+02 3.200000000000000000e+02 3.220000000000000000e+02 3.220000000000000000e+02 3.220000000000000000e+02 6.250000000000000000e+02 3.260000000000000000e+02 3.260000000000000000e+02 3.260000000000000000e+02 3.290000000000000000e+02 3.290000000000000000e+02 6.310000000000000000e+02 3.310000000000000000e+02 6.310000000000000000e+02 6.320000000000000000e+02 3.340000000000000000e+02 6.360000000000000000e+02 3.370000000000000000e+02 3.370000000000000000e+02 3.370000000000000000e+02 3.390000000000000000e+02 6.410000000000000000e+02 3.410000000000000000e+02 6.410000000000000000e+02 9.420000000000000000e+02 3.440000000000000000e+02 3.460000000000000000e+02 3.460000000000000000e+02 3.460000000000000000e+02 3.480000000000000000e+02 3.480000000000000000e+02 6.510000000000000000e+02 6.520000000000000000e+02 3.530000000000000000e+02 3.530000000000000000e+02 3.530000000000000000e+02 6.560000000000000000e+02 3.570000000000000000e+02 3.570000000000000000e+02 3.570000000000000000e+02 3.600000000000000000e+02 3.600000000000000000e+02 3.600000000000000000e+02 3.630000000000000000e+02 3.630000000000000000e+02 3.630000000000000000e+02 6.640000000000000000e+02 9.650000000000000000e+02 3.670000000000000000e+02 3.680000000000000000e+02 6.700000000000000000e+02 3.700000000000000000e+02 6.700000000000000000e+02 6.730000000000000000e+02 3.730000000000000000e+02 6.730000000000000000e+02 3.760000000000000000e+02 3.760000000000000000e+02 6.780000000000000000e+02 3.790000000000000000e+02 3.790000000000000000e+02 3.790000000000000000e+02 3.800000000000000000e+02 6.830000000000000000e+02 3.830000000000000000e+02 6.830000000000000000e+02 3.860000000000000000e+02 3.860000000000000000e+02 6.880000000000000000e+02 3.880000000000000000e+02 6.880000000000000000e+02 6.910000000000000000e+02 3.920000000000000000e+02 3.920000000000000000e+02 3.920000000000000000e+02 6.950000000000000000e+02 3.950000000000000000e+02 6.950000000000000000e+02 3.970000000000000000e+02 3.990000000000000000e+02 3.990000000000000000e+02 4.000000000000000000e+02 7.020000000000000000e+02 4.020000000000000000e+02 7.020000000000000000e+02 4.050000000000000000e+02 4.050000000000000000e+02 4.050000000000000000e+02 7.060000000000000000e+02 1.007000000000000000e+03 4.100000000000000000e+02 4.100000000000000000e+02 4.100000000000000000e+02 7.110000000000000000e+02 4.130000000000000000e+02 4.130000000000000000e+02 4.160000000000000000e+02 4.160000000000000000e+02 4.160000000000000000e+02 7.170000000000000000e+02 4.190000000000000000e+02 4.210000000000000000e+02 4.210000000000000000e+02 4.210000000000000000e+02 7.220000000000000000e+02 4.250000000000000000e+02 4.250000000000000000e+02 4.270000000000000000e+02 4.270000000000000000e+02 4.270000000000000000e+02 7.280000000000000000e+02 7.310000000000000000e+02 4.310000000000000000e+02 7.310000000000000000e+02 4.330000000000000000e+02 7.350000000000000000e+02 4.360000000000000000e+02 4.360000000000000000e+02 4.360000000000000000e+02
