ncols 119
nrows 32
xllcorner 930
yllcorner 560
cellsize 10.0
1.600000000000000000e+02 1.600000000000000000e+02 1.600000000000000000e+02 1.600000000000000000e+02 1.600000000000000000e+02 8.000000000000000000e+01 8.000000000000000000e+01 8.000000000000000000e+01 8.000000000000000000e+01 8.000000000000000000e+01 8.000000000000000000e+01 8.000000000000000000e+01 8.000000000000000000e+01 2.400000000000000000e+02 1.600000000000000000e+02 8.000000000000000000e+01 8.000000000000000000e+01 8.000000000000000000e+01 8.000000000000000000e+01 1.600000000000000000e+02 1.600000000000000000e+02 8.000000000000000000e+01 8.000000000000000000e+01 8.000000000000000000e+01 8.000000000000000000e+01 8.000000000000000000e+01 8.000000000000000000e+01 8.000000000000000000e+01 8.000000000000000000e+01 8.000000000000000000e+01 8.000000000000000000e+01 8.000000000000000000e+01 8.000000000000000000e+01 8.000000000000000000e+01 8.000000000000000000e+01 8.000000000000000000e+01 8.000000000000000000e+01 1.528000000000000000e+04 3.064000000000000000e+04 3.248000000000000000e+04 3.432000000000000000e+04 8.000000000000000000e+01 9.600000000000000000e+02 9.600000000000000000e+02 9.600000000000000000e+02 8.800000000000000000e+02 7.200000000000000000e+02 4.800000000000000000e+02 2.400000000000000000e+02 1.600000000000000000e+02 8.000000000000000000e+01 8.000000000000000000e+01 1.200000000000000000e+04 8.000000000000000000e+01 1.600000000000000000e+02 8.800000000000000000e+02 1.600000000000000000e+02 8.000000000000000000e+01 8.000000000000000000e+02 1.680000000000000000e+03 4.800000000000000000e+02 4.000000000000000000e+02 7.200000000000000000e+02 4.000000000000000000e+02 1.600000000000000000e+02 8.000000000000000000e+01 8.000000000000000000e+01 1.600000000000000000e+02 8.000000000000000000e+01 1.600000000000000000e+02 2.400000000000000000e+02 3.200000000000000000e+02 4.000000000000000000e+02 2.640000000000000000e+03 1.080000000000000000e+04 7.200000000000000000e+02 6.400000000000000000e+02 5.600000000000000000e+02 4.800000000000000000e+02 4.000000000000000000e+02 3.200000000000000000e+02 2.400000000000000000e+02 1.600000000000000000e+02 8.000000000000000000e+01 8.000000000000000000e+01 1.600000000000000000e+02 4.000000000000000000e+02 7.200000000000000000e+02 1.120000000000000000e+03 1.440000000000000000e+03 8.640000000000000000e+03 2.400000000000000000e+02 1.600000000000000000e+02 8.000000000000000000e+01 3.200000000000000000e+02 6.400000000000000000e+02 8.800000000000000000e+02 9.600000000000000000e+02 9.600000000000000000e+02 8.000000000000000000e+01 1.600000000000000000e+02 2.640000000000000000e+03 9.600000000000000000e+02 8.000000000000000000e+01 1.776000000000000000e+04 2.480000000000000000e+03 2.240000000000000000e+03 8.000000000000000000e+02 7.200000000000000000e+02 6.400000000000000000e+02 5.600000000000000000e+02 4.800000000000000000e+02 4.000000000000000000e+02 3.200000000000000000e+02 2.400000000000000000e+02 1.600000000000000000e+02 8.000000000000000000e+01 8.000000000000000000e+01 1.600000000000000000e+02
8.000000000000000000e+01 8.000000000000000000e+01 8.000000000000000000e+01 8.000000000000000000e+01 8.000000000000000000e+01 8.000000000000000000e+01 8.000000000000000000e+01 8.000000000000000000e+01 8.000000000000000000e+01 8.000000000000000000e+01 8.000000000000000000e+01 8.000000000000000000e+01 8.000000000000000000e+01 8.000000000000000000e+01 8.000000000000000000e+01 1.600000000000000000e+02 1.600000000000000000e+02 1.600000000000000000e+02 2.400000000000000000e+02 2.400000000000000000e+02 1.600000000000000000e+02 8.000000000000000000e+01 8.000000000000000000e+01 8.000000000000000000e+01 1.600000000000000000e+02 2.400000000000000000e+02 3.200000000000000000e+02 4.000000000000000000e+02 4.800000000000000000e+02 5.600000000000000000e+02 6.400000000000000000e+02 7.200000000000000000e+02 8.000000000000000000e+02 8.800000000000000000e+02 9.600000000000000000e+02 1.040000000000000000e+03 1.120000000000000000e+03 1.368000000000000000e+04 6.400000000000000000e+02 8.000000000000000000e+01 1.600000000000000000e+02 3.632000000000000000e+04 3.784000000000000000e+04 3.944000000000000000e+04 4.088000000000000000e+04 4.216000000000000000e+04 4.304000000000000000e+04 4.464000000000000000e+04 4.528000000000000000e+04 4.568000000000000000e+04 4.592000000000000000e+04 4.632000000000000000e+04 5.848000000000000000e+04 2.400000000000000000e+02 9.600000000000000000e+02 2.400000000000000000e+02 8.000000000000000000e+01 1.600000000000000000e+02 8.800000000000000000e+02 3.920000000000000000e+03 1.680000000000000000e+03 1.200000000000000000e+03 4.000000000000000000e+02 3.200000000000000000e+02 2.400000000000000000e+02 8.000000000000000000e+01 8.000000000000000000e+01 1.600000000000000000e+02 2.400000000000000000e+02 8.000000000000000000e+01 8.000000000000000000e+01 8.000000000000000000e+01 8.000000000000000000e+01 8.000000000000000000e+01 1.432000000000000000e+04 7.200000000000000000e+02 6.400000000000000000e+02 5.600000000000000000e+02 4.800000000000000000e+02 4.000000000000000000e+02 3.200000000000000000e+02 2.400000000000000000e+02 1.600000000000000000e+02 8.000000000000000000e+01 8.000000000000000000e+01 1.600000000000000000e+02 2.400000000000000000e+02 3.200000000000000000e+02 4.000000000000000000e+02 4.800000000000000000e+02 1.064000000000000000e+04 4.800000000000000000e+02 1.600000000000000000e+02 8.000000000000000000e+01 4.000000000000000000e+02 7.200000000000000000e+02 9.600000000000000000e+02 1.040000000000000000e+03 1.040000000000000000e+03 1.600000000000000000e+02 8.000000000000000000e+01 2.880000000000000000e+03 1.040000000000000000e+03 1.896000000000000000e+04 1.040000000000000000e+03 9.600000000000000000e+02 8.800000000000000000e+02 8.000000000000000000e+02 7.200000000000000000e+02 6.400000000000000000e+02 5.600000000000000000e+02 4.800000000000000000e+02 4.000000000000000000e+02 3.200000000000000000e+02 2.400000000000000000e+02 1.600000000000000000e+02 8.000000000000000000e+01 1.600000000000000000e+02 2.400000000000000000e+02
8.000000000000000000e+01 8.000000000000000000e+01 8.000000000000000000e+01 8.000000000000000000e+01 8.000000000000000000e+01 1.600000000000000000e+02 1.600000000000000000e+02 1.600000000000000000e+02 1.600000000000000000e+02 1.600000000000000000e+02 1.600000000000000000e+02 1.600000000000000000e+02 1.600000000000000000e+02 1.600000000000000000e+02 2.400000000000000000e+02 2.400000000000000000e+02 2.400000000000000000e+02 3.200000000000000000e+02 3.200000000000000000e+02 2.400000000000000000e+02 1.600000000000000000e+02 1.600000000000000000e+02 8.000000000000000000e+01 8.000000000000000000e+01 1.600000000000000000e+02 2.400000000000000000e+02 3.200000000000000000e+02 4.000000000000000000e+02 4.800000000000000000e+02 5.600000000000000000e+02 6.400000000000000000e+02 7.200000000000000000e+02 8.000000000000000000e+02 8.000000000000000000e+01 8.000000000000000000e+01 1.600000000000000000e+02 1.184000000000000000e+04 6.400000000000000000e+02 5.600000000000000000e+02 8.000000000000000000e+01 1.600000000000000000e+02 1.520000000000000000e+03 4.800000000000000000e+02 5.600000000000000000e+02 4.000000000000000000e+02 3.200000000000000000e+02 8.000000000000000000e+01 1.040000000000000000e+03 3.200000000000000000e+02 1.600000000000000000e+02 8.000000000000000000e+01 2.400000000000000000e+02 4.800000000000000000e+02 6.056000000000000000e+04 3.200000000000000000e+02 1.600000000000000000e+02 8.000000000000000000e+01 2.400000000000000000e+02 5.440000000000000000e+03 5.600000000000000000e+02 4.800000000000000000e+02 4.000000000000000000e+02 3.200000000000000000e+02 2.400000000000000000e+02 1.600000000000000000e+02 8.000000000000000000e+01 8.000000000000000000e+01 1.600000000000000000e+02 2.400000000000000000e+02 3.200000000000000000e+02 1.600000000000000000e+02 1.600000000000000000e+02 1.600000000000000000e+02 1.600000000000000000e+02 1.528000000000000000e+04 7.200000000000000000e+02 6.400000000000000000e+02 5.600000000000000000e+02 4.800000000000000000e+02 4.000000000000000000e+02 3.200000000000000000e+02 2.400000000000000000e+02 1.600000000000000000e+02 1.600000000000000000e+02 8.000000000000000000e+01 8.000000000000000000e+01 1.600000000000000000e+02 2.400000000000000000e+02 3.200000000000000000e+02 4.000000000000000000e+02 4.800000000000000000e+02 1.136000000000000000e+04 1.600000000000000000e+02 8.000000000000000000e+01 4.800000000000000000e+02 8.000000000000000000e+02 1.040000000000000000e+03 1.120000000000000000e+03 1.120000000000000000e+03 2.400000000000000000e+02 8.000000000000000000e+01 3.040000000000000000e+03 2.112000000000000000e+04 1.040000000000000000e+03 9.600000000000000000e+02 8.800000000000000000e+02 8.000000000000000000e+02 7.200000000000000000e+02 6.400000000000000000e+02 5.600000000000000000e+02 4.800000000000000000e+02 4.000000000000000000e+02 3.200000000000000000e+02 2.400000000000000000e+02 1.600000000000000000e+02 8.000000000000000000e+01 8.000000000000000000e+01 8.000000000000000000e+01 4.800000000000000000e+02
1.600000000000000000e+02 1.600000000000000000e+02 1.600000000000000000e+02 1.600000000000000000e+02 2.400000000000000000e+02 2.400000000000000000e+02 2.400000000000000000e+02 2.400000000000000000e+02 2.400000000000000000e+02 2.400000000000000000e+02 2.400000000000000000e+02 2.400000000000000000e+02 2.400000000000000000e+02 3.200000000000000000e+02 3.200000000000000000e+02 3.200000000000000000e+02 4.000000000000000000e+02 4.000000000000000000e+02 3.200000000000000000e+02 2.400000000000000000e+02 2.400000000000000000e+02 1.600000000000000000e+02 8.000000000000000000e+01 8.000000000000000000e+01 1.600000000000000000e+02 2.400000000000000000e+02 3.200000000000000000e+02 4.000000000000000000e+02 4.800000000000000000e+02 5.600000000000000000e+02 6.400000000000000000e+02 7.200000000000000000e+02 8.000000000000000000e+02 1.680000000000000000e+03 1.840000000000000000e+03 1.144000000000000000e+04 1.600000000000000000e+02 5.600000000000000000e+02 4.800000000000000000e+02 8.000000000000000000e+01 1.600000000000000000e+02 1.280000000000000000e+03 4.000000000000000000e+02 4.800000000000000000e+02 3.200000000000000000e+02 2.400000000000000000e+02 8.000000000000000000e+01 8.800000000000000000e+02 2.400000000000000000e+02 8.000000000000000000e+01 1.600000000000000000e+02 4.000000000000000000e+02 3.200000000000000000e+02 8.000000000000000000e+01 6.128000000000000000e+04 8.000000000000000000e+01 1.600000000000000000e+02 6.320000000000000000e+03 5.600000000000000000e+02 4.800000000000000000e+02 4.000000000000000000e+02 3.200000000000000000e+02 2.400000000000000000e+02 1.600000000000000000e+02 8.000000000000000000e+01 8.000000000000000000e+01 8.000000000000000000e+01 2.400000000000000000e+02 4.800000000000000000e+02 8.000000000000000000e+02 1.200000000000000000e+03 1.440000000000000000e+03 1.680000000000000000e+03 1.920000000000000000e+03 1.608000000000000000e+04 7.200000000000000000e+02 6.400000000000000000e+02 5.600000000000000000e+02 4.800000000000000000e+02 4.000000000000000000e+02 3.200000000000000000e+02 2.400000000000000000e+02 2.400000000000000000e+02 1.600000000000000000e+02 8.000000000000000000e+01 8.000000000000000000e+01 1.600000000000000000e+02 2.400000000000000000e+02 3.200000000000000000e+02 4.000000000000000000e+02 4.800000000000000000e+02 1.208000000000000000e+04 1.600000000000000000e+02 8.000000000000000000e+01 5.600000000000000000e+02 8.800000000000000000e+02 1.120000000000000000e+03 1.200000000000000000e+03 1.200000000000000000e+03 3.200000000000000000e+02 8.000000000000000000e+01 2.536000000000000000e+04 1.040000000000000000e+03 9.600000000000000000e+02 8.800000000000000000e+02 8.000000000000000000e+02 7.200000000000000000e+02 6.400000000000000000e+02 5.600000000000000000e+02 4.800000000000000000e+02 4.000000000000000000e+02 3.200000000000000000e+02 2.400000000000000000e+02 1.600000000000000000e+02 8.000000000000000000e+01 8.000000000000000000e+01 8.000000000000000000e+01 1.600000000000000000e+02 6.400000000000000000e+02
2.400000000000000000e+02 2.400000000000000000e+02 8.000000000000000000e+01 4.800000000000000000e+02 3.200000000000000000e+02 3.200000000000000000e+02 3.200000000000000000e+02 3.200000000000000000e+02 3.200000000000000000e+02 3.200000000000000000e+02 3.200000000000000000e+02 3.200000000000000000e+02 4.000000000000000000e+02 8.000000000000000000e+01 3.200000000000000000e+03 2.480000000000000000e+03 2.000000000000000000e+03 1.520000000000000000e+03 1.120000000000000000e+03 8.000000000000000000e+02 4.800000000000000000e+02 2.400000000000000000e+02 8.000000000000000000e+01 8.000000000000000000e+01 1.600000000000000000e+02 2.400000000000000000e+02 3.200000000000000000e+02 4.000000000000000000e+02 4.800000000000000000e+02 5.600000000000000000e+02 6.400000000000000000e+02 7.200000000000000000e+02 8.000000000000000000e+02 8.800000000000000000e+02 8.480000000000000000e+03 1.040000000000000000e+03 8.000000000000000000e+01 4.800000000000000000e+02 4.000000000000000000e+02 8.000000000000000000e+01 1.600000000000000000e+02 1.040000000000000000e+03 3.200000000000000000e+02 4.000000000000000000e+02 2.400000000000000000e+02 1.600000000000000000e+02 8.000000000000000000e+01 7.200000000000000000e+02 1.600000000000000000e+02 8.000000000000000000e+01 3.200000000000000000e+02 2.400000000000000000e+02 1.600000000000000000e+02 3.200000000000000000e+02 6.176000000000000000e+04 8.000000000000000000e+01 7.040000000000000000e+03 4.800000000000000000e+02 4.000000000000000000e+02 3.200000000000000000e+02 2.400000000000000000e+02 1.600000000000000000e+02 8.000000000000000000e+01 8.000000000000000000e+01 1.600000000000000000e+02 8.000000000000000000e+01 8.000000000000000000e+01 8.000000000000000000e+01 1.600000000000000000e+02 2.400000000000000000e+02 3.200000000000000000e+02 4.000000000000000000e+02 4.800000000000000000e+02 5.600000000000000000e+02 1.936000000000000000e+04 7.200000000000000000e+02 6.400000000000000000e+02 5.600000000000000000e+02 4.800000000000000000e+02 4.000000000000000000e+02 3.200000000000000000e+02 3.200000000000000000e+02 2.400000000000000000e+02 1.600000000000000000e+02 8.000000000000000000e+01 8.000000000000000000e+01 8.000000000000000000e+01 1.600000000000000000e+02 2.400000000000000000e+02 3.200000000000000000e+02 4.000000000000000000e+02 1.320000000000000000e+04 1.600000000000000000e+02 8.000000000000000000e+01 6.400000000000000000e+02 9.600000000000000000e+02 1.200000000000000000e+03 1.280000000000000000e+03 1.280000000000000000e+03 4.000000000000000000e+02 3.008000000000000000e+04 4.240000000000000000e+03 3.840000000000000000e+03 3.360000000000000000e+03 2.880000000000000000e+03 2.400000000000000000e+03 2.000000000000000000e+03 1.600000000000000000e+03 1.280000000000000000e+03 9.600000000000000000e+02 7.200000000000000000e+02 4.800000000000000000e+02 3.200000000000000000e+02 1.600000000000000000e+02 8.000000000000000000e+01 8.000000000000000000e+01 1.600000000000000000e+02 1.600000000000000000e+02 8.800000000000000000e+02
1.576000000000000000e+04 1.504000000000000000e+04 1.432000000000000000e+04 1.328000000000000000e+04 1.248000000000000000e+04 1.176000000000000000e+04 1.104000000000000000e+04 1.032000000000000000e+04 9.600000000000000000e+03 8.880000000000000000e+03 8.160000000000000000e+03 7.440000000000000000e+03 6.640000000000000000e+03 6.160000000000000000e+03 2.560000000000000000e+03 2.080000000000000000e+03 1.760000000000000000e+03 1.440000000000000000e+03 1.120000000000000000e+03 8.000000000000000000e+02 4.800000000000000000e+02 1.600000000000000000e+02 8.000000000000000000e+01 8.000000000000000000e+01 1.600000000000000000e+02 2.400000000000000000e+02 3.200000000000000000e+02 4.000000000000000000e+02 4.800000000000000000e+02 5.600000000000000000e+02 6.400000000000000000e+02 7.200000000000000000e+02 8.000000000000000000e+02 6.960000000000000000e+03 5.600000000000000000e+02 8.800000000000000000e+02 8.000000000000000000e+01 4.000000000000000000e+02 3.200000000000000000e+02 8.000000000000000000e+01 1.600000000000000000e+02 8.000000000000000000e+02 2.400000000000000000e+02 3.200000000000000000e+02 1.600000000000000000e+02 8.000000000000000000e+01 2.400000000000000000e+02 4.000000000000000000e+02 8.000000000000000000e+01 2.400000000000000000e+02 1.600000000000000000e+02 8.000000000000000000e+01 8.000000000000000000e+01 8.000000000000000000e+01 8.000000000000000000e+01 6.944000000000000000e+04 4.000000000000000000e+02 3.200000000000000000e+02 2.400000000000000000e+02 1.600000000000000000e+02 8.000000000000000000e+01 8.000000000000000000e+01 1.600000000000000000e+02 2.400000000000000000e+02 1.600000000000000000e+02 8.000000000000000000e+01 8.000000000000000000e+01 1.600000000000000000e+02 8.000000000000000000e+01 8.000000000000000000e+01 8.000000000000000000e+01 8.000000000000000000e+01 1.600000000000000000e+02 2.400000000000000000e+02 2.040000000000000000e+04 7.200000000000000000e+02 6.400000000000000000e+02 5.600000000000000000e+02 4.800000000000000000e+02 4.000000000000000000e+02 4.000000000000000000e+02 3.200000000000000000e+02 2.400000000000000000e+02 1.600000000000000000e+02 8.000000000000000000e+01 8.000000000000000000e+01 1.600000000000000000e+02 2.400000000000000000e+02 3.200000000000000000e+02 4.000000000000000000e+02 4.800000000000000000e+02 5.600000000000000000e+02 1.352000000000000000e+04 8.000000000000000000e+01 7.200000000000000000e+02 1.040000000000000000e+03 1.280000000000000000e+03 1.360000000000000000e+03 1.360000000000000000e+03 3.112000000000000000e+04 3.200000000000000000e+02 3.200000000000000000e+02 3.200000000000000000e+02 4.000000000000000000e+02 4.000000000000000000e+02 4.000000000000000000e+02 3.200000000000000000e+02 3.200000000000000000e+02 2.400000000000000000e+02 2.400000000000000000e+02 1.600000000000000000e+02 1.600000000000000000e+02 8.000000000000000000e+01 8.000000000000000000e+01 8.000000000000000000e+01 8.000000000000000000e+01 1.600000000000000000e+02 2.400000000000000000e+02 1.120000000000000000e+03
1.120000000000000000e+03 4.000000000000000000e+02 4.000000000000000000e+02 4.000000000000000000e+02 4.000000000000000000e+02 3.200000000000000000e+02 3.200000000000000000e+02 3.200000000000000000e+02 3.200000000000000000e+02 3.200000000000000000e+02 3.200000000000000000e+02 3.200000000000000000e+02 3.200000000000000000e+02 3.200000000000000000e+02 3.200000000000000000e+02 4.000000000000000000e+02 2.400000000000000000e+02 2.400000000000000000e+02 2.400000000000000000e+02 2.400000000000000000e+02 2.400000000000000000e+02 2.400000000000000000e+02 8.000000000000000000e+01 8.000000000000000000e+01 1.600000000000000000e+02 2.400000000000000000e+02 3.200000000000000000e+02 4.000000000000000000e+02 4.800000000000000000e+02 5.600000000000000000e+02 6.400000000000000000e+02 7.200000000000000000e+02 5.520000000000000000e+03 5.600000000000000000e+02 4.800000000000000000e+02 7.200000000000000000e+02 8.000000000000000000e+01 3.200000000000000000e+02 2.400000000000000000e+02 8.000000000000000000e+01 1.600000000000000000e+02 5.600000000000000000e+02 1.600000000000000000e+02 2.400000000000000000e+02 8.000000000000000000e+01 1.600000000000000000e+02 1.600000000000000000e+02 1.600000000000000000e+02 1.600000000000000000e+02 8.000000000000000000e+01 8.000000000000000000e+01 1.600000000000000000e+02 2.400000000000000000e+02 3.200000000000000000e+02 4.000000000000000000e+02 7.000000000000000000e+04 8.000000000000000000e+01 8.000000000000000000e+01 8.000000000000000000e+01 8.000000000000000000e+01 1.600000000000000000e+02 2.400000000000000000e+02 3.200000000000000000e+02 2.400000000000000000e+02 1.600000000000000000e+02 8.000000000000000000e+01 8.000000000000000000e+01 1.600000000000000000e+02 4.000000000000000000e+02 5.600000000000000000e+02 7.200000000000000000e+02 8.800000000000000000e+02 8.000000000000000000e+01 8.000000000000000000e+01 2.128000000000000000e+04 7.200000000000000000e+02 6.400000000000000000e+02 5.600000000000000000e+02 4.800000000000000000e+02 4.800000000000000000e+02 4.000000000000000000e+02 3.200000000000000000e+02 2.400000000000000000e+02 1.600000000000000000e+02 1.600000000000000000e+02 8.000000000000000000e+01 8.000000000000000000e+01 1.600000000000000000e+02 2.400000000000000000e+02 3.200000000000000000e+02 4.000000000000000000e+02 4.800000000000000000e+02 1.464000000000000000e+04 1.600000000000000000e+02 8.000000000000000000e+02 1.120000000000000000e+03 1.360000000000000000e+03 3.456000000000000000e+04 3.176000000000000000e+04 2.400000000000000000e+02 2.400000000000000000e+02 2.400000000000000000e+02 2.400000000000000000e+02 2.400000000000000000e+02 3.200000000000000000e+02 3.200000000000000000e+02 3.200000000000000000e+02 2.400000000000000000e+02 2.400000000000000000e+02 1.600000000000000000e+02 1.600000000000000000e+02 8.000000000000000000e+01 8.000000000000000000e+01 8.000000000000000000e+01 8.000000000000000000e+01 1.600000000000000000e+02 1.600000000000000000e+02 2.400000000000000000e+02 1.440000000000000000e+03
7.200000000000000000e+02 3.200000000000000000e+02 3.200000000000000000e+02 3.200000000000000000e+02 3.200000000000000000e+02 3.200000000000000000e+02 2.400000000000000000e+02 2.400000000000000000e+02 2.400000000000000000e+02 2.400000000000000000e+02 2.400000000000000000e+02 2.400000000000000000e+02 2.400000000000000000e+02 2.400000000000000000e+02 2.400000000000000000e+02 2.400000000000000000e+02 3.200000000000000000e+02 1.600000000000000000e+02 1.600000000000000000e+02 1.600000000000000000e+02 1.600000000000000000e+02 1.600000000000000000e+02 8.000000000000000000e+01 8.000000000000000000e+01 1.600000000000000000e+02 2.400000000000000000e+02 3.200000000000000000e+02 4.000000000000000000e+02 4.800000000000000000e+02 5.600000000000000000e+02 2.080000000000000000e+03 4.160000000000000000e+03 5.600000000000000000e+02 4.800000000000000000e+02 4.000000000000000000e+02 5.600000000000000000e+02 8.000000000000000000e+01 2.400000000000000000e+02 1.600000000000000000e+02 8.000000000000000000e+01 2.400000000000000000e+02 2.400000000000000000e+02 8.000000000000000000e+01 1.600000000000000000e+02 8.000000000000000000e+01 8.000000000000000000e+01 8.000000000000000000e+01 8.000000000000000000e+01 8.000000000000000000e+01 1.600000000000000000e+02 2.400000000000000000e+02 3.200000000000000000e+02 4.000000000000000000e+02 4.800000000000000000e+02 5.600000000000000000e+02 7.112000000000000000e+04 1.600000000000000000e+02 1.600000000000000000e+02 1.600000000000000000e+02 2.400000000000000000e+02 3.200000000000000000e+02 4.000000000000000000e+02 3.200000000000000000e+02 2.400000000000000000e+02 1.600000000000000000e+02 1.600000000000000000e+02 8.000000000000000000e+01 8.000000000000000000e+01 1.600000000000000000e+02 2.400000000000000000e+02 3.200000000000000000e+02 4.000000000000000000e+02 1.680000000000000000e+03 1.920000000000000000e+03 2.400000000000000000e+04 7.200000000000000000e+02 6.400000000000000000e+02 5.600000000000000000e+02 5.600000000000000000e+02 4.800000000000000000e+02 4.000000000000000000e+02 3.200000000000000000e+02 2.400000000000000000e+02 2.400000000000000000e+02 1.600000000000000000e+02 8.000000000000000000e+01 8.000000000000000000e+01 8.000000000000000000e+01 1.600000000000000000e+02 2.400000000000000000e+02 3.200000000000000000e+02 4.000000000000000000e+02 4.800000000000000000e+02 1.568000000000000000e+04 8.000000000000000000e+01 3.752000000000000000e+04 3.496000000000000000e+04 1.600000000000000000e+02 1.600000000000000000e+02 1.600000000000000000e+02 1.600000000000000000e+02 1.600000000000000000e+02 1.600000000000000000e+02 1.600000000000000000e+02 1.600000000000000000e+02 2.400000000000000000e+02 2.400000000000000000e+02 2.400000000000000000e+02 1.600000000000000000e+02 1.600000000000000000e+02 8.000000000000000000e+01 8.000000000000000000e+01 8.000000000000000000e+01 8.000000000000000000e+01 1.600000000000000000e+02 1.600000000000000000e+02 2.400000000000000000e+02 2.400000000000000000e+02 3.200000000000000000e+02
4.000000000000000000e+02 2.400000000000000000e+02 2.400000000000000000e+02 2.400000000000000000e+02 2.400000000000000000e+02 2.400000000000000000e+02 2.400000000000000000e+02 1.600000000000000000e+02 1.600000000000000000e+02 1.600000000000000000e+02 1.600000000000000000e+02 1.600000000000000000e+02 1.600000000000000000e+02 1.600000000000000000e+02 1.600000000000000000e+02 1.600000000000000000e+02 1.600000000000000000e+02 2.400000000000000000e+02 8.000000000000000000e+01 8.000000000000000000e+01 8.000000000000000000e+01 8.000000000000000000e+01 8.000000000000000000e+01 8.000000000000000000e+01 1.600000000000000000e+02 3.200000000000000000e+02 5.600000000000000000e+02 8.000000000000000000e+02 1.120000000000000000e+03 1.440000000000000000e+03 1.520000000000000000e+03 4.800000000000000000e+02 4.800000000000000000e+02 4.000000000000000000e+02 3.200000000000000000e+02 2.400000000000000000e+02 2.400000000000000000e+02 1.600000000000000000e+02 8.000000000000000000e+01 1.600000000000000000e+02 8.000000000000000000e+01 8.000000000000000000e+01 8.000000000000000000e+01 8.000000000000000000e+01 8.000000000000000000e+01 8.000000000000000000e+01 8.000000000000000000e+01 8.000000000000000000e+01 8.000000000000000000e+01 8.000000000000000000e+01 1.600000000000000000e+02 2.400000000000000000e+02 3.200000000000000000e+02 4.000000000000000000e+02 4.800000000000000000e+02 8.000000000000000000e+01 7.184000000000000000e+04 2.400000000000000000e+02 3.200000000000000000e+02 4.000000000000000000e+02 4.800000000000000000e+02 4.000000000000000000e+02 3.200000000000000000e+02 2.400000000000000000e+02 2.400000000000000000e+02 1.600000000000000000e+02 8.000000000000000000e+01 8.000000000000000000e+01 8.000000000000000000e+01 1.600000000000000000e+02 2.400000000000000000e+02 3.200000000000000000e+02 8.000000000000000000e+01 8.000000000000000000e+01 1.600000000000000000e+02 2.624000000000000000e+04 6.400000000000000000e+02 6.400000000000000000e+02 5.600000000000000000e+02 4.800000000000000000e+02 4.000000000000000000e+02 3.200000000000000000e+02 3.200000000000000000e+02 2.400000000000000000e+02 1.600000000000000000e+02 8.000000000000000000e+01 8.000000000000000000e+01 1.600000000000000000e+02 8.000000000000000000e+01 1.600000000000000000e+02 2.400000000000000000e+02 3.200000000000000000e+02 4.000000000000000000e+02 1.664000000000000000e+04 3.872000000000000000e+04 8.000000000000000000e+01 8.000000000000000000e+01 8.000000000000000000e+01 8.000000000000000000e+01 8.000000000000000000e+01 8.000000000000000000e+01 8.000000000000000000e+01 8.000000000000000000e+01 8.000000000000000000e+01 8.000000000000000000e+01 8.000000000000000000e+01 1.600000000000000000e+02 1.600000000000000000e+02 1.600000000000000000e+02 8.000000000000000000e+01 8.000000000000000000e+01 8.000000000000000000e+01 8.000000000000000000e+01 1.600000000000000000e+02 1.600000000000000000e+02 2.400000000000000000e+02 2.400000000000000000e+02 3.200000000000000000e+02 3.200000000000000000e+02
1.600000000000000000e+02 1.600000000000000000e+02 1.600000000000000000e+02 1.600000000000000000e+02 1.600000000000000000e+02 1.600000000000000000e+02 1.600000000000000000e+02 1.600000000000000000e+02 8.000000000000000000e+01 8.000000000000000000e+01 8.000000000000000000e+01 8.000000000000000000e+01 8.000000000000000000e+01 8.000000000000000000e+01 8.000000000000000000e+01 8.000000000000000000e+01 8.000000000000000000e+01 8.000000000000000000e+01 1.600000000000000000e+02 8.000000000000000000e+01 8.000000000000000000e+01 8.000000000000000000e+01 8.000000000000000000e+01 8.000000000000000000e+01 8.000000000000000000e+01 1.600000000000000000e+02 1.600000000000000000e+02 2.400000000000000000e+02 2.400000000000000000e+02 1.040000000000000000e+03 4.000000000000000000e+02 4.000000000000000000e+02 4.000000000000000000e+02 3.200000000000000000e+02 2.400000000000000000e+02 1.600000000000000000e+02 1.600000000000000000e+02 8.000000000000000000e+01 8.000000000000000000e+01 8.000000000000000000e+01 8.000000000000000000e+01 8.000000000000000000e+01 8.000000000000000000e+01 8.000000000000000000e+01 1.600000000000000000e+02 1.600000000000000000e+02 1.600000000000000000e+02 1.600000000000000000e+02 1.600000000000000000e+02 1.600000000000000000e+02 8.000000000000000000e+01 8.000000000000000000e+01 1.600000000000000000e+02 2.400000000000000000e+02 3.200000000000000000e+02 5.600000000000000000e+02 7.256000000000000000e+04 4.000000000000000000e+02 4.800000000000000000e+02 5.600000000000000000e+02 4.800000000000000000e+02 4.000000000000000000e+02 3.200000000000000000e+02 3.200000000000000000e+02 2.400000000000000000e+02 1.600000000000000000e+02 8.000000000000000000e+01 8.000000000000000000e+01 1.600000000000000000e+02 8.000000000000000000e+01 1.600000000000000000e+02 2.400000000000000000e+02 3.200000000000000000e+02 4.000000000000000000e+02 4.800000000000000000e+02 2.680000000000000000e+04 7.200000000000000000e+02 6.400000000000000000e+02 5.600000000000000000e+02 4.800000000000000000e+02 4.000000000000000000e+02 4.000000000000000000e+02 3.200000000000000000e+02 2.400000000000000000e+02 1.600000000000000000e+02 1.600000000000000000e+02 8.000000000000000000e+01 8.000000000000000000e+01 2.400000000000000000e+02 8.000000000000000000e+01 8.000000000000000000e+01 8.000000000000000000e+01 8.000000000000000000e+01 5.560000000000000000e+04 8.000000000000000000e+01 9.600000000000000000e+02 8.800000000000000000e+02 8.000000000000000000e+02 7.200000000000000000e+02 6.400000000000000000e+02 5.600000000000000000e+02 4.800000000000000000e+02 4.000000000000000000e+02 3.200000000000000000e+02 2.400000000000000000e+02 1.600000000000000000e+02 8.000000000000000000e+01 8.000000000000000000e+01 8.000000000000000000e+01 8.000000000000000000e+01 8.000000000000000000e+01 8.000000000000000000e+01 1.600000000000000000e+02 1.600000000000000000e+02 2.400000000000000000e+02 2.400000000000000000e+02 3.200000000000000000e+02 3.200000000000000000e+02 4.000000000000000000e+02
8.000000000000000000e+01 8.000000000000000000e+01 8.000000000000000000e+01 8.000000000000000000e+01 8.000000000000000000e+01 8.000000000000000000e+01 8.000000000000000000e+01 8.000000000000000000e+01 8.000000000000000000e+01 8.000000000000000000e+01 8.000000000000000000e+01 8.000000000000000000e+01 8.000000000000000000e+01 8.000000000000000000e+01 8.000000000000000000e+01 8.000000000000000000e+01 8.000000000000000000e+01 8.000000000000000000e+01 8.000000000000000000e+01 1.600000000000000000e+02 1.600000000000000000e+02 1.600000000000000000e+02 1.600000000000000000e+02 8.000000000000000000e+01 8.000000000000000000e+01 8.000000000000000000e+01 1.600000000000000000e+02 1.600000000000000000e+02 2.400000000000000000e+02 7.200000000000000000e+02 3.200000000000000000e+02 3.200000000000000000e+02 3.200000000000000000e+02 2.400000000000000000e+02 1.600000000000000000e+02 8.000000000000000000e+01 8.000000000000000000e+01 8.000000000000000000e+01 8.000000000000000000e+01 8.000000000000000000e+01 1.600000000000000000e+02 1.600000000000000000e+02 1.600000000000000000e+02 1.600000000000000000e+02 1.600000000000000000e+02 2.400000000000000000e+02 2.400000000000000000e+02 2.400000000000000000e+02 2.400000000000000000e+02 2.400000000000000000e+02 2.400000000000000000e+02 1.600000000000000000e+02 8.000000000000000000e+01 8.000000000000000000e+01 1.600000000000000000e+02 8.000000000000000000e+01 8.000000000000000000e+01 7.376000000000000000e+04 6.400000000000000000e+02 5.600000000000000000e+02 4.800000000000000000e+02 4.000000000000000000e+02 4.000000000000000000e+02 3.200000000000000000e+02 2.400000000000000000e+02 1.600000000000000000e+02 1.600000000000000000e+02 8.000000000000000000e+01 8.000000000000000000e+01 2.400000000000000000e+02 3.200000000000000000e+02 4.000000000000000000e+02 4.800000000000000000e+02 5.600000000000000000e+02 6.400000000000000000e+02 7.200000000000000000e+02 2.888000000000000000e+04 6.400000000000000000e+02 5.600000000000000000e+02 4.800000000000000000e+02 4.800000000000000000e+02 4.000000000000000000e+02 3.200000000000000000e+02 2.400000000000000000e+02 2.400000000000000000e+02 1.600000000000000000e+02 8.000000000000000000e+01 8.000000000000000000e+01 1.600000000000000000e+02 4.800000000000000000e+02 6.400000000000000000e+02 8.000000000000000000e+02 9.600000000000000000e+02 5.680000000000000000e+04 1.600000000000000000e+02 8.000000000000000000e+01 8.000000000000000000e+01 8.000000000000000000e+01 8.000000000000000000e+01 8.000000000000000000e+01 8.000000000000000000e+01 8.000000000000000000e+01 5.600000000000000000e+02 4.800000000000000000e+02 4.000000000000000000e+02 3.200000000000000000e+02 2.400000000000000000e+02 1.600000000000000000e+02 8.000000000000000000e+01 8.000000000000000000e+01 8.000000000000000000e+01 1.600000000000000000e+02 1.600000000000000000e+02 2.400000000000000000e+02 2.400000000000000000e+02 3.200000000000000000e+02 3.200000000000000000e+02 4.000000000000000000e+02 4.000000000000000000e+02
8.000000000000000000e+01 8.000000000000000000e+01 8.000000000000000000e+01 8.000000000000000000e+01 8.000000000000000000e+01 8.000000000000000000e+01 8.000000000000000000e+01 8.000000000000000000e+01 1.600000000000000000e+02 1.600000000000000000e+02 1.600000000000000000e+02 1.600000000000000000e+02 1.600000000000000000e+02 1.600000000000000000e+02 1.600000000000000000e+02 1.600000000000000000e+02 1.600000000000000000e+02 1.600000000000000000e+02 2.400000000000000000e+02 2.400000000000000000e+02 2.400000000000000000e+02 2.400000000000000000e+02 1.600000000000000000e+02 8.000000000000000000e+01 8.000000000000000000e+01 8.000000000000000000e+01 8.000000000000000000e+01 1.600000000000000000e+02 1.600000000000000000e+02 4.800000000000000000e+02 2.400000000000000000e+02 2.400000000000000000e+02 2.400000000000000000e+02 1.600000000000000000e+02 8.000000000000000000e+01 8.000000000000000000e+01 1.600000000000000000e+02 8.000000000000000000e+01 1.600000000000000000e+02 1.600000000000000000e+02 1.600000000000000000e+02 2.400000000000000000e+02 2.400000000000000000e+02 2.400000000000000000e+02 2.400000000000000000e+02 2.400000000000000000e+02 3.200000000000000000e+02 3.200000000000000000e+02 3.200000000000000000e+02 3.200000000000000000e+02 3.200000000000000000e+02 3.200000000000000000e+02 2.400000000000000000e+02 1.600000000000000000e+02 8.000000000000000000e+01 8.000000000000000000e+01 1.600000000000000000e+02 8.000000000000000000e+01 7.512000000000000000e+04 5.600000000000000000e+02 4.800000000000000000e+02 4.800000000000000000e+02 4.000000000000000000e+02 3.200000000000000000e+02 2.400000000000000000e+02 2.400000000000000000e+02 1.600000000000000000e+02 8.000000000000000000e+01 8.000000000000000000e+01 1.600000000000000000e+02 8.000000000000000000e+01 1.600000000000000000e+02 2.400000000000000000e+02 3.200000000000000000e+02 4.000000000000000000e+02 4.800000000000000000e+02 3.080000000000000000e+04 6.400000000000000000e+02 5.600000000000000000e+02 5.600000000000000000e+02 4.800000000000000000e+02 4.000000000000000000e+02 3.200000000000000000e+02 3.200000000000000000e+02 2.400000000000000000e+02 1.600000000000000000e+02 8.000000000000000000e+01 1.600000000000000000e+02 8.000000000000000000e+01 1.600000000000000000e+02 2.400000000000000000e+02 3.200000000000000000e+02 4.000000000000000000e+02 5.736000000000000000e+04 8.000000000000000000e+01 1.600000000000000000e+02 1.600000000000000000e+02 1.600000000000000000e+02 1.600000000000000000e+02 1.600000000000000000e+02 1.600000000000000000e+02 1.120000000000000000e+03 4.800000000000000000e+02 4.000000000000000000e+02 3.200000000000000000e+02 2.400000000000000000e+02 1.600000000000000000e+02 8.000000000000000000e+01 8.000000000000000000e+01 8.000000000000000000e+01 1.600000000000000000e+02 1.600000000000000000e+02 2.400000000000000000e+02 2.400000000000000000e+02 3.200000000000000000e+02 3.200000000000000000e+02 4.000000000000000000e+02 4.000000000000000000e+02 4.800000000000000000e+02
8.000000000000000000e+01 2.400000000000000000e+02 1.600000000000000000e+02 1.600000000000000000e+02 1.600000000000000000e+02 1.600000000000000000e+02 8.000000000000000000e+01 1.600000000000000000e+02 2.400000000000000000e+02 4.000000000000000000e+02 2.400000000000000000e+02 2.400000000000000000e+02 2.400000000000000000e+02 2.400000000000000000e+02 2.400000000000000000e+02 2.400000000000000000e+02 2.400000000000000000e+02 3.200000000000000000e+02 3.200000000000000000e+02 3.200000000000000000e+02 3.200000000000000000e+02 2.400000000000000000e+02 1.600000000000000000e+02 1.600000000000000000e+02 8.000000000000000000e+01 8.000000000000000000e+01 8.000000000000000000e+01 8.000000000000000000e+01 1.600000000000000000e+02 2.400000000000000000e+02 1.600000000000000000e+02 1.600000000000000000e+02 1.600000000000000000e+02 8.000000000000000000e+01 8.000000000000000000e+01 1.600000000000000000e+02 2.400000000000000000e+02 2.400000000000000000e+02 1.600000000000000000e+02 2.400000000000000000e+02 2.400000000000000000e+02 2.400000000000000000e+02 3.200000000000000000e+02 3.200000000000000000e+02 3.200000000000000000e+02 3.200000000000000000e+02 3.200000000000000000e+02 4.000000000000000000e+02 4.000000000000000000e+02 4.000000000000000000e+02 4.000000000000000000e+02 4.000000000000000000e+02 4.000000000000000000e+02 3.200000000000000000e+02 2.400000000000000000e+02 1.600000000000000000e+02 8.000000000000000000e+01 8.000000000000000000e+01 8.000000000000000000e+01 7.688000000000000000e+04 5.600000000000000000e+02 4.800000000000000000e+02 4.000000000000000000e+02 3.200000000000000000e+02 3.200000000000000000e+02 2.400000000000000000e+02 1.600000000000000000e+02 8.000000000000000000e+01 1.600000000000000000e+02 8.000000000000000000e+01 2.400000000000000000e+02 8.000000000000000000e+01 8.000000000000000000e+01 1.600000000000000000e+02 2.400000000000000000e+02 3.200000000000000000e+02 3.120000000000000000e+04 6.400000000000000000e+02 6.400000000000000000e+02 5.600000000000000000e+02 4.800000000000000000e+02 4.000000000000000000e+02 4.000000000000000000e+02 3.200000000000000000e+02 2.400000000000000000e+02 1.600000000000000000e+02 2.400000000000000000e+02 8.000000000000000000e+01 8.000000000000000000e+01 8.000000000000000000e+01 1.600000000000000000e+02 2.400000000000000000e+02 3.200000000000000000e+02 5.808000000000000000e+04 2.400000000000000000e+02 2.400000000000000000e+02 2.400000000000000000e+02 2.400000000000000000e+02 2.160000000000000000e+03 1.920000000000000000e+03 1.680000000000000000e+03 4.800000000000000000e+02 4.000000000000000000e+02 3.200000000000000000e+02 2.400000000000000000e+02 1.600000000000000000e+02 8.000000000000000000e+01 1.600000000000000000e+02 8.000000000000000000e+01 8.000000000000000000e+01 1.600000000000000000e+02 2.400000000000000000e+02 2.400000000000000000e+02 3.200000000000000000e+02 3.200000000000000000e+02 4.000000000000000000e+02 4.000000000000000000e+02 4.800000000000000000e+02 4.800000000000000000e+02
1.600000000000000000e+02 4.800000000000000000e+02 2.400000000000000000e+02 2.400000000000000000e+02 2.400000000000000000e+02 8.000000000000000000e+01 1.600000000000000000e+02 2.400000000000000000e+02 3.200000000000000000e+02 7.200000000000000000e+02 3.200000000000000000e+02 3.200000000000000000e+02 3.200000000000000000e+02 3.200000000000000000e+02 3.200000000000000000e+02 3.200000000000000000e+02 4.000000000000000000e+02 4.000000000000000000e+02 4.000000000000000000e+02 4.000000000000000000e+02 3.200000000000000000e+02 2.400000000000000000e+02 2.400000000000000000e+02 1.600000000000000000e+02 1.600000000000000000e+02 8.000000000000000000e+01 8.000000000000000000e+01 8.000000000000000000e+01 8.000000000000000000e+01 8.000000000000000000e+01 8.000000000000000000e+01 8.000000000000000000e+01 8.000000000000000000e+01 8.000000000000000000e+01 1.600000000000000000e+02 2.400000000000000000e+02 3.200000000000000000e+02 6.400000000000000000e+02 1.680000000000000000e+03 2.080000000000000000e+03 2.560000000000000000e+03 3.040000000000000000e+03 3.520000000000000000e+03 4.080000000000000000e+03 4.640000000000000000e+03 5.280000000000000000e+03 5.920000000000000000e+03 6.560000000000000000e+03 7.280000000000000000e+03 8.080000000000000000e+03 9.520000000000000000e+03 1.040000000000000000e+04 1.136000000000000000e+04 1.192000000000000000e+04 1.256000000000000000e+04 1.288000000000000000e+04 1.448000000000000000e+04 1.480000000000000000e+04 1.552000000000000000e+04 9.248000000000000000e+04 5.600000000000000000e+02 4.800000000000000000e+02 4.000000000000000000e+02 4.000000000000000000e+02 3.200000000000000000e+02 2.400000000000000000e+02 8.000000000000000000e+01 1.600000000000000000e+02 2.400000000000000000e+02 1.600000000000000000e+02 8.000000000000000000e+01 3.200000000000000000e+02 1.600000000000000000e+02 8.000000000000000000e+01 8.000000000000000000e+01 1.600000000000000000e+02 2.400000000000000000e+02 3.344000000000000000e+04 6.400000000000000000e+02 5.600000000000000000e+02 4.800000000000000000e+02 4.800000000000000000e+02 4.000000000000000000e+02 8.000000000000000000e+01 4.800000000000000000e+02 3.200000000000000000e+02 1.600000000000000000e+02 1.600000000000000000e+02 8.000000000000000000e+01 8.000000000000000000e+01 1.600000000000000000e+02 2.400000000000000000e+02 3.200000000000000000e+02 8.000000000000000000e+01 5.904000000000000000e+04 3.200000000000000000e+02 3.200000000000000000e+03 2.880000000000000000e+03 6.400000000000000000e+02 5.600000000000000000e+02 4.800000000000000000e+02 4.000000000000000000e+02 3.200000000000000000e+02 2.400000000000000000e+02 1.600000000000000000e+02 8.000000000000000000e+01 2.400000000000000000e+02 8.000000000000000000e+01 1.600000000000000000e+02 8.000000000000000000e+01 1.600000000000000000e+02 2.400000000000000000e+02 3.200000000000000000e+02 3.200000000000000000e+02 4.000000000000000000e+02 4.000000000000000000e+02 4.800000000000000000e+02 4.800000000000000000e+02 5.600000000000000000e+02
2.400000000000000000e+02 8.000000000000000000e+02 3.200000000000000000e+02 3.200000000000000000e+02 8.000000000000000000e+01 1.600000000000000000e+02 2.400000000000000000e+02 3.200000000000000000e+02 1.120000000000000000e+03 4.000000000000000000e+02 4.000000000000000000e+02 4.000000000000000000e+02 4.000000000000000000e+02 4.000000000000000000e+02 4.000000000000000000e+02 4.800000000000000000e+02 4.800000000000000000e+02 4.800000000000000000e+02 4.800000000000000000e+02 4.000000000000000000e+02 3.200000000000000000e+02 3.200000000000000000e+02 2.400000000000000000e+02 2.400000000000000000e+02 1.600000000000000000e+02 1.600000000000000000e+02 8.000000000000000000e+01 8.000000000000000000e+01 8.000000000000000000e+01 8.000000000000000000e+01 8.000000000000000000e+01 8.000000000000000000e+01 8.000000000000000000e+01 1.600000000000000000e+02 2.400000000000000000e+02 3.200000000000000000e+02 4.000000000000000000e+02 7.200000000000000000e+02 1.600000000000000000e+02 1.600000000000000000e+02 1.600000000000000000e+02 1.600000000000000000e+02 1.600000000000000000e+02 1.600000000000000000e+02 2.400000000000000000e+02 2.400000000000000000e+02 2.400000000000000000e+02 2.400000000000000000e+02 3.200000000000000000e+02 9.600000000000000000e+02 4.000000000000000000e+02 3.200000000000000000e+02 1.600000000000000000e+02 8.000000000000000000e+01 2.400000000000000000e+02 1.280000000000000000e+03 8.000000000000000000e+01 1.600000000000000000e+02 5.600000000000000000e+02 6.400000000000000000e+02 9.480000000000000000e+04 4.800000000000000000e+02 4.800000000000000000e+02 4.000000000000000000e+02 3.200000000000000000e+02 1.600000000000000000e+02 8.000000000000000000e+01 2.400000000000000000e+02 3.200000000000000000e+02 2.400000000000000000e+02 1.600000000000000000e+02 8.000000000000000000e+01 4.000000000000000000e+02 2.400000000000000000e+02 1.600000000000000000e+02 8.000000000000000000e+01 8.000000000000000000e+01 3.424000000000000000e+04 6.400000000000000000e+02 5.600000000000000000e+02 5.600000000000000000e+02 4.800000000000000000e+02 8.000000000000000000e+01 1.600000000000000000e+02 8.800000000000000000e+02 2.400000000000000000e+02 2.400000000000000000e+02 1.600000000000000000e+02 8.000000000000000000e+01 8.000000000000000000e+01 8.000000000000000000e+01 1.600000000000000000e+02 2.400000000000000000e+02 3.200000000000000000e+02 6.344000000000000000e+04 4.000000000000000000e+03 7.200000000000000000e+02 6.400000000000000000e+02 5.600000000000000000e+02 4.800000000000000000e+02 4.000000000000000000e+02 3.200000000000000000e+02 2.400000000000000000e+02 1.600000000000000000e+02 8.000000000000000000e+01 3.200000000000000000e+02 8.000000000000000000e+01 1.600000000000000000e+02 2.400000000000000000e+02 8.000000000000000000e+01 1.600000000000000000e+02 2.400000000000000000e+02 3.200000000000000000e+02 4.000000000000000000e+02 4.000000000000000000e+02 4.800000000000000000e+02 4.800000000000000000e+02 5.600000000000000000e+02 3.664000000000000000e+04
3.200000000000000000e+02 1.200000000000000000e+03 4.000000000000000000e+02 1.600000000000000000e+02 8.000000000000000000e+01 2.400000000000000000e+02 3.200000000000000000e+02 4.000000000000000000e+02 1.600000000000000000e+03 4.800000000000000000e+02 4.800000000000000000e+02 4.800000000000000000e+02 4.800000000000000000e+02 4.800000000000000000e+02 5.600000000000000000e+02 5.600000000000000000e+02 5.600000000000000000e+02 5.600000000000000000e+02 4.800000000000000000e+02 4.000000000000000000e+02 4.000000000000000000e+02 3.200000000000000000e+02 3.200000000000000000e+02 2.400000000000000000e+02 2.400000000000000000e+02 1.600000000000000000e+02 1.600000000000000000e+02 8.000000000000000000e+01 8.000000000000000000e+01 1.600000000000000000e+02 2.400000000000000000e+02 1.600000000000000000e+02 8.000000000000000000e+01 8.000000000000000000e+01 8.000000000000000000e+01 1.600000000000000000e+02 2.400000000000000000e+02 8.000000000000000000e+01 8.000000000000000000e+01 8.000000000000000000e+01 8.000000000000000000e+01 8.000000000000000000e+01 8.000000000000000000e+01 1.600000000000000000e+02 1.600000000000000000e+02 1.600000000000000000e+02 1.600000000000000000e+02 2.400000000000000000e+02 2.400000000000000000e+02 6.400000000000000000e+02 3.200000000000000000e+02 2.400000000000000000e+02 8.000000000000000000e+01 1.600000000000000000e+02 4.000000000000000000e+02 8.000000000000000000e+02 8.000000000000000000e+01 4.800000000000000000e+02 5.600000000000000000e+02 5.600000000000000000e+02 6.400000000000000000e+02 9.704000000000000000e+04 4.800000000000000000e+02 4.000000000000000000e+02 2.400000000000000000e+02 1.600000000000000000e+02 8.000000000000000000e+01 3.200000000000000000e+02 4.000000000000000000e+02 3.200000000000000000e+02 2.400000000000000000e+02 8.000000000000000000e+01 1.600000000000000000e+02 4.800000000000000000e+02 3.200000000000000000e+02 2.400000000000000000e+02 1.600000000000000000e+02 3.632000000000000000e+04 1.840000000000000000e+03 1.200000000000000000e+03 5.600000000000000000e+02 1.600000000000000000e+02 8.000000000000000000e+01 2.400000000000000000e+02 1.200000000000000000e+03 3.200000000000000000e+02 2.400000000000000000e+02 1.600000000000000000e+02 1.600000000000000000e+02 8.000000000000000000e+01 8.000000000000000000e+01 8.000000000000000000e+01 1.600000000000000000e+02 2.400000000000000000e+02 6.440000000000000000e+04 6.400000000000000000e+02 5.600000000000000000e+02 4.800000000000000000e+02 4.000000000000000000e+02 3.200000000000000000e+02 2.400000000000000000e+02 1.600000000000000000e+02 8.000000000000000000e+01 8.000000000000000000e+01 4.000000000000000000e+02 8.000000000000000000e+01 1.600000000000000000e+02 2.400000000000000000e+02 3.200000000000000000e+02 1.600000000000000000e+02 8.000000000000000000e+01 2.400000000000000000e+02 3.200000000000000000e+02 4.000000000000000000e+02 4.800000000000000000e+02 4.800000000000000000e+02 5.600000000000000000e+02 3.888000000000000000e+04 5.600000000000000000e+02
4.000000000000000000e+02 1.680000000000000000e+03 2.400000000000000000e+02 1.600000000000000000e+02 8.000000000000000000e+01 3.200000000000000000e+02 4.000000000000000000e+02 4.800000000000000000e+02 2.160000000000000000e+03 5.600000000000000000e+02 5.600000000000000000e+02 5.600000000000000000e+02 5.600000000000000000e+02 6.400000000000000000e+02 6.400000000000000000e+02 6.400000000000000000e+02 6.400000000000000000e+02 5.600000000000000000e+02 4.800000000000000000e+02 4.800000000000000000e+02 4.000000000000000000e+02 4.000000000000000000e+02 3.200000000000000000e+02 3.200000000000000000e+02 2.400000000000000000e+02 2.400000000000000000e+02 1.600000000000000000e+02 8.000000000000000000e+01 8.000000000000000000e+01 1.600000000000000000e+02 4.800000000000000000e+02 2.400000000000000000e+02 1.600000000000000000e+02 8.000000000000000000e+01 1.600000000000000000e+02 8.000000000000000000e+01 8.000000000000000000e+01 8.000000000000000000e+01 8.000000000000000000e+01 8.000000000000000000e+01 8.000000000000000000e+01 8.000000000000000000e+01 8.000000000000000000e+01 8.000000000000000000e+01 8.000000000000000000e+01 8.000000000000000000e+01 1.600000000000000000e+02 1.600000000000000000e+02 1.600000000000000000e+02 4.000000000000000000e+02 2.400000000000000000e+02 1.600000000000000000e+02 8.000000000000000000e+01 3.200000000000000000e+02 3.200000000000000000e+02 4.000000000000000000e+02 4.000000000000000000e+02 4.800000000000000000e+02 4.800000000000000000e+02 5.600000000000000000e+02 5.600000000000000000e+02 6.400000000000000000e+02 9.896000000000000000e+04 3.200000000000000000e+02 2.400000000000000000e+02 1.600000000000000000e+02 8.000000000000000000e+01 4.000000000000000000e+02 4.800000000000000000e+02 4.000000000000000000e+02 3.200000000000000000e+02 8.000000000000000000e+01 1.600000000000000000e+02 2.400000000000000000e+02 5.600000000000000000e+02 4.000000000000000000e+02 3.200000000000000000e+02 3.656000000000000000e+04 1.600000000000000000e+02 8.000000000000000000e+01 2.400000000000000000e+02 8.000000000000000000e+01 1.600000000000000000e+02 3.200000000000000000e+02 1.600000000000000000e+03 3.200000000000000000e+02 2.400000000000000000e+02 2.400000000000000000e+02 1.600000000000000000e+02 8.000000000000000000e+01 8.000000000000000000e+01 1.600000000000000000e+02 8.000000000000000000e+01 1.600000000000000000e+02 6.512000000000000000e+04 4.800000000000000000e+02 4.000000000000000000e+02 3.200000000000000000e+02 2.400000000000000000e+02 1.600000000000000000e+02 8.000000000000000000e+01 8.000000000000000000e+01 1.600000000000000000e+02 4.800000000000000000e+02 1.600000000000000000e+02 8.000000000000000000e+01 2.400000000000000000e+02 3.200000000000000000e+02 4.000000000000000000e+02 2.400000000000000000e+02 8.000000000000000000e+01 1.600000000000000000e+02 3.200000000000000000e+02 4.000000000000000000e+02 4.800000000000000000e+02 5.600000000000000000e+02 4.112000000000000000e+04 5.600000000000000000e+02 5.600000000000000000e+02
4.800000000000000000e+02 2.000000000000000000e+03 2.400000000000000000e+02 8.000000000000000000e+01 1.600000000000000000e+02 4.000000000000000000e+02 4.800000000000000000e+02 2.720000000000000000e+03 6.400000000000000000e+02 6.400000000000000000e+02 6.400000000000000000e+02 6.400000000000000000e+02 7.200000000000000000e+02 7.200000000000000000e+02 7.200000000000000000e+02 7.200000000000000000e+02 6.400000000000000000e+02 5.600000000000000000e+02 5.600000000000000000e+02 4.800000000000000000e+02 4.800000000000000000e+02 4.000000000000000000e+02 1.360000000000000000e+03 9.600000000000000000e+02 6.400000000000000000e+02 3.200000000000000000e+02 8.000000000000000000e+01 1.600000000000000000e+02 8.000000000000000000e+01 1.600000000000000000e+02 7.200000000000000000e+02 3.200000000000000000e+02 2.400000000000000000e+02 1.600000000000000000e+02 8.000000000000000000e+01 2.400000000000000000e+02 1.600000000000000000e+02 1.600000000000000000e+02 1.600000000000000000e+02 1.600000000000000000e+02 1.600000000000000000e+02 1.600000000000000000e+02 1.600000000000000000e+02 8.000000000000000000e+01 8.000000000000000000e+01 8.000000000000000000e+01 8.000000000000000000e+01 8.000000000000000000e+01 8.000000000000000000e+01 2.400000000000000000e+02 1.600000000000000000e+02 8.000000000000000000e+01 2.400000000000000000e+02 2.400000000000000000e+02 3.200000000000000000e+02 3.200000000000000000e+02 4.000000000000000000e+02 4.000000000000000000e+02 4.800000000000000000e+02 4.800000000000000000e+02 5.600000000000000000e+02 3.200000000000000000e+02 8.000000000000000000e+01 9.992000000000000000e+04 2.400000000000000000e+02 8.000000000000000000e+01 1.600000000000000000e+02 4.800000000000000000e+02 5.600000000000000000e+02 4.800000000000000000e+02 4.000000000000000000e+02 1.600000000000000000e+02 8.000000000000000000e+01 2.400000000000000000e+02 3.200000000000000000e+02 6.400000000000000000e+02 3.744000000000000000e+04 8.000000000000000000e+01 8.000000000000000000e+01 8.000000000000000000e+01 3.200000000000000000e+02 1.600000000000000000e+02 2.400000000000000000e+02 4.000000000000000000e+02 2.000000000000000000e+03 3.200000000000000000e+02 3.200000000000000000e+02 2.400000000000000000e+02 1.600000000000000000e+02 8.000000000000000000e+01 1.600000000000000000e+02 8.000000000000000000e+01 2.400000000000000000e+02 8.000000000000000000e+01 6.552000000000000000e+04 2.400000000000000000e+02 1.600000000000000000e+02 8.000000000000000000e+01 8.000000000000000000e+01 8.000000000000000000e+01 1.600000000000000000e+02 2.400000000000000000e+02 5.600000000000000000e+02 2.400000000000000000e+02 8.000000000000000000e+01 1.600000000000000000e+02 3.200000000000000000e+02 4.000000000000000000e+02 4.800000000000000000e+02 3.200000000000000000e+02 8.000000000000000000e+01 1.600000000000000000e+02 2.400000000000000000e+02 4.000000000000000000e+02 4.800000000000000000e+02 4.336000000000000000e+04 5.600000000000000000e+02 5.600000000000000000e+02 4.800000000000000000e+02
2.976000000000000000e+04 2.632000000000000000e+04 2.616000000000000000e+04 2.560000000000000000e+04 2.472000000000000000e+04 2.440000000000000000e+04 2.360000000000000000e+04 1.984000000000000000e+04 1.800000000000000000e+04 1.560000000000000000e+04 1.432000000000000000e+04 1.296000000000000000e+04 1.160000000000000000e+04 1.024000000000000000e+04 8.960000000000000000e+03 7.680000000000000000e+03 6.560000000000000000e+03 5.520000000000000000e+03 4.560000000000000000e+03 3.680000000000000000e+03 2.880000000000000000e+03 2.160000000000000000e+03 3.200000000000000000e+02 2.400000000000000000e+02 1.600000000000000000e+02 8.000000000000000000e+01 8.000000000000000000e+01 8.000000000000000000e+01 2.400000000000000000e+02 1.600000000000000000e+02 9.600000000000000000e+02 4.000000000000000000e+02 3.200000000000000000e+02 2.400000000000000000e+02 8.000000000000000000e+01 1.600000000000000000e+02 3.200000000000000000e+02 2.400000000000000000e+02 2.400000000000000000e+02 2.400000000000000000e+02 2.400000000000000000e+02 2.400000000000000000e+02 2.400000000000000000e+02 3.200000000000000000e+02 1.600000000000000000e+02 8.000000000000000000e+01 8.000000000000000000e+01 8.000000000000000000e+01 8.000000000000000000e+01 8.000000000000000000e+01 8.000000000000000000e+01 1.600000000000000000e+02 1.600000000000000000e+02 2.400000000000000000e+02 2.400000000000000000e+02 3.200000000000000000e+02 3.200000000000000000e+02 4.000000000000000000e+02 4.000000000000000000e+02 4.800000000000000000e+02 2.400000000000000000e+02 1.600000000000000000e+02 3.200000000000000000e+02 1.004000000000000000e+05 1.600000000000000000e+02 8.000000000000000000e+01 2.400000000000000000e+02 5.600000000000000000e+02 6.400000000000000000e+02 5.600000000000000000e+02 4.800000000000000000e+02 2.400000000000000000e+02 8.000000000000000000e+01 1.600000000000000000e+02 3.200000000000000000e+02 3.848000000000000000e+04 8.000000000000000000e+01 1.600000000000000000e+02 8.000000000000000000e+01 1.600000000000000000e+02 4.000000000000000000e+02 2.400000000000000000e+02 3.200000000000000000e+02 4.800000000000000000e+02 2.400000000000000000e+03 4.000000000000000000e+02 3.200000000000000000e+02 2.400000000000000000e+02 1.600000000000000000e+02 2.400000000000000000e+02 8.000000000000000000e+01 8.000000000000000000e+01 1.600000000000000000e+02 4.800000000000000000e+02 6.616000000000000000e+04 8.000000000000000000e+01 8.000000000000000000e+01 1.600000000000000000e+02 1.600000000000000000e+02 2.400000000000000000e+02 3.200000000000000000e+02 6.400000000000000000e+02 3.200000000000000000e+02 1.600000000000000000e+02 8.000000000000000000e+01 2.400000000000000000e+02 4.000000000000000000e+02 4.800000000000000000e+02 5.600000000000000000e+02 4.000000000000000000e+02 8.000000000000000000e+01 1.600000000000000000e+02 2.400000000000000000e+02 3.200000000000000000e+02 4.544000000000000000e+04 5.600000000000000000e+02 5.600000000000000000e+02 4.800000000000000000e+02 4.800000000000000000e+02
8.800000000000000000e+02 8.000000000000000000e+01 2.400000000000000000e+02 7.200000000000000000e+02 8.000000000000000000e+01 3.200000000000000000e+02 4.800000000000000000e+02 1.120000000000000000e+03 8.000000000000000000e+01 1.600000000000000000e+03 5.600000000000000000e+02 6.400000000000000000e+02 5.600000000000000000e+02 5.600000000000000000e+02 4.800000000000000000e+02 4.800000000000000000e+02 4.000000000000000000e+02 4.000000000000000000e+02 3.200000000000000000e+02 3.200000000000000000e+02 2.400000000000000000e+02 2.400000000000000000e+02 4.000000000000000000e+02 2.400000000000000000e+02 8.000000000000000000e+01 8.000000000000000000e+01 8.000000000000000000e+01 1.600000000000000000e+02 1.600000000000000000e+02 3.200000000000000000e+02 1.600000000000000000e+03 8.000000000000000000e+01 4.000000000000000000e+02 3.200000000000000000e+02 1.600000000000000000e+02 8.000000000000000000e+01 2.400000000000000000e+02 4.000000000000000000e+02 3.200000000000000000e+02 3.200000000000000000e+02 3.200000000000000000e+02 3.200000000000000000e+02 3.200000000000000000e+02 6.400000000000000000e+02 2.400000000000000000e+02 1.600000000000000000e+02 2.400000000000000000e+02 8.000000000000000000e+01 8.000000000000000000e+01 8.000000000000000000e+01 8.000000000000000000e+01 8.000000000000000000e+01 1.600000000000000000e+02 1.600000000000000000e+02 2.400000000000000000e+02 2.400000000000000000e+02 3.200000000000000000e+02 3.200000000000000000e+02 4.000000000000000000e+02 1.600000000000000000e+02 8.000000000000000000e+01 8.000000000000000000e+01 8.000000000000000000e+01 8.000000000000000000e+01 1.032800000000000000e+05 8.000000000000000000e+01 3.200000000000000000e+02 6.400000000000000000e+02 7.200000000000000000e+02 6.400000000000000000e+02 5.600000000000000000e+02 3.200000000000000000e+02 8.000000000000000000e+01 1.600000000000000000e+02 2.092000000000000000e+05 2.086400000000000000e+05 1.700000000000000000e+05 1.696000000000000000e+05 1.683200000000000000e+05 1.680000000000000000e+05 1.674400000000000000e+05 1.665600000000000000e+05 1.657600000000000000e+05 1.648000000000000000e+05 1.636000000000000000e+05 4.000000000000000000e+02 3.200000000000000000e+02 2.400000000000000000e+02 3.200000000000000000e+02 1.600000000000000000e+02 8.000000000000000000e+01 1.600000000000000000e+02 8.000000000000000000e+01 8.000000000000000000e+01 6.632000000000000000e+04 1.600000000000000000e+02 2.400000000000000000e+02 2.400000000000000000e+02 3.200000000000000000e+02 4.000000000000000000e+02 7.200000000000000000e+02 4.000000000000000000e+02 2.400000000000000000e+02 8.000000000000000000e+01 1.600000000000000000e+02 3.200000000000000000e+02 4.800000000000000000e+02 5.600000000000000000e+02 6.400000000000000000e+02 4.800000000000000000e+02 8.000000000000000000e+01 1.600000000000000000e+02 2.400000000000000000e+02 4.720000000000000000e+04 5.600000000000000000e+02 5.600000000000000000e+02 4.800000000000000000e+02 4.800000000000000000e+02 4.000000000000000000e+02
7.200000000000000000e+02 8.000000000000000000e+01 1.600000000000000000e+02 5.600000000000000000e+02 8.000000000000000000e+01 2.400000000000000000e+02 4.000000000000000000e+02 9.600000000000000000e+02 8.000000000000000000e+01 1.600000000000000000e+02 1.360000000000000000e+03 4.800000000000000000e+02 5.600000000000000000e+02 4.800000000000000000e+02 4.800000000000000000e+02 4.000000000000000000e+02 4.000000000000000000e+02 3.200000000000000000e+02 3.200000000000000000e+02 2.400000000000000000e+02 2.400000000000000000e+02 1.600000000000000000e+02 1.600000000000000000e+02 8.000000000000000000e+01 8.000000000000000000e+01 8.000000000000000000e+01 1.600000000000000000e+02 1.600000000000000000e+02 2.400000000000000000e+02 2.400000000000000000e+02 2.080000000000000000e+03 8.000000000000000000e+01 4.800000000000000000e+02 4.000000000000000000e+02 2.400000000000000000e+02 8.000000000000000000e+01 1.600000000000000000e+02 3.200000000000000000e+02 4.800000000000000000e+02 4.000000000000000000e+02 4.000000000000000000e+02 4.000000000000000000e+02 4.000000000000000000e+02 1.040000000000000000e+03 3.200000000000000000e+02 2.400000000000000000e+02 4.000000000000000000e+02 1.600000000000000000e+02 1.600000000000000000e+02 8.000000000000000000e+01 8.000000000000000000e+01 8.000000000000000000e+01 8.000000000000000000e+01 1.600000000000000000e+02 1.600000000000000000e+02 2.400000000000000000e+02 2.400000000000000000e+02 3.200000000000000000e+02 8.000000000000000000e+01 8.000000000000000000e+01 1.600000000000000000e+02 2.400000000000000000e+02 3.200000000000000000e+02 2.480000000000000000e+03 5.600000000000000000e+02 1.061600000000000000e+05 1.068000000000000000e+05 1.076000000000000000e+05 1.090400000000000000e+05 8.000000000000000000e+01 6.400000000000000000e+02 4.000000000000000000e+02 8.000000000000000000e+01 2.098400000000000000e+05 1.600000000000000000e+02 8.000000000000000000e+01 2.400000000000000000e+02 1.040000000000000000e+03 1.600000000000000000e+02 3.200000000000000000e+02 4.000000000000000000e+02 4.800000000000000000e+02 5.600000000000000000e+02 6.400000000000000000e+02 8.000000000000000000e+01 1.602400000000000000e+05 1.589600000000000000e+05 4.000000000000000000e+02 2.400000000000000000e+02 1.600000000000000000e+02 8.000000000000000000e+01 2.400000000000000000e+02 1.600000000000000000e+02 8.000000000000000000e+01 8.000000000000000000e+01 6.712000000000000000e+04 3.200000000000000000e+02 4.000000000000000000e+02 4.800000000000000000e+02 8.000000000000000000e+02 4.800000000000000000e+02 3.200000000000000000e+02 1.600000000000000000e+02 8.000000000000000000e+01 2.400000000000000000e+02 4.000000000000000000e+02 5.600000000000000000e+02 6.400000000000000000e+02 7.200000000000000000e+02 5.600000000000000000e+02 8.000000000000000000e+01 1.600000000000000000e+02 4.888000000000000000e+04 6.400000000000000000e+02 5.600000000000000000e+02 4.800000000000000000e+02 4.800000000000000000e+02 4.000000000000000000e+02 4.000000000000000000e+02
4.000000000000000000e+02 2.400000000000000000e+02 8.000000000000000000e+01 4.000000000000000000e+02 8.000000000000000000e+01 1.600000000000000000e+02 3.200000000000000000e+02 7.200000000000000000e+02 1.600000000000000000e+02 8.000000000000000000e+01 2.400000000000000000e+02 1.040000000000000000e+03 4.000000000000000000e+02 4.800000000000000000e+02 4.000000000000000000e+02 4.000000000000000000e+02 3.200000000000000000e+02 3.200000000000000000e+02 2.400000000000000000e+02 2.400000000000000000e+02 1.600000000000000000e+02 1.600000000000000000e+02 8.000000000000000000e+01 8.000000000000000000e+01 8.000000000000000000e+01 8.000000000000000000e+01 1.600000000000000000e+02 2.400000000000000000e+02 2.400000000000000000e+02 3.200000000000000000e+02 2.480000000000000000e+03 8.000000000000000000e+01 5.600000000000000000e+02 4.800000000000000000e+02 3.200000000000000000e+02 8.000000000000000000e+01 1.600000000000000000e+02 2.400000000000000000e+02 4.000000000000000000e+02 5.600000000000000000e+02 4.800000000000000000e+02 4.800000000000000000e+02 4.800000000000000000e+02 4.800000000000000000e+02 1.440000000000000000e+03 3.200000000000000000e+02 6.400000000000000000e+02 2.400000000000000000e+02 1.600000000000000000e+02 1.600000000000000000e+02 8.000000000000000000e+01 8.000000000000000000e+01 8.000000000000000000e+01 8.000000000000000000e+01 1.600000000000000000e+02 1.600000000000000000e+02 2.400000000000000000e+02 8.000000000000000000e+01 1.600000000000000000e+02 2.400000000000000000e+02 3.200000000000000000e+02 1.680000000000000000e+03 2.080000000000000000e+03 4.800000000000000000e+02 1.840000000000000000e+03 3.200000000000000000e+02 2.400000000000000000e+02 8.000000000000000000e+01 1.600000000000000000e+02 1.103200000000000000e+05 1.111200000000000000e+05 1.116000000000000000e+05 2.100800000000000000e+05 8.000000000000000000e+01 1.600000000000000000e+02 8.000000000000000000e+01 1.600000000000000000e+02 9.600000000000000000e+02 8.000000000000000000e+01 2.400000000000000000e+02 3.200000000000000000e+02 4.000000000000000000e+02 4.800000000000000000e+02 5.600000000000000000e+02 8.000000000000000000e+01 1.120000000000000000e+03 8.000000000000000000e+01 1.578400000000000000e+05 1.569600000000000000e+05 1.600000000000000000e+02 8.000000000000000000e+01 3.200000000000000000e+02 2.400000000000000000e+02 1.600000000000000000e+02 8.000000000000000000e+01 7.072000000000000000e+04 3.360000000000000000e+03 2.800000000000000000e+03 2.080000000000000000e+03 1.200000000000000000e+03 6.400000000000000000e+02 2.400000000000000000e+02 8.000000000000000000e+01 1.600000000000000000e+02 3.200000000000000000e+02 4.800000000000000000e+02 6.400000000000000000e+02 7.200000000000000000e+02 8.000000000000000000e+01 1.360000000000000000e+03 8.000000000000000000e+01 5.040000000000000000e+04 6.400000000000000000e+02 5.600000000000000000e+02 5.600000000000000000e+02 4.800000000000000000e+02 4.000000000000000000e+02 4.000000000000000000e+02 3.200000000000000000e+02
1.600000000000000000e+02 1.600000000000000000e+02 1.600000000000000000e+02 1.600000000000000000e+02 1.600000000000000000e+02 8.000000000000000000e+01 2.400000000000000000e+02 4.000000000000000000e+02 2.400000000000000000e+02 8.000000000000000000e+01 1.600000000000000000e+02 6.400000000000000000e+02 3.200000000000000000e+02 3.200000000000000000e+02 4.000000000000000000e+02 3.200000000000000000e+02 3.200000000000000000e+02 2.400000000000000000e+02 2.400000000000000000e+02 1.600000000000000000e+02 1.600000000000000000e+02 8.000000000000000000e+01 8.000000000000000000e+01 8.000000000000000000e+01 8.000000000000000000e+01 1.600000000000000000e+02 1.600000000000000000e+02 2.400000000000000000e+02 3.200000000000000000e+02 3.200000000000000000e+02 2.960000000000000000e+03 8.000000000000000000e+01 6.400000000000000000e+02 5.600000000000000000e+02 4.000000000000000000e+02 8.000000000000000000e+01 1.600000000000000000e+02 2.400000000000000000e+02 3.200000000000000000e+02 4.800000000000000000e+02 6.400000000000000000e+02 5.600000000000000000e+02 5.600000000000000000e+02 5.600000000000000000e+02 2.000000000000000000e+03 4.000000000000000000e+02 9.600000000000000000e+02 2.400000000000000000e+02 2.400000000000000000e+02 1.600000000000000000e+02 1.600000000000000000e+02 8.000000000000000000e+01 8.000000000000000000e+01 8.000000000000000000e+01 8.000000000000000000e+01 1.600000000000000000e+02 1.600000000000000000e+02 4.000000000000000000e+02 6.400000000000000000e+02 9.600000000000000000e+02 1.280000000000000000e+03 3.200000000000000000e+02 4.000000000000000000e+02 4.000000000000000000e+02 1.360000000000000000e+03 2.400000000000000000e+02 1.600000000000000000e+02 8.000000000000000000e+01 4.800000000000000000e+02 4.800000000000000000e+02 8.000000000000000000e+01 8.000000000000000000e+01 3.220000000000000000e+05 1.600000000000000000e+02 8.000000000000000000e+01 8.000000000000000000e+01 8.000000000000000000e+01 8.000000000000000000e+02 8.000000000000000000e+01 1.600000000000000000e+02 2.400000000000000000e+02 3.200000000000000000e+02 4.000000000000000000e+02 4.800000000000000000e+02 8.000000000000000000e+01 9.600000000000000000e+02 5.600000000000000000e+02 2.400000000000000000e+02 8.000000000000000000e+01 1.562400000000000000e+05 1.545600000000000000e+05 1.537600000000000000e+05 1.526400000000000000e+05 1.516000000000000000e+05 7.096000000000000000e+04 8.000000000000000000e+01 8.000000000000000000e+01 8.000000000000000000e+01 1.600000000000000000e+02 8.000000000000000000e+01 8.000000000000000000e+01 1.600000000000000000e+02 8.000000000000000000e+01 2.400000000000000000e+02 4.000000000000000000e+02 5.600000000000000000e+02 7.200000000000000000e+02 8.000000000000000000e+02 8.000000000000000000e+01 1.600000000000000000e+02 5.320000000000000000e+04 6.400000000000000000e+02 5.600000000000000000e+02 5.600000000000000000e+02 4.800000000000000000e+02 4.800000000000000000e+02 4.000000000000000000e+02 3.200000000000000000e+02 3.200000000000000000e+02
8.000000000000000000e+01 8.000000000000000000e+01 8.000000000000000000e+01 8.000000000000000000e+01 8.000000000000000000e+01 8.000000000000000000e+01 1.600000000000000000e+02 1.600000000000000000e+02 1.600000000000000000e+02 1.600000000000000000e+02 8.000000000000000000e+01 3.200000000000000000e+02 2.400000000000000000e+02 2.400000000000000000e+02 2.400000000000000000e+02 3.200000000000000000e+02 2.400000000000000000e+02 2.400000000000000000e+02 1.600000000000000000e+02 1.600000000000000000e+02 8.000000000000000000e+01 8.000000000000000000e+01 8.000000000000000000e+01 8.000000000000000000e+01 1.600000000000000000e+02 1.600000000000000000e+02 2.400000000000000000e+02 2.400000000000000000e+02 3.200000000000000000e+02 4.000000000000000000e+02 3.440000000000000000e+03 8.000000000000000000e+01 7.200000000000000000e+02 6.400000000000000000e+02 4.800000000000000000e+02 1.600000000000000000e+02 8.000000000000000000e+01 2.400000000000000000e+02 3.200000000000000000e+02 4.000000000000000000e+02 5.600000000000000000e+02 7.200000000000000000e+02 6.400000000000000000e+02 6.400000000000000000e+02 2.640000000000000000e+03 4.800000000000000000e+02 1.280000000000000000e+03 3.200000000000000000e+02 2.400000000000000000e+02 2.400000000000000000e+02 1.600000000000000000e+02 1.600000000000000000e+02 8.000000000000000000e+01 8.000000000000000000e+01 8.000000000000000000e+01 8.000000000000000000e+01 1.600000000000000000e+02 1.600000000000000000e+02 2.400000000000000000e+02 2.400000000000000000e+02 2.400000000000000000e+02 3.200000000000000000e+02 3.200000000000000000e+02 3.200000000000000000e+02 9.600000000000000000e+02 1.600000000000000000e+02 8.000000000000000000e+01 4.000000000000000000e+02 2.400000000000000000e+02 1.600000000000000000e+02 8.000000000000000000e+01 1.600000000000000000e+02 3.225600000000000000e+05 3.200000000000000000e+02 2.400000000000000000e+02 1.600000000000000000e+02 8.000000000000000000e+01 3.200000000000000000e+02 4.000000000000000000e+02 8.000000000000000000e+01 1.600000000000000000e+02 2.400000000000000000e+02 3.200000000000000000e+02 4.000000000000000000e+02 4.000000000000000000e+02 4.800000000000000000e+02 4.800000000000000000e+02 1.600000000000000000e+02 8.000000000000000000e+01 1.520000000000000000e+03 6.400000000000000000e+02 7.200000000000000000e+02 7.200000000000000000e+02 8.000000000000000000e+01 8.032000000000000000e+04 8.000000000000000000e+01 8.000000000000000000e+01 8.000000000000000000e+01 8.000000000000000000e+01 1.600000000000000000e+02 2.400000000000000000e+02 1.600000000000000000e+02 8.000000000000000000e+01 8.000000000000000000e+01 7.200000000000000000e+02 6.400000000000000000e+02 8.000000000000000000e+02 8.800000000000000000e+02 8.000000000000000000e+01 5.480000000000000000e+04 6.400000000000000000e+02 6.400000000000000000e+02 5.600000000000000000e+02 4.800000000000000000e+02 4.800000000000000000e+02 4.000000000000000000e+02 4.000000000000000000e+02 3.200000000000000000e+02 2.400000000000000000e+02
8.000000000000000000e+01 8.000000000000000000e+01 8.000000000000000000e+01 8.000000000000000000e+01 8.000000000000000000e+01 8.000000000000000000e+01 8.000000000000000000e+01 8.000000000000000000e+01 8.000000000000000000e+01 8.000000000000000000e+01 8.000000000000000000e+01 8.000000000000000000e+01 1.600000000000000000e+02 1.600000000000000000e+02 1.600000000000000000e+02 1.600000000000000000e+02 2.400000000000000000e+02 1.600000000000000000e+02 1.600000000000000000e+02 8.000000000000000000e+01 8.000000000000000000e+01 8.000000000000000000e+01 8.000000000000000000e+01 1.600000000000000000e+02 1.600000000000000000e+02 2.400000000000000000e+02 2.400000000000000000e+02 3.200000000000000000e+02 3.200000000000000000e+02 4.000000000000000000e+02 4.000000000000000000e+03 8.000000000000000000e+01 8.000000000000000000e+02 7.200000000000000000e+02 5.600000000000000000e+02 2.400000000000000000e+02 8.000000000000000000e+01 1.600000000000000000e+02 3.200000000000000000e+02 4.000000000000000000e+02 4.800000000000000000e+02 6.400000000000000000e+02 8.000000000000000000e+02 7.200000000000000000e+02 7.200000000000000000e+02 4.480000000000000000e+03 4.000000000000000000e+02 3.200000000000000000e+02 3.200000000000000000e+02 2.400000000000000000e+02 2.400000000000000000e+02 1.600000000000000000e+02 1.600000000000000000e+02 8.000000000000000000e+01 8.000000000000000000e+01 8.000000000000000000e+01 8.000000000000000000e+01 1.600000000000000000e+02 1.600000000000000000e+02 1.600000000000000000e+02 2.400000000000000000e+02 2.400000000000000000e+02 2.400000000000000000e+02 3.200000000000000000e+02 5.600000000000000000e+02 8.000000000000000000e+01 3.200000000000000000e+02 1.600000000000000000e+02 8.000000000000000000e+01 8.000000000000000000e+01 1.600000000000000000e+02 2.400000000000000000e+02 3.232800000000000000e+05 4.000000000000000000e+02 3.200000000000000000e+02 2.400000000000000000e+02 1.600000000000000000e+02 8.000000000000000000e+01 2.400000000000000000e+02 3.200000000000000000e+02 8.000000000000000000e+01 1.600000000000000000e+02 2.400000000000000000e+02 3.200000000000000000e+02 3.200000000000000000e+02 4.000000000000000000e+02 4.000000000000000000e+02 8.000000000000000000e+01 1.600000000000000000e+02 1.280000000000000000e+03 5.600000000000000000e+02 6.400000000000000000e+02 6.400000000000000000e+02 8.000000000000000000e+01 1.600000000000000000e+02 7.992000000000000000e+04 7.776000000000000000e+04 1.600000000000000000e+02 2.400000000000000000e+02 3.200000000000000000e+02 2.400000000000000000e+02 8.000000000000000000e+01 1.600000000000000000e+02 8.000000000000000000e+01 8.800000000000000000e+02 7.200000000000000000e+02 8.000000000000000000e+01 5.864000000000000000e+04 5.688000000000000000e+04 6.400000000000000000e+02 6.400000000000000000e+02 5.600000000000000000e+02 5.600000000000000000e+02 4.800000000000000000e+02 4.000000000000000000e+02 4.000000000000000000e+02 3.200000000000000000e+02 3.200000000000000000e+02 2.400000000000000000e+02
1.600000000000000000e+02 1.600000000000000000e+02 1.600000000000000000e+02 1.600000000000000000e+02 1.600000000000000000e+02 1.600000000000000000e+02 8.000000000000000000e+01 8.000000000000000000e+01 8.000000000000000000e+01 8.000000000000000000e+01 8.000000000000000000e+01 8.000000000000000000e+01 8.000000000000000000e+01 8.000000000000000000e+01 8.000000000000000000e+01 8.000000000000000000e+01 8.000000000000000000e+01 1.600000000000000000e+02 8.000000000000000000e+01 8.000000000000000000e+01 8.000000000000000000e+01 8.000000000000000000e+01 1.600000000000000000e+02 1.600000000000000000e+02 2.400000000000000000e+02 2.400000000000000000e+02 3.200000000000000000e+02 3.200000000000000000e+02 4.000000000000000000e+02 4.000000000000000000e+02 4.560000000000000000e+03 8.000000000000000000e+01 8.800000000000000000e+02 8.000000000000000000e+02 6.400000000000000000e+02 3.200000000000000000e+02 1.600000000000000000e+02 8.000000000000000000e+01 2.400000000000000000e+02 4.000000000000000000e+02 4.800000000000000000e+02 5.600000000000000000e+02 7.200000000000000000e+02 8.800000000000000000e+02 8.000000000000000000e+02 5.680000000000000000e+03 4.000000000000000000e+02 4.000000000000000000e+02 3.200000000000000000e+02 3.200000000000000000e+02 2.400000000000000000e+02 2.400000000000000000e+02 1.600000000000000000e+02 1.600000000000000000e+02 8.000000000000000000e+01 8.000000000000000000e+01 8.000000000000000000e+01 8.000000000000000000e+01 8.000000000000000000e+01 1.600000000000000000e+02 1.600000000000000000e+02 1.600000000000000000e+02 2.400000000000000000e+02 2.400000000000000000e+02 2.400000000000000000e+02 2.400000000000000000e+02 8.000000000000000000e+01 8.000000000000000000e+01 1.600000000000000000e+02 2.400000000000000000e+02 3.200000000000000000e+02 4.000000000000000000e+02 3.242400000000000000e+05 4.800000000000000000e+02 4.000000000000000000e+02 3.200000000000000000e+02 2.400000000000000000e+02 1.600000000000000000e+02 8.000000000000000000e+01 1.600000000000000000e+02 2.400000000000000000e+02 8.000000000000000000e+01 1.600000000000000000e+02 2.400000000000000000e+02 2.400000000000000000e+02 3.200000000000000000e+02 3.200000000000000000e+02 8.000000000000000000e+01 1.600000000000000000e+02 1.040000000000000000e+03 4.800000000000000000e+02 5.600000000000000000e+02 5.600000000000000000e+02 8.000000000000000000e+01 1.600000000000000000e+02 1.920000000000000000e+03 8.000000000000000000e+01 7.728000000000000000e+04 7.624000000000000000e+04 3.200000000000000000e+02 1.600000000000000000e+02 8.000000000000000000e+01 2.400000000000000000e+02 8.000000000000000000e+01 6.304000000000000000e+04 6.200000000000000000e+04 6.088000000000000000e+04 1.840000000000000000e+03 6.400000000000000000e+02 6.400000000000000000e+02 5.600000000000000000e+02 5.600000000000000000e+02 4.800000000000000000e+02 4.800000000000000000e+02 4.000000000000000000e+02 3.200000000000000000e+02 3.200000000000000000e+02 2.400000000000000000e+02 2.400000000000000000e+02
2.400000000000000000e+02 2.400000000000000000e+02 2.400000000000000000e+02 2.400000000000000000e+02 2.400000000000000000e+02 1.600000000000000000e+02 1.600000000000000000e+02 1.600000000000000000e+02 1.600000000000000000e+02 1.600000000000000000e+02 1.600000000000000000e+02 1.600000000000000000e+02 8.000000000000000000e+01 8.000000000000000000e+01 8.000000000000000000e+01 2.400000000000000000e+02 1.600000000000000000e+02 8.000000000000000000e+01 8.000000000000000000e+01 8.000000000000000000e+01 8.000000000000000000e+01 1.600000000000000000e+02 1.600000000000000000e+02 2.400000000000000000e+02 2.400000000000000000e+02 3.200000000000000000e+02 3.200000000000000000e+02 4.000000000000000000e+02 4.000000000000000000e+02 4.800000000000000000e+02 5.120000000000000000e+03 8.000000000000000000e+01 9.600000000000000000e+02 8.800000000000000000e+02 7.200000000000000000e+02 4.000000000000000000e+02 2.400000000000000000e+02 8.000000000000000000e+01 1.600000000000000000e+02 3.200000000000000000e+02 4.800000000000000000e+02 5.600000000000000000e+02 6.400000000000000000e+02 8.000000000000000000e+02 9.600000000000000000e+02 6.960000000000000000e+03 4.800000000000000000e+02 4.000000000000000000e+02 4.000000000000000000e+02 3.200000000000000000e+02 3.200000000000000000e+02 2.400000000000000000e+02 2.400000000000000000e+02 1.600000000000000000e+02 8.000000000000000000e+01 1.600000000000000000e+02 8.000000000000000000e+01 8.000000000000000000e+01 8.000000000000000000e+01 8.000000000000000000e+01 8.000000000000000000e+01 1.600000000000000000e+02 1.600000000000000000e+02 1.600000000000000000e+02 1.600000000000000000e+02 8.000000000000000000e+01 1.600000000000000000e+02 2.400000000000000000e+02 3.200000000000000000e+02 4.000000000000000000e+02 4.800000000000000000e+02 5.600000000000000000e+02 3.254400000000000000e+05 5.600000000000000000e+02 4.800000000000000000e+02 4.000000000000000000e+02 3.200000000000000000e+02 2.400000000000000000e+02 1.600000000000000000e+02 8.000000000000000000e+01 8.000000000000000000e+01 1.600000000000000000e+02 8.000000000000000000e+01 1.600000000000000000e+02 1.600000000000000000e+02 2.400000000000000000e+02 2.400000000000000000e+02 8.000000000000000000e+01 1.600000000000000000e+02 8.000000000000000000e+02 4.000000000000000000e+02 4.800000000000000000e+02 4.800000000000000000e+02 8.000000000000000000e+01 1.120000000000000000e+03 7.200000000000000000e+02 8.000000000000000000e+01 8.800000000000000000e+02 8.000000000000000000e+01 7.520000000000000000e+04 7.472000000000000000e+04 8.000000000000000000e+01 8.000000000000000000e+01 6.464000000000000000e+04 6.400000000000000000e+02 3.200000000000000000e+02 1.600000000000000000e+02 8.000000000000000000e+01 1.760000000000000000e+03 5.600000000000000000e+02 5.600000000000000000e+02 4.800000000000000000e+02 4.800000000000000000e+02 4.000000000000000000e+02 4.000000000000000000e+02 3.200000000000000000e+02 2.400000000000000000e+02 2.400000000000000000e+02 1.600000000000000000e+02
3.200000000000000000e+02 3.200000000000000000e+02 3.200000000000000000e+02 3.200000000000000000e+02 2.400000000000000000e+02 2.400000000000000000e+02 2.400000000000000000e+02 2.400000000000000000e+02 2.400000000000000000e+02 2.400000000000000000e+02 2.400000000000000000e+02 1.600000000000000000e+02 8.800000000000000000e+02 7.200000000000000000e+02 5.600000000000000000e+02 2.400000000000000000e+02 1.600000000000000000e+02 8.000000000000000000e+01 8.000000000000000000e+01 8.000000000000000000e+01 1.600000000000000000e+02 1.600000000000000000e+02 2.400000000000000000e+02 2.400000000000000000e+02 3.200000000000000000e+02 3.200000000000000000e+02 4.000000000000000000e+02 4.000000000000000000e+02 4.800000000000000000e+02 4.800000000000000000e+02 5.760000000000000000e+03 8.000000000000000000e+01 1.040000000000000000e+03 9.600000000000000000e+02 8.000000000000000000e+02 4.800000000000000000e+02 3.200000000000000000e+02 8.000000000000000000e+01 1.600000000000000000e+02 2.400000000000000000e+02 4.000000000000000000e+02 5.600000000000000000e+02 6.400000000000000000e+02 7.200000000000000000e+02 8.800000000000000000e+02 8.480000000000000000e+03 4.800000000000000000e+02 4.800000000000000000e+02 4.000000000000000000e+02 4.000000000000000000e+02 3.200000000000000000e+02 3.200000000000000000e+02 2.400000000000000000e+02 1.600000000000000000e+02 8.000000000000000000e+01 2.400000000000000000e+02 1.600000000000000000e+02 1.600000000000000000e+02 8.000000000000000000e+01 8.000000000000000000e+01 8.000000000000000000e+01 8.000000000000000000e+01 8.000000000000000000e+01 8.000000000000000000e+01 8.000000000000000000e+01 1.600000000000000000e+02 2.400000000000000000e+02 3.200000000000000000e+02 4.000000000000000000e+02 4.800000000000000000e+02 5.600000000000000000e+02 6.400000000000000000e+02 3.268800000000000000e+05 7.200000000000000000e+02 6.400000000000000000e+02 5.600000000000000000e+02 4.800000000000000000e+02 4.000000000000000000e+02 3.200000000000000000e+02 2.400000000000000000e+02 1.600000000000000000e+02 8.000000000000000000e+01 8.000000000000000000e+01 8.000000000000000000e+01 8.000000000000000000e+01 1.600000000000000000e+02 1.600000000000000000e+02 8.000000000000000000e+01 1.600000000000000000e+02 5.600000000000000000e+02 3.200000000000000000e+02 4.000000000000000000e+02 4.000000000000000000e+02 4.800000000000000000e+02 5.600000000000000000e+02 6.400000000000000000e+02 8.000000000000000000e+01 7.200000000000000000e+02 8.000000000000000000e+01 3.200000000000000000e+02 8.000000000000000000e+01 7.424000000000000000e+04 6.648000000000000000e+04 5.600000000000000000e+02 5.600000000000000000e+02 5.600000000000000000e+02 2.400000000000000000e+02 8.000000000000000000e+01 1.600000000000000000e+02 1.520000000000000000e+03 4.800000000000000000e+02 4.800000000000000000e+02 4.000000000000000000e+02 4.000000000000000000e+02 3.200000000000000000e+02 3.200000000000000000e+02 2.400000000000000000e+02 1.600000000000000000e+02 1.600000000000000000e+02
4.000000000000000000e+02 4.000000000000000000e+02 4.000000000000000000e+02 3.200000000000000000e+02 3.200000000000000000e+02 3.200000000000000000e+02 3.200000000000000000e+02 3.200000000000000000e+02 8.000000000000000000e+01 2.240000000000000000e+03 1.680000000000000000e+03 1.440000000000000000e+03 4.800000000000000000e+02 4.000000000000000000e+02 3.200000000000000000e+02 2.400000000000000000e+02 1.600000000000000000e+02 8.000000000000000000e+01 8.000000000000000000e+01 1.600000000000000000e+02 1.600000000000000000e+02 2.400000000000000000e+02 2.400000000000000000e+02 3.200000000000000000e+02 3.200000000000000000e+02 4.000000000000000000e+02 4.000000000000000000e+02 4.800000000000000000e+02 4.800000000000000000e+02 5.600000000000000000e+02 6.400000000000000000e+03 8.000000000000000000e+01 1.120000000000000000e+03 1.040000000000000000e+03 8.800000000000000000e+02 5.600000000000000000e+02 4.000000000000000000e+02 1.600000000000000000e+02 8.000000000000000000e+01 2.400000000000000000e+02 3.200000000000000000e+02 4.800000000000000000e+02 6.400000000000000000e+02 7.200000000000000000e+02 8.000000000000000000e+02 9.920000000000000000e+03 5.600000000000000000e+02 4.800000000000000000e+02 4.800000000000000000e+02 4.000000000000000000e+02 4.000000000000000000e+02 3.200000000000000000e+02 2.400000000000000000e+02 1.600000000000000000e+02 8.000000000000000000e+01 3.200000000000000000e+02 2.400000000000000000e+02 2.400000000000000000e+02 1.600000000000000000e+02 1.600000000000000000e+02 8.000000000000000000e+01 8.000000000000000000e+01 8.000000000000000000e+01 1.600000000000000000e+02 2.400000000000000000e+02 3.200000000000000000e+02 4.000000000000000000e+02 4.800000000000000000e+02 5.600000000000000000e+02 6.400000000000000000e+02 7.200000000000000000e+02 8.000000000000000000e+02 3.283200000000000000e+05 5.600000000000000000e+02 4.800000000000000000e+02 4.000000000000000000e+02 3.200000000000000000e+02 2.400000000000000000e+02 1.600000000000000000e+02 8.000000000000000000e+01 8.000000000000000000e+01 8.000000000000000000e+01 8.000000000000000000e+01 8.000000000000000000e+01 8.000000000000000000e+01 8.000000000000000000e+01 8.000000000000000000e+01 8.000000000000000000e+01 1.600000000000000000e+02 3.200000000000000000e+02 2.400000000000000000e+02 3.200000000000000000e+02 3.200000000000000000e+02 4.000000000000000000e+02 4.800000000000000000e+02 5.600000000000000000e+02 4.000000000000000000e+02 2.400000000000000000e+02 8.000000000000000000e+01 1.600000000000000000e+02 3.200000000000000000e+02 7.360000000000000000e+03 5.600000000000000000e+02 5.600000000000000000e+02 4.800000000000000000e+02 4.800000000000000000e+02 4.800000000000000000e+02 1.600000000000000000e+02 8.000000000000000000e+01 1.040000000000000000e+03 4.000000000000000000e+02 4.000000000000000000e+02 4.000000000000000000e+02 3.200000000000000000e+02 3.200000000000000000e+02 2.400000000000000000e+02 2.400000000000000000e+02 1.600000000000000000e+02 8.000000000000000000e+01
1.152000000000000000e+04 1.056000000000000000e+04 9.600000000000000000e+03 8.800000000000000000e+03 8.000000000000000000e+03 7.200000000000000000e+03 6.480000000000000000e+03 5.920000000000000000e+03 5.680000000000000000e+03 7.200000000000000000e+02 6.400000000000000000e+02 5.600000000000000000e+02 4.800000000000000000e+02 4.000000000000000000e+02 3.200000000000000000e+02 2.400000000000000000e+02 1.600000000000000000e+02 8.000000000000000000e+01 8.000000000000000000e+01 1.600000000000000000e+02 2.400000000000000000e+02 2.400000000000000000e+02 3.200000000000000000e+02 3.200000000000000000e+02 4.000000000000000000e+02 4.000000000000000000e+02 4.800000000000000000e+02 4.800000000000000000e+02 5.600000000000000000e+02 5.600000000000000000e+02 7.120000000000000000e+03 8.000000000000000000e+01 1.200000000000000000e+03 1.120000000000000000e+03 9.600000000000000000e+02 6.400000000000000000e+02 4.800000000000000000e+02 2.400000000000000000e+02 8.000000000000000000e+01 1.600000000000000000e+02 3.200000000000000000e+02 4.000000000000000000e+02 5.600000000000000000e+02 7.200000000000000000e+02 8.000000000000000000e+02 1.136000000000000000e+04 5.600000000000000000e+02 5.600000000000000000e+02 4.800000000000000000e+02 4.800000000000000000e+02 4.000000000000000000e+02 3.200000000000000000e+02 2.400000000000000000e+02 1.600000000000000000e+02 8.000000000000000000e+01 4.000000000000000000e+02 3.200000000000000000e+02 3.200000000000000000e+02 2.400000000000000000e+02 2.400000000000000000e+02 1.600000000000000000e+02 1.600000000000000000e+02 8.000000000000000000e+01 8.000000000000000000e+01 1.600000000000000000e+02 2.400000000000000000e+02 3.200000000000000000e+02 4.000000000000000000e+02 4.800000000000000000e+02 5.600000000000000000e+02 6.400000000000000000e+02 7.200000000000000000e+02 3.295200000000000000e+05 4.000000000000000000e+02 3.200000000000000000e+02 2.400000000000000000e+02 1.600000000000000000e+02 8.000000000000000000e+01 8.000000000000000000e+01 1.600000000000000000e+02 1.600000000000000000e+02 1.600000000000000000e+02 1.600000000000000000e+02 1.600000000000000000e+02 8.000000000000000000e+01 8.000000000000000000e+01 8.000000000000000000e+01 8.000000000000000000e+01 8.000000000000000000e+01 1.600000000000000000e+02 1.600000000000000000e+02 2.400000000000000000e+02 2.400000000000000000e+02 3.200000000000000000e+02 4.000000000000000000e+02 4.800000000000000000e+02 3.200000000000000000e+02 1.600000000000000000e+02 8.000000000000000000e+01 2.400000000000000000e+02 4.000000000000000000e+02 6.320000000000000000e+03 5.600000000000000000e+02 4.800000000000000000e+02 4.800000000000000000e+02 4.000000000000000000e+02 4.000000000000000000e+02 4.000000000000000000e+02 8.000000000000000000e+01 6.400000000000000000e+02 3.200000000000000000e+02 3.200000000000000000e+02 3.200000000000000000e+02 3.200000000000000000e+02 2.400000000000000000e+02 2.400000000000000000e+02 1.600000000000000000e+02 1.600000000000000000e+02 8.000000000000000000e+01
4.800000000000000000e+02 4.800000000000000000e+02 4.800000000000000000e+02 4.000000000000000000e+02 4.000000000000000000e+02 4.000000000000000000e+02 3.200000000000000000e+02 1.600000000000000000e+02 8.000000000000000000e+01 2.640000000000000000e+03 1.920000000000000000e+03 1.600000000000000000e+03 1.200000000000000000e+03 9.600000000000000000e+02 7.200000000000000000e+02 4.800000000000000000e+02 2.400000000000000000e+02 8.000000000000000000e+01 8.000000000000000000e+01 2.400000000000000000e+02 4.800000000000000000e+02 8.000000000000000000e+02 1.120000000000000000e+03 1.520000000000000000e+03 1.920000000000000000e+03 2.400000000000000000e+03 2.880000000000000000e+03 3.440000000000000000e+03 4.000000000000000000e+03 4.640000000000000000e+03 1.240000000000000000e+04 1.600000000000000000e+02 1.280000000000000000e+03 1.200000000000000000e+03 1.040000000000000000e+03 7.200000000000000000e+02 5.600000000000000000e+02 3.200000000000000000e+02 1.600000000000000000e+02 8.000000000000000000e+01 2.400000000000000000e+02 4.000000000000000000e+02 4.800000000000000000e+02 6.400000000000000000e+02 8.000000000000000000e+02 1.280000000000000000e+04 6.400000000000000000e+02 5.600000000000000000e+02 5.600000000000000000e+02 4.800000000000000000e+02 4.000000000000000000e+02 3.200000000000000000e+02 2.400000000000000000e+02 8.000000000000000000e+01 1.600000000000000000e+02 4.800000000000000000e+02 4.000000000000000000e+02 4.000000000000000000e+02 3.200000000000000000e+02 3.200000000000000000e+02 4.000000000000000000e+02 8.000000000000000000e+01 8.000000000000000000e+01 1.600000000000000000e+02 8.000000000000000000e+01 1.600000000000000000e+02 2.400000000000000000e+02 3.200000000000000000e+02 4.000000000000000000e+02 4.800000000000000000e+02 5.600000000000000000e+02 6.400000000000000000e+02 3.304000000000000000e+05 1.600000000000000000e+02 8.000000000000000000e+01 8.000000000000000000e+01 8.000000000000000000e+01 1.600000000000000000e+02 2.400000000000000000e+02 2.400000000000000000e+02 2.400000000000000000e+02 2.400000000000000000e+02 2.400000000000000000e+02 1.600000000000000000e+02 1.600000000000000000e+02 1.600000000000000000e+02 8.000000000000000000e+01 8.000000000000000000e+01 8.000000000000000000e+01 8.000000000000000000e+01 8.000000000000000000e+01 1.600000000000000000e+02 1.600000000000000000e+02 2.400000000000000000e+02 3.200000000000000000e+02 4.000000000000000000e+02 2.400000000000000000e+02 8.000000000000000000e+01 1.600000000000000000e+02 3.200000000000000000e+02 4.000000000000000000e+02 5.360000000000000000e+03 4.800000000000000000e+02 4.800000000000000000e+02 4.000000000000000000e+02 4.000000000000000000e+02 3.200000000000000000e+02 3.200000000000000000e+02 3.200000000000000000e+02 3.200000000000000000e+02 2.400000000000000000e+02 2.400000000000000000e+02 2.400000000000000000e+02 2.400000000000000000e+02 2.400000000000000000e+02 1.600000000000000000e+02 1.600000000000000000e+02 8.000000000000000000e+01 8.000000000000000000e+01
4.800000000000000000e+02 4.000000000000000000e+02 4.000000000000000000e+02 4.000000000000000000e+02 3.200000000000000000e+02 3.200000000000000000e+02 3.200000000000000000e+02 2.400000000000000000e+02 8.000000000000000000e+01 4.000000000000000000e+02 2.400000000000000000e+02 2.400000000000000000e+02 3.200000000000000000e+02 1.600000000000000000e+02 1.600000000000000000e+02 1.600000000000000000e+02 1.600000000000000000e+02 8.000000000000000000e+01 8.000000000000000000e+01 1.600000000000000000e+02 2.400000000000000000e+02 3.200000000000000000e+02 4.000000000000000000e+02 4.800000000000000000e+02 8.000000000000000000e+01 8.000000000000000000e+01 8.000000000000000000e+01 8.000000000000000000e+01 8.000000000000000000e+01 8.000000000000000000e+01 8.000000000000000000e+01 1.272000000000000000e+04 1.360000000000000000e+03 1.280000000000000000e+03 1.120000000000000000e+03 8.000000000000000000e+02 6.400000000000000000e+02 4.000000000000000000e+02 2.400000000000000000e+02 1.600000000000000000e+02 8.000000000000000000e+01 3.200000000000000000e+02 4.800000000000000000e+02 5.600000000000000000e+02 7.200000000000000000e+02 1.432000000000000000e+04 6.400000000000000000e+02 6.400000000000000000e+02 5.600000000000000000e+02 4.800000000000000000e+02 4.000000000000000000e+02 3.200000000000000000e+02 1.600000000000000000e+02 8.000000000000000000e+01 2.400000000000000000e+02 8.000000000000000000e+01 9.600000000000000000e+02 4.800000000000000000e+02 4.000000000000000000e+02 8.000000000000000000e+02 1.600000000000000000e+02 8.000000000000000000e+01 1.600000000000000000e+02 8.000000000000000000e+01 2.400000000000000000e+02 8.000000000000000000e+01 1.600000000000000000e+02 2.400000000000000000e+02 3.200000000000000000e+02 9.600000000000000000e+02 1.120000000000000000e+03 1.280000000000000000e+03 3.318400000000000000e+05 8.000000000000000000e+01 1.600000000000000000e+02 1.600000000000000000e+02 2.400000000000000000e+02 3.200000000000000000e+02 3.200000000000000000e+02 3.200000000000000000e+02 3.200000000000000000e+02 3.200000000000000000e+02 2.400000000000000000e+02 2.400000000000000000e+02 2.400000000000000000e+02 1.600000000000000000e+02 1.600000000000000000e+02 1.600000000000000000e+02 8.000000000000000000e+01 8.000000000000000000e+01 8.000000000000000000e+01 8.000000000000000000e+01 8.000000000000000000e+01 1.600000000000000000e+02 2.400000000000000000e+02 3.200000000000000000e+02 1.600000000000000000e+02 8.000000000000000000e+01 2.400000000000000000e+02 3.200000000000000000e+02 4.000000000000000000e+02 4.480000000000000000e+03 4.000000000000000000e+02 4.000000000000000000e+02 4.000000000000000000e+02 3.200000000000000000e+02 3.200000000000000000e+02 2.400000000000000000e+02 2.400000000000000000e+02 2.400000000000000000e+02 2.400000000000000000e+02 1.600000000000000000e+02 1.600000000000000000e+02 1.600000000000000000e+02 1.600000000000000000e+02 1.600000000000000000e+02 8.000000000000000000e+01 8.000000000000000000e+01 8.000000000000000000e+01
