ncols 119
nrows 32
xllcorner 1080
yllcorner 560
cellsize 10.0
7.399445464317908061e-02 7.434684300661879852e-02 7.474315141143628161e-02 7.503267301248804644e-02 7.755805909782892416e-02 7.738252226608173523e-02 7.493361902304609967e-02 7.505223599452794103e-02 7.767899611231277035e-02 7.906845037757193051e-02 7.970370394904616185e-02 7.991723431751751594e-02 7.985942226917698561e-02 7.956889961004109946e-02 7.917428439837760623e-02 7.892590240251701195e-02 7.896471491111738128e-02 7.907154004820306226e-02 7.910655904922851700e-02 7.993994302312326661e-02 7.826654604467063459e-02 7.890018013037308764e-02 9.839498434314579434e-02 1.003374800635492559e-01 9.985203168629232240e-02 1.028206684822596667e-01 7.754434085607907201e-02 8.774227379061488863e-02 8.811468255921865722e-02 8.845389260186663216e-02 8.844162219732831787e-02 8.801347592752670201e-02 8.663144178289020059e-02 8.373046343583305517e-02 8.192627965642912402e-02 7.891987986033871527e-02 7.749836013116298550e-02 9.928218158230529833e-02 7.750275607416300117e-02 7.969271850967039883e-02 8.852591109761204224e-02 7.972252105716950976e-02 7.745761379022868265e-02 8.766640193103542034e-02 9.316512741610617765e-02 8.834017112486447498e-02 8.720239452875151731e-02 9.043596754668513371e-02 8.580561237991302104e-02 8.021875811302517367e-02 7.614269974620131720e-02 7.622199903805654264e-02 7.944957710500688552e-02 7.819965381579856156e-02 8.091781452781972306e-02 8.265202075063521336e-02 8.402484508792192053e-02 8.564392853741620293e-02 9.520936005753645459e-02 9.956729438913861086e-02 8.790094666805840784e-02 8.756064988987014019e-02 8.697527863617426913e-02 8.628686633844186160e-02 8.543489946272007918e-02 8.427124254455958807e-02 8.257841912285771024e-02 8.010584105666126997e-02 7.665173946558301310e-02 7.503276524567072114e-02 7.946769095543836092e-02 8.548153809285874427e-02 8.965162239449279979e-02 9.206565578340585032e-02 9.276667831571791534e-02 9.904457845633096724e-02 8.117721215301562654e-02 8.117477880395558565e-02 7.761215121732602251e-02 8.177570543415060844e-02 8.552759380742214201e-02 8.742701638146233023e-02 8.783708630432858488e-02 8.763144545042177158e-02 7.666984345698790726e-02 8.030711932890241544e-02 9.313471090135161390e-02 8.615160745147165677e-02 7.699750520937724552e-02 9.995139956384840874e-02 9.435679702290625248e-02 9.581713768292304811e-02 9.055235317865434341e-02 8.898785566187333851e-02 8.783462462653728042e-02 8.698188421574389040e-02 8.617184786599413338e-02 8.516677328294978977e-02 8.376798186301442906e-02 8.183354598884537423e-02 7.940751532487878850e-02 7.655511008915577564e-02 7.576576982889650369e-02 7.955613269026651224e-02 8.087414285856493745e-02 8.317108947075485537e-02 8.174756070581649936e-02 8.023207172745602800e-02 8.524397784309556414e-02 8.743629348555134739e-02 8.791619502161031330e-02 8.950511451948177377e-02 1.027355890177010789e-01 8.111940649615832777e-02 9.905458809246285579e-02 8.712652257381220400e-02 8.769380411227116479e-02 8.409190199580018898e-02 7.818069744028291468e-02
7.800857253978010775e-02 7.850920235590255758e-02 7.882866853862655065e-02 8.099647154455408282e-02 8.095496604401858365e-02 7.868644058810839170e-02 7.581268008441685580e-02 7.476807641751767597e-02 7.605608286622544956e-02 7.989611120798945088e-02 8.265271687616380925e-02 8.449594544225350057e-02 8.567962209455215472e-02 8.644618631252848351e-02 8.700819923597330474e-02 8.749326455068283381e-02 8.792890044024291585e-02 8.832382416328105057e-02 8.905186835663708722e-02 8.942143742736624601e-02 8.920568445161541904e-02 8.822511783803456409e-02 9.966712361230531392e-02 8.483765598628106863e-02 7.865727645328227102e-02 8.139602011760568856e-02 1.036867000128762345e-01 1.009346960393155551e-01 1.011065298648877175e-01 1.015846689198939140e-01 1.021156010475256504e-01 1.023679830440055033e-01 1.018185416783083108e-01 1.026458167867247140e-01 1.029780109892651646e-01 1.019603408019150170e-01 9.912225674801175557e-02 9.984455519873963736e-02 8.067743793909634697e-02 8.929067149047568985e-02 8.222080588143072799e-02 7.797535406936373370e-02 8.010209942108621750e-02 8.851136797163955405e-02 9.955048021504686595e-02 9.451383148049538607e-02 9.362005850895316339e-02 8.726536686440779234e-02 8.462377055856841468e-02 8.137333778194019707e-02 7.557539481710670581e-02 7.634640440571846542e-02 7.999165223539833613e-02 8.270291603590146368e-02 7.858467544936283133e-02 7.864127393939548960e-02 7.854996736942031210e-02 7.841627963786482192e-02 7.837715253865740195e-02 1.013394910691974710e-01 8.756709696641976071e-02 8.726040968086219707e-02 8.669345742774599295e-02 8.606459119457190998e-02 8.529842381833048492e-02 8.422625735816541281e-02 8.262360227419711378e-02 8.024532728931851877e-02 7.688136708034218336e-02 7.504137824691026193e-02 7.841278324310260728e-02 8.182058848460221911e-02 8.401708809536310996e-02 8.551085649253471754e-02 8.686875237349539480e-02 1.019569656922007933e-01 8.624590705020557246e-02 8.216663131316689905e-02 7.761941303839903217e-02 8.270168660760142398e-02 8.599633023125821674e-02 8.766799119926536876e-02 8.807610673862506512e-02 8.792963598236025469e-02 7.864397322585486849e-02 7.782136268420648817e-02 9.268840190660986023e-02 8.562341669414236245e-02 1.010221461796279308e-01 8.688213289312443632e-02 8.722023166236540781e-02 8.746821455287145941e-02 8.791469865639323089e-02 8.773811181482837895e-02 8.735098774771951624e-02 8.683549135505505556e-02 8.613591493077793482e-02 8.512821348195293014e-02 8.366178375017158109e-02 8.160755935732882937e-02 7.895341639765486585e-02 7.596001641708942376e-02 7.945255836218806378e-02 8.320986507469782523e-02 8.387142567649735758e-02 8.559928006600135697e-02 8.414087549595632154e-02 8.013955031470193502e-02 8.327216947531172753e-02 8.698233932737102492e-02 8.855803198840264678e-02 8.890483769334006636e-02 1.026133881057087055e-01 8.116902310509577223e-02 9.896526093609078756e-02 9.361319933026203410e-02 8.994409214065501867e-02 8.368702698361295267e-02 7.720881918064489979e-02
8.149477066998128683e-02 8.192105510562318338e-02 8.382063277566355330e-02 8.393262779971527587e-02 8.216730943985656177e-02 7.979640522885622644e-02 7.899968645112409593e-02 7.552041586055237288e-02 7.537956634222364727e-02 7.954944044999107122e-02 8.255737432027365763e-02 8.455962488833017321e-02 8.585892149415012831e-02 8.671555842802514125e-02 8.730550805335063336e-02 8.769406868517320985e-02 8.780291885160543264e-02 8.772860651870970083e-02 7.883367860646951775e-02 7.905194224644046530e-02 8.105831666368581989e-02 1.032081272915221365e-01 8.709930165525327228e-02 8.564478766526745224e-02 7.919554024612809884e-02 8.340490317083550098e-02 9.369696752939310480e-02 8.657427477789637893e-02 8.787029281563524252e-02 8.649853793151961179e-02 8.571275560231758628e-02 7.988829152276277767e-02 9.056974474227219574e-02 8.453860192776622984e-02 8.190835896650244807e-02 7.919956256819814244e-02 8.128512756822690866e-02 8.332913524739302136e-02 1.052383176958889693e-01 8.302497960826009382e-02 8.186307662329628254e-02 7.803862110783114925e-02 8.223702250613307285e-02 1.015489904248467606e-01 8.713213811454478819e-02 8.634012005403962631e-02 8.550681859895192805e-02 8.444863987840618702e-02 8.224718371697692376e-02 7.904721943547594887e-02 7.491539379248933483e-02 7.647072777451915937e-02 8.036313075743466150e-02 8.336584470594260443e-02 8.561540495306563248e-02 8.229071771898575915e-02 8.214930866205587268e-02 8.169191814063915535e-02 8.045638831778366418e-02 1.011493338472471137e-01 8.729895005390318763e-02 8.692664722646128994e-02 8.640723929461074926e-02 8.587808152503698111e-02 8.521979258348884312e-02 8.423650458323701795e-02 8.271098041083205232e-02 8.041435133733160212e-02 7.932584919687933611e-02 7.553706571877195908e-02 7.580784624234587765e-02 7.956987711168977961e-02 8.222993884865388570e-02 8.389138745175317435e-02 8.462858659082850288e-02 8.449130565764963186e-02 1.025325290428573954e-01 8.044322820044652600e-02 7.723070882367254197e-02 8.347931784397216726e-02 8.640618608077621499e-02 8.783637248418205146e-02 8.827263569031973400e-02 8.808275708472616816e-02 8.021005559870354740e-02 7.732233758039515348e-02 9.148860344525168442e-02 9.986236223246330868e-02 8.640132993493439273e-02 8.662260026211202057e-02 8.657968488298418974e-02 8.658467933394671523e-02 8.662777864182620580e-02 8.655903038008366801e-02 8.632909974849407864e-02 8.587335238588146569e-02 8.509333277446490262e-02 8.384781258169970997e-02 8.199497497458091422e-02 7.944794556777307060e-02 7.636550396789243411e-02 7.715310987395786191e-02 7.942278360013553529e-02 8.760841596177268431e-02 8.585596576450296724e-02 8.723902239268604974e-02 8.595483500884336381e-02 8.035082642931029584e-02 8.306303931525084450e-02 8.524255346303206970e-02 8.800711797143868920e-02 8.932454553287116905e-02 1.024610528397235654e-01 8.129068983552056871e-02 9.984475736231013254e-02 9.317883262856882509e-02 9.182270501489939174e-02 8.709328584279502072e-02 7.584344168801433750e-02
8.464407743587364086e-02 8.593814179562192512e-02 8.598094411213051680e-02 8.470603580854485504e-02 8.309816897455146734e-02 8.283180757539103378e-02 8.002031098536968590e-02 7.617586686576277577e-02 7.491437896545737052e-02 7.931056479487776090e-02 8.252653315247587829e-02 8.468110779439737279e-02 8.610779870523038726e-02 8.710106071181297760e-02 8.787665476258217645e-02 8.857840836403677032e-02 8.931654870704902605e-02 9.024163982120779470e-02 9.329112227651832623e-02 9.200241607658939114e-02 1.037005241692939700e-01 8.209176290725578307e-02 8.742360164320645000e-02 8.565136094033397318e-02 7.946277189174653921e-02 8.342709205605147726e-02 9.372470665270948853e-02 8.606648998284220642e-02 8.757723907737634261e-02 8.558836624549476246e-02 8.418839890288475070e-02 7.965928113999573568e-02 9.081869315888191352e-02 8.305163555496491989e-02 7.881924148843660882e-02 8.039266155179553008e-02 8.388336590435317708e-02 8.322843381308886457e-02 7.785584029684644580e-02 1.032930797501270120e-01 7.791866579526629533e-02 8.008770347869693940e-02 1.018944603954455852e-01 8.693883239535760143e-02 8.644237608982341392e-02 8.537183702800776874e-02 8.402112140288246767e-02 8.224803522126693245e-02 7.972474896082418216e-02 7.641436071362596449e-02 7.506417792863639971e-02 7.631697984241507526e-02 8.233604173732400611e-02 8.744250154213638326e-02 9.103252472676010010e-02 9.334711742691949310e-02 9.375923178699108185e-02 9.349828665199877431e-02 9.248839935441953430e-02 9.986552239150897625e-02 8.688937484892507446e-02 8.654034574236760258e-02 8.614205601890011221e-02 8.577075232513693692e-02 8.522144241207242621e-02 8.429552406324018754e-02 8.281536101706889197e-02 8.245774765670221829e-02 7.968243619125248145e-02 7.601432292921224410e-02 7.511161519764167349e-02 7.912489575191011815e-02 8.214239825225931602e-02 8.420223515565235239e-02 8.552559225666894749e-02 8.620428838686573780e-02 1.001864356519587135e-01 7.902865787885630933e-02 7.732423579914705913e-02 8.421111560823923980e-02 8.678743944404543331e-02 8.790285113104492898e-02 8.845989587122900233e-02 8.796403750995460125e-02 8.150784244514160115e-02 7.752745339582513273e-02 1.005507074934100242e-01 8.524231471262301574e-02 8.563610763274789872e-02 8.573943197417772943e-02 8.583366515855157808e-02 8.590174177271882316e-02 8.593590555098426509e-02 8.586090877854257730e-02 8.560303945489858291e-02 8.502586854330218546e-02 8.400227071966891168e-02 8.234022722735134803e-02 7.994231859929039341e-02 7.680472407805777335e-02 7.600629709551251501e-02 7.865493636058294713e-02 8.283967106811040981e-02 8.987952719681373270e-02 8.723127066463923218e-02 8.826675260647731669e-02 8.719379784565195468e-02 8.275005585931682894e-02 8.072544924730518101e-02 8.520893105704224757e-02 8.643735102321187247e-02 8.861049775486520841e-02 1.020357275154344934e-01 8.123831521603180894e-02 1.059343196562054640e-01 8.978987626432462232e-02 8.530509923846929521e-02 7.928356329427932447e-02 7.424178769412166645e-02
9.347059030227519716e-02 9.334284624089329852e-02 9.279141521727851671e-02 9.189601464735792924e-02 9.051283649860657199e-02 8.766939722895195075e-02 8.360502458751914445e-02 7.744696097967532222e-02 7.470337676137080163e-02 7.923730048627512790e-02 8.260662064916443614e-02 8.488288941608029825e-02 8.641129828384232214e-02 8.749230582347984619e-02 8.832104152936252894e-02 8.897760526110372326e-02 8.943596939542304558e-02 8.954884660391970730e-02 8.880514322526721072e-02 1.021402083062240423e-01 9.097081532286500904e-02 7.986238030315150060e-02 8.691831464133698004e-02 8.519172775345840165e-02 7.947062472720198278e-02 8.335236630648625022e-02 9.303001109744273023e-02 8.511399737848775182e-02 8.660528608956823138e-02 8.391088307222843712e-02 8.187589009906215409e-02 7.965543482815937160e-02 8.946394740849894500e-02 8.069286214776673349e-02 7.808331569780951886e-02 8.314346984982409761e-02 8.183532835342455236e-02 8.162022795840988276e-02 8.610143181336242513e-02 1.043967784951384536e-01 7.718562298830794477e-02 1.007557545990799969e-01 8.572701052298331570e-02 8.508186313397757272e-02 8.388221531467136838e-02 8.230819512112741432e-02 8.024758153800677640e-02 7.758748967502053506e-02 7.725436533256324623e-02 7.874028206123154239e-02 7.563005419511396876e-02 7.559171303805517494e-02 7.737553065756806736e-02 8.061559754070796169e-02 8.268228130683041854e-02 8.397632341858785043e-02 8.492250820325870919e-02 8.566357114301131892e-02 8.599992253754995541e-02 1.006529121709834051e-01 8.633536048673946806e-02 8.612006254822687779e-02 8.598738840409643480e-02 8.581114280043726505e-02 8.530457032374964832e-02 8.437808138329348784e-02 8.450525258633651005e-02 8.266276565814074939e-02 8.003085354838178345e-02 7.648292565006348243e-02 7.463222029995771056e-02 7.664427851386300394e-02 8.023782884472192845e-02 8.294473211378551591e-02 8.510530564894658312e-02 8.708649068956869632e-02 1.032090897675072005e-01 8.074560850105778897e-02 7.827066672975974138e-02 8.470286669958425330e-02 8.714910763004160565e-02 8.778697941654645120e-02 8.874459032662466995e-02 8.736448312981001663e-02 8.159221208811355541e-02 1.033590824712223716e-01 9.327277842561526588e-02 9.468044029298092190e-02 9.503825039711955025e-02 9.507124141868886213e-02 9.483271797681891435e-02 9.452049055075914530e-02 9.383547139751251265e-02 9.299880706624462368e-02 9.152233754660071829e-02 8.973114176369550998e-02 8.690347028601370927e-02 8.374164161856957611e-02 7.944873105203947850e-02 7.588612469477225286e-02 7.743175273886183929e-02 8.190927322120779286e-02 8.358883999517408014e-02 9.187512922319650277e-02 8.825440878645268716e-02 8.880499071091391139e-02 8.797936847584830744e-02 8.447906857311192341e-02 8.080991343936583249e-02 8.375281859362725123e-02 8.677484196618751033e-02 8.631984504184063434e-02 1.003072356083627714e-01 1.038000893565788063e-01 8.880696548148359071e-02 8.682741666248514067e-02 8.282703535927260496e-02 7.702493427829486261e-02 7.444298482662604910e-02
9.464862918369423839e-02 9.390515145018492327e-02 9.317789904418496971e-02 9.216768460061483537e-02 9.047501522667208973e-02 8.739493464668852962e-02 8.250289107497155161e-02 7.771548695921781658e-02 7.473812403254803671e-02 7.932240110433999569e-02 8.280627651147856594e-02 8.519442506426676276e-02 8.682981590347524370e-02 8.799926309335630303e-02 8.885376799788777258e-02 8.942270104584625068e-02 8.977511549771456656e-02 8.949782409798509586e-02 1.030872154203154034e-01 8.840034630314327901e-02 9.143845394583970110e-02 7.990724922574456157e-02 8.595360895065888573e-02 8.425760074506333241e-02 7.936195239066623497e-02 8.311728587314076711e-02 9.151208286218243115e-02 8.366906073983371162e-02 8.505047133128609826e-02 8.154352769347482377e-02 7.876476636736422232e-02 8.331930567172673996e-02 8.526166104043689242e-02 7.774056652747037000e-02 8.147201708000215148e-02 8.013135469237199493e-02 7.833345381247998340e-02 7.893288775068554863e-02 7.951843849146947307e-02 7.802658180266570931e-02 1.028280808887992726e-01 8.370971834323306937e-02 8.331008674324032193e-02 8.200678230954261405e-02 8.018670876718068941e-02 7.771940054582304747e-02 7.794941566563033664e-02 8.034927784832841813e-02 8.194251541628379265e-02 7.956116341473594422e-02 7.625627185009516140e-02 7.552266002151969415e-02 7.905177255558383520e-02 7.799750015404650905e-02 7.844287436398968139e-02 7.856637940487722072e-02 7.827596043112587665e-02 8.101629783265879015e-02 8.302716648334852734e-02 1.010278722242328037e-01 8.563375329912681355e-02 8.577345833447780343e-02 8.616542729533278877e-02 8.600115754406655044e-02 8.541530357002972973e-02 8.581010818776163562e-02 8.460742428148571026e-02 8.284421267644713482e-02 8.033761817146378714e-02 7.691200480256212002e-02 7.511549942689646486e-02 7.787808924695417689e-02 8.146641380727905057e-02 8.401861317613799895e-02 8.563381085156705763e-02 8.624724273740769220e-02 8.528326125494115062e-02 1.010544006176071763e-01 7.694267020841101534e-02 8.472253620528247264e-02 8.760513771754338541e-02 8.731450520518618807e-02 8.921486988378768412e-02 8.623149112672372218e-02 1.047432956547849348e-01 8.357351039514948621e-02 8.315859563032503010e-02 8.432089634918767118e-02 8.612638342266026870e-02 8.648460784666855972e-02 8.680233668930549540e-02 8.577866591537657015e-02 8.605957152217197370e-02 8.458922485923477119e-02 8.457417246916180964e-02 8.223471302844018171e-02 8.153316536607291276e-02 7.799262447413614352e-02 7.645877094694508713e-02 7.616864319300535591e-02 7.842473855237280800e-02 8.241781604251730009e-02 8.596826604044016662e-02 9.300647423032870620e-02 8.934137425492180706e-02 8.886753492231540263e-02 8.840702364539022862e-02 8.567782054983619222e-02 8.105108160274011875e-02 8.433278161813018148e-02 8.608373870547231244e-02 8.821263548491392603e-02 1.068566534051458572e-01 8.984282054422647323e-02 8.899672177715552135e-02 8.678158814908210061e-02 8.265827048042162506e-02 7.595395823702388860e-02 7.429691704087051929e-02
8.593473328436665448e-02 8.299506262629707809e-02 8.318146428170361539e-02 8.325287361340169556e-02 8.312140353209113153e-02 8.262292202943155583e-02 8.047198234055716326e-02 7.572021413330004558e-02 7.450371734958141645e-02 7.942486701029216611e-02 8.308126722121575436e-02 8.561641017436694145e-02 8.739918518380962453e-02 8.868930695459135982e-02 8.953834591592484127e-02 8.962077925395167677e-02 8.985159147380201994e-02 1.032500615900022595e-01 8.952264322840619570e-02 8.862832814120139013e-02 9.091542239287354887e-02 8.000833640926137413e-02 8.467165732884457396e-02 8.282351194952430884e-02 7.914704104338338153e-02 8.261465571593776258e-02 8.883340620761494277e-02 8.151354113662820366e-02 8.276210870300647338e-02 7.833758527540875261e-02 8.019000231424248948e-02 8.051737028324140732e-02 7.972382568642510936e-02 7.932694394747374922e-02 7.753823927738451305e-02 7.831860298309677171e-02 8.131864110997344408e-02 8.363377420826209607e-02 8.522899436090229652e-02 8.592888901809210556e-02 1.016021071933894543e-01 7.832450783641992098e-02 7.851667821268454306e-02 7.857126500875383224e-02 7.846676297859689342e-02 8.085848731430042569e-02 8.279754865913033224e-02 8.439028733906256408e-02 8.266539547739008842e-02 8.022134244493572819e-02 7.686548345549854000e-02 7.497788718964021326e-02 7.911617140657815905e-02 8.494592805305611893e-02 8.789063522171811083e-02 8.947589189673049725e-02 9.083844943073698941e-02 7.897303102746942860e-02 7.896310509790051280e-02 1.003763230507810911e-01 8.422031995032897012e-02 8.641905204603339552e-02 8.666146827197068747e-02 8.614512650399908100e-02 8.667537784076924379e-02 8.586903554382924186e-02 8.466904821270544723e-02 8.296300631508397860e-02 8.056256201463725397e-02 7.949792615398919293e-02 7.577378569849269052e-02 7.531654021219121031e-02 7.918135828490847905e-02 8.218892960372868595e-02 8.435387032483095127e-02 8.597108652549639851e-02 8.742291420743637798e-02 1.023839543412006226e-01 7.954777135384845377e-02 8.442713505116192230e-02 8.834719511768183986e-02 8.589297866867733056e-02 1.012418291087762851e-01 1.040633235948230234e-01 8.354619131658137798e-02 8.389878277837077569e-02 8.309583846898256632e-02 8.292719306756994591e-02 8.316553097776091530e-02 8.503900935545025130e-02 8.531478351521434855e-02 8.560487326289431542e-02 8.410909765335423949e-02 8.418888445065803028e-02 8.190220580511117787e-02 8.139219624452956325e-02 7.795642972726742059e-02 7.668202236301391306e-02 7.533122577364320671e-02 7.750424041647019369e-02 8.126135125075491239e-02 8.244532782931340842e-02 8.478066276686012370e-02 9.608753104636275078e-02 9.104335143093596205e-02 8.827153826230660361e-02 8.862465394889174064e-02 8.673764987755977485e-02 8.170199162620039868e-02 8.493014634944762165e-02 8.683144011182176991e-02 1.094019475002032116e-01 9.225546706457762869e-02 9.349137421451346464e-02 9.285562954599002605e-02 9.020115307362897017e-02 8.455288859221705977e-02 7.500620912361538606e-02 7.272138416875337241e-02
8.234634368944231120e-02 8.407108494238579866e-02 8.030146194917001101e-02 8.024098556538078464e-02 7.994131222869121922e-02 7.927695938877611648e-02 7.799329678824441781e-02 7.505638126689705147e-02 7.450480708108928041e-02 7.954050360317294066e-02 8.338526513032329390e-02 8.608693566680239440e-02 8.803147850816797626e-02 8.952167715672371129e-02 9.088302091958211371e-02 9.652008429067143735e-02 1.029785433600874517e-01 9.062136670864172350e-02 8.997048480624603162e-02 8.826365816471147541e-02 8.972774470056706086e-02 7.988625877659548402e-02 8.297206022682442061e-02 8.081750335523146811e-02 7.880016199694761525e-02 8.337906016916141194e-02 8.325943933305966771e-02 7.845695292451565495e-02 7.964216150059111321e-02 7.724342136605379106e-02 7.735049015360770386e-02 7.727799082113182005e-02 7.695512755372969915e-02 7.739494080600341219e-02 8.023110731832594489e-02 8.281361927564138969e-02 8.500264812403665604e-02 8.680061196140387292e-02 8.832500508163410036e-02 8.970730267999249552e-02 1.054044773362085990e-01 8.039162600323712660e-02 8.269003942525519901e-02 8.151107202852590772e-02 8.301745452906794664e-02 8.459702686214873313e-02 8.611349109496375942e-02 8.486158629370800510e-02 8.312923134920151280e-02 8.070333004307192470e-02 7.956035838204103539e-02 7.577250213283756586e-02 7.605100929209428207e-02 7.983557350141376463e-02 8.283784857480537556e-02 8.534650658401048140e-02 8.808164880616778381e-02 9.650642205499326831e-02 9.545872008380167084e-02 1.023720500188759763e-01 8.627927107780153371e-02 8.810385512125309959e-02 8.651628078779967368e-02 8.726809301640292560e-02 8.676032533821383119e-02 8.586084444750230471e-02 8.465135070988989707e-02 8.299313836096017249e-02 8.258515405509725404e-02 7.987215073815709387e-02 7.635286944627821260e-02 7.473169887529622357e-02 7.641911066799433883e-02 7.991622325560798767e-02 8.244930316080978372e-02 8.407483304476266739e-02 8.475588687766488771e-02 8.379197432723028971e-02 9.867076991737483427e-02 7.605816262865387756e-02 1.006505656293441436e-01 1.020004271044436805e-01 8.048490352684714577e-02 8.087918477919193994e-02 8.321251232520769647e-02 8.193281572406033164e-02 8.125504574026810867e-02 8.092309940169732652e-02 8.090959235885351875e-02 8.105742837942207790e-02 8.321769079580264294e-02 8.341897318197395716e-02 8.352617069435261388e-02 8.139955143922124325e-02 8.097666417364596247e-02 7.773426828758317475e-02 7.657356632857846568e-02 7.492204826017104247e-02 7.695987719362464008e-02 8.054421178352894062e-02 8.172546118750884103e-02 8.425215746176523135e-02 8.471134913557444579e-02 8.645262528180634731e-02 9.905556801482857943e-02 7.956007800233114158e-02 8.938582779084433549e-02 7.999821261256218063e-02 9.164908062817830880e-02 8.263722579738562446e-02 1.097279337651415609e-01 8.433022709809118167e-02 8.310404070069818405e-02 8.377801281362326491e-02 8.383824071594453420e-02 8.260293626439355053e-02 7.915162699628289222e-02 7.150817465757457192e-02 7.015380135193276245e-02
7.911527955748681729e-02 7.903203490704070744e-02 8.082401189497967486e-02 7.617054418782163994e-02 7.578153474291149383e-02 7.522825574264960236e-02 7.455089010149876239e-02 7.388362441866136443e-02 7.399005169415125149e-02 7.937129996955583078e-02 8.501297100323684797e-02 8.987898693549903339e-02 9.304454994145046343e-02 9.512109356399128801e-02 9.675280699841329324e-02 9.834981507819222368e-02 9.177299151216128381e-02 9.155449293042235148e-02 8.983676391370604142e-02 8.744943926691631231e-02 8.531642456151596055e-02 8.306731400432215695e-02 8.071878601098955719e-02 7.820082690665419722e-02 8.023630883029403416e-02 7.848639062336518202e-02 7.787693430963406327e-02 7.715852016511233480e-02 7.691821798698458834e-02 7.738179394888483609e-02 7.763411737250278111e-02 7.774832644972651252e-02 7.778067645661350393e-02 7.771323790421363897e-02 7.813035411933411112e-02 8.081498219444799291e-02 8.305209810513466961e-02 8.476985748742853211e-02 8.589070322271408209e-02 8.681455273738122869e-02 7.776535072282181327e-02 1.045831936840509457e-01 8.255242426208561635e-02 8.395263479712923582e-02 8.568571627616841657e-02 8.719487863952053719e-02 8.633509678009326782e-02 8.510819295374637272e-02 8.338309208181113319e-02 8.291258364555902094e-02 8.012387064448121821e-02 7.650125534605273225e-02 7.502688817150983402e-02 7.678422227534596745e-02 8.020113778547466321e-02 8.255728428199470004e-02 8.405738081029855147e-02 7.836863072685877618e-02 7.808011030900234573e-02 7.927671003578790065e-02 1.022743674367787015e-01 8.484802509741783128e-02 8.754361862840250030e-02 8.760052880659180419e-02 8.669563623809024844e-02 8.572982912030241431e-02 8.454731664605949493e-02 8.452426029448710521e-02 8.264580216996084139e-02 8.014049034630094104e-02 7.683595077856145150e-02 7.523118809744930302e-02 7.751479994594090428e-02 7.714488953996484488e-02 8.036259492513471436e-02 8.264468417757886431e-02 8.426106353840955021e-02 8.531419348413522841e-02 9.585142582284883472e-02 9.993161472454403782e-02 7.723789307342533716e-02 7.736326481745355033e-02 7.901150464061286460e-02 7.809078356318177594e-02 7.830211623931389309e-02 7.814142502108646637e-02 7.781874355622421524e-02 7.761850453140595185e-02 7.761513772856830362e-02 7.775195221831424086e-02 7.793745592116736731e-02 8.057614284134753668e-02 8.060247674941584117e-02 8.030956612512450687e-02 7.733399516131925222e-02 7.627678366236273488e-02 7.478742723793495306e-02 7.671072033264347834e-02 8.019091140738138224e-02 8.132696234452405082e-02 8.378960768968801709e-02 8.408931119160280299e-02 8.564538516939777801e-02 8.633229037417976259e-02 9.786585653941760887e-02 8.161715153407914092e-02 9.000112369514962074e-02 7.966747426099374252e-02 8.212955246068315285e-02 1.064355597171886131e-01 8.802367820181311586e-02 8.903737613241718973e-02 8.929333776827820535e-02 8.873570855460882756e-02 8.716919215558588396e-02 8.402548187284593351e-02 7.834610497238515825e-02 7.194370490943391427e-02 7.324417740264090038e-02
7.489260941111267056e-02 7.470464359224023021e-02 7.445315607335771524e-02 7.599020569630618449e-02 7.394957203922290778e-02 7.418383110245507783e-02 7.423547218407408610e-02 7.413795630199775111e-02 7.372565680753803696e-02 7.652556234336549412e-02 8.155929264007581725e-02 8.388929057385291488e-02 8.742300025660737495e-02 8.834740851782106608e-02 9.686483343726232098e-02 9.110375661173297779e-02 9.178341170894808998e-02 9.154621742191461353e-02 8.900089067982702717e-02 8.575554676758619099e-02 8.259442130295410744e-02 8.086744504514409293e-02 7.810271137132028529e-02 7.766490648505951222e-02 7.778068741070845449e-02 7.841508902149248172e-02 7.880061867048622493e-02 7.913216365972754185e-02 7.938806023670574863e-02 8.161028596085520559e-02 8.163743028253891976e-02 8.154951226027068456e-02 8.137201702448551566e-02 8.109044749763857918e-02 8.066066405016598939e-02 7.808666146021525645e-02 7.832397636996907275e-02 8.084376177010882403e-02 8.294081940179449941e-02 8.491604055854710953e-02 8.852170769609263301e-02 1.048490755395594110e-01 8.326105793448829173e-02 8.630308688538000650e-02 8.766677632284654298e-02 8.727090752543827101e-02 8.645768517217050642e-02 8.517699566532373201e-02 8.505880199994286794e-02 8.313167706620305797e-02 8.055592400187217006e-02 7.711506423601593996e-02 7.537997146765584855e-02 7.736571983860576762e-02 7.723989883480913976e-02 8.023261614164146904e-02 8.231337604276227349e-02 8.405754665854674179e-02 8.553753547591763651e-02 8.699263101381050911e-02 1.029397786678883514e-01 8.695065654671707556e-02 8.930766570192572029e-02 8.731139153584335788e-02 8.634500943860080879e-02 8.554234954943551461e-02 8.573944617316046901e-02 8.437648947181386472e-02 8.259396986211003933e-02 8.027008767331685057e-02 7.939466999665084623e-02 7.596366450398743531e-02 7.578154956711609380e-02 8.074584361621721385e-02 7.810850044372415202e-02 7.856879667087020291e-02 7.863856217276367355e-02 7.914789282283925254e-02 1.011843603826754062e-01 7.669079580854060163e-02 8.643256156133147239e-02 8.556553700805752394e-02 8.543945539167215053e-02 8.508726340086454620e-02 8.474148345307375152e-02 8.431026407556890812e-02 8.360805393924714002e-02 8.271652850264865631e-02 8.205225824639347798e-02 8.094431786876768453e-02 7.930836688773099108e-02 7.694674580717345003e-02 7.701572042201232371e-02 7.666872655397417857e-02 7.579725884722486595e-02 7.474614153020239793e-02 7.660575475151609748e-02 8.005022176299028680e-02 8.116148371899001290e-02 8.365520992369429587e-02 8.399680089986227838e-02 8.548769807338509052e-02 8.504693805527469008e-02 8.501872819844706608e-02 9.886960102854251697e-02 8.371576559158348807e-02 9.058309516214514689e-02 8.004637434388962858e-02 8.281308432927569907e-02 1.052432313300214334e-01 9.089134736934191550e-02 9.053760651905104484e-02 9.035747313408905301e-02 8.980909270730955130e-02 8.834152448112789213e-02 8.527792719429488910e-02 7.955274658246225261e-02 7.222256926571361813e-02 7.130499915956212131e-02
7.475854875751700157e-02 7.480208772182068977e-02 7.486892159897792776e-02 7.494970732694451743e-02 7.741030423243117076e-02 7.747681529635751241e-02 7.739016600595365059e-02 7.708865284442238675e-02 7.460709821002271813e-02 7.444150601957404134e-02 7.777801220946439775e-02 8.266728042357993078e-02 8.485509755063491699e-02 8.877938698272397344e-02 9.362641589259695918e-02 9.003381694904477595e-02 9.087464725596963722e-02 9.058398139627603374e-02 8.726834318634532628e-02 8.329077289427264108e-02 7.953735481050235034e-02 7.812832513155781866e-02 7.841024618084849185e-02 7.958280337461742793e-02 8.035258399897388104e-02 8.295039130798981253e-02 8.319300934476796250e-02 8.330575947839574669e-02 8.332277334034471350e-02 8.321675704928055417e-02 8.481120929096727656e-02 8.452191946914766607e-02 8.417952210652623890e-02 8.376888366121838791e-02 8.326497918989166080e-02 8.266412622068786131e-02 8.038985300357223696e-02 7.773450320916087952e-02 7.785890168442216597e-02 8.027670810724729655e-02 7.904403282545996445e-02 7.805437999617237388e-02 1.059515283124313756e-01 8.633297470363668347e-02 8.787139772310552377e-02 8.736853788742741933e-02 8.651276300973820277e-02 8.636718942575989655e-02 8.496653074823212748e-02 8.323814590453498807e-02 8.084707287540253418e-02 7.980555132245617522e-02 7.614519483310225323e-02 7.552713054379450730e-02 7.972205602371812416e-02 8.246691562443830836e-02 8.447915385251208997e-02 8.589321800977431365e-02 8.666093383206757705e-02 8.657003214560521354e-02 8.465622075897993870e-02 1.031626164151036029e-01 8.700810785171214645e-02 8.621750718385923218e-02 8.614302741387086515e-02 8.659548441948305975e-02 8.551172713824151117e-02 8.411384260011500746e-02 8.238971396637199962e-02 8.205221397820360030e-02 7.981183118098293672e-02 7.667347647549548062e-02 7.522663410172301945e-02 7.909306466394906698e-02 8.574410675035427920e-02 8.849937179087714878e-02 8.997078192568931654e-02 8.987400646327942111e-02 1.008040026436384795e-01 7.981615680178272276e-02 7.707368797685520967e-02 7.658995561902022520e-02 7.659060435209891216e-02 7.672356933528935719e-02 7.711194427997411505e-02 7.729177754144717083e-02 7.719571152852694462e-02 8.588727192473682992e-02 8.489594898631161457e-02 8.422818021078740114e-02 8.294207135376899243e-02 8.103789382415353681e-02 7.849053614815892921e-02 7.553083677843999699e-02 7.454400487627914351e-02 7.645819300655126716e-02 7.994663983357060133e-02 8.108045251515329233e-02 8.361668742524619446e-02 8.400639581823389490e-02 8.565913522075796482e-02 8.554523578915555759e-02 8.645703653077220496e-02 8.569335473549090365e-02 7.880276648063691547e-02 9.771402128011477672e-02 9.069105915203423685e-02 7.897832924248167352e-02 1.023738201803663234e-01 8.723753134864303815e-02 8.931721349850266223e-02 9.028933160437760397e-02 9.066077115363770089e-02 9.039023610653865171e-02 8.919114195196048422e-02 8.649994939717670084e-02 8.133021881274944687e-02 7.401265626731926006e-02 7.324702617467633570e-02
7.836009348058811663e-02 7.836803235704536963e-02 7.839318155469771066e-02 8.037805093211465579e-02 8.044586054164556965e-02 8.046793061196449992e-02 8.038016734109514061e-02 7.816387358682945485e-02 7.541892693086112154e-02 7.493891349128714574e-02 7.537670748879604643e-02 7.847454811268490815e-02 8.339029808183684445e-02 8.548741371796825250e-02 9.066437149594019917e-02 8.798594907296239387e-02 8.876245968134460762e-02 8.837853111102730863e-02 8.445955562022065821e-02 8.006619779419632543e-02 7.840716752346853224e-02 8.126647062671407684e-02 8.077957501097644821e-02 8.387941727972189621e-02 8.438760902002943876e-02 8.459504861438431333e-02 8.646537415971916607e-02 8.634924780643836451e-02 8.618907966391180231e-02 8.594633898423693907e-02 8.561041778094091725e-02 8.673517131622592025e-02 8.627669644091859324e-02 8.579896073376647170e-02 8.526214723899551429e-02 8.467690950620952728e-02 8.406296356604223141e-02 8.210169339505057895e-02 7.991606055119510055e-02 7.737416442081306023e-02 7.709980977920663503e-02 7.936155398811636785e-02 7.700851993979568322e-02 1.044147403287067760e-01 8.623573025615451082e-02 8.835326579505536904e-02 8.708024421692731054e-02 8.589230513224621610e-02 8.482730350069378478e-02 8.329017904457010346e-02 8.292830629735284398e-02 8.018787704120595994e-02 7.664591980965740348e-02 7.620466490421928807e-02 7.764187595612938309e-02 7.652047145749608925e-02 7.944436076742569797e-02 8.180725696413412851e-02 8.359912054443285889e-02 8.490969401054750121e-02 8.563101309589353505e-02 1.004837254900663446e-01 8.459627552492748892e-02 8.642565728733564434e-02 8.747091597025048737e-02 8.640471373682884204e-02 8.513577486679380080e-02 8.368645359467931366e-02 8.345390768707561246e-02 8.182031836099301625e-02 8.037897515694736317e-02 7.744273604872825567e-02 7.791179125259228844e-02 7.575411525964559356e-02 7.948914859162176105e-02 8.236918770708701043e-02 8.440767446586416867e-02 8.555938888079933635e-02 1.010551583350874916e-01 7.756717723210829196e-02 7.978509966285743382e-02 7.982034868921544790e-02 7.988590683789829894e-02 7.995008723956209540e-02 8.136391596244144098e-02 8.120413129955031395e-02 9.193999074417991135e-02 8.676172341079557704e-02 8.544483825344813266e-02 8.390231505300516091e-02 8.192949854008559074e-02 7.937414732344533208e-02 7.621389529271452301e-02 7.515523643498939199e-02 7.598819158403037621e-02 7.966043675197680141e-02 8.094948895154929769e-02 8.358003270476788149e-02 8.401635152881610502e-02 8.574161511105660161e-02 8.570775724476858981e-02 8.684989918379848461e-02 8.661851591566027686e-02 8.746212600127108161e-02 8.775947339724393670e-02 7.841694833035217638e-02 9.764888564383157610e-02 7.844096229055887159e-02 1.018608048954385281e-01 9.034842821902976107e-02 9.060372249364682939e-02 9.060291997770431038e-02 9.039126226784684193e-02 8.973505141532157892e-02 8.827627756246499147e-02 8.554026135279096943e-02 8.099649945568387910e-02 7.433287748511636928e-02 7.474431348682282483e-02
8.116897901873509902e-02 8.117331895566548550e-02 8.284996767307516163e-02 8.293570562191146522e-02 8.304343983018760977e-02 8.313830955376531884e-02 8.140169250217199615e-02 7.916749462527306047e-02 7.882115076079854177e-02 7.578901843897691004e-02 7.499701002669327543e-02 7.556397847377982480e-02 7.836867730737813453e-02 8.268289254434579849e-02 8.490911893426157653e-02 8.404603805375286674e-02 8.475164422813720455e-02 8.449401606588957669e-02 8.036736221349755072e-02 7.913117307095658692e-02 8.201861876235996829e-02 8.476857127931802793e-02 8.644544083050918759e-02 8.510347213232380414e-02 8.706849916447287341e-02 8.709216288011269180e-02 8.698982144951898643e-02 8.832232759798178123e-02 8.814298050743527013e-02 8.784977293056896175e-02 8.744816922764721279e-02 8.698904333655900489e-02 8.771775068729022184e-02 8.721995455160172495e-02 8.661977540726502334e-02 8.600187184308939747e-02 8.546242426835121142e-02 8.497717211743405219e-02 8.345863486713772650e-02 8.169925637576569422e-02 7.963527766158051691e-02 7.719031689391975259e-02 7.645863538956215733e-02 7.550782697085049733e-02 1.026544039427943478e-01 8.640424045488068194e-02 8.571306524464325505e-02 8.561009757971797807e-02 8.477624362073370168e-02 8.494194363235800516e-02 8.308267188811922777e-02 8.038019795440193294e-02 7.723779540290694190e-02 7.925497040436978169e-02 7.648842085394609580e-02 7.973852644832697678e-02 7.663141291522435061e-02 7.729916495094157902e-02 8.025875541438957927e-02 8.290848473183470846e-02 8.550360022581747488e-02 1.037395653775167043e-01 8.600874495136728859e-02 8.932191438737825673e-02 8.726975795037886230e-02 8.587955272417030494e-02 8.459198705918045957e-02 8.431151436473949268e-02 8.273622805732046281e-02 8.248024431430113490e-02 8.126122010947157970e-02 8.252097134034860892e-02 7.709976491114384212e-02 7.526451408997907044e-02 7.656061419122428546e-02 8.021577281132352688e-02 8.323677969833442880e-02 8.593434645062938970e-02 1.047687312623305361e-01 8.108631083887050950e-02 8.317196230105189381e-02 8.167869392044742327e-02 8.259794015245051912e-02 9.581740947900173333e-02 9.422120604201175698e-02 9.491466544845532372e-02 8.817746116772606779e-02 8.650959914642118720e-02 8.472126479029053192e-02 8.261495190930095989e-02 7.998464479371697466e-02 7.670370719669107606e-02 7.735319785119634806e-02 7.592955371253855279e-02 7.690597334001408880e-02 8.059474609311600979e-02 8.345501220778159257e-02 8.400860606012575116e-02 8.580610644860077463e-02 8.580049248378733562e-02 8.699547769370336026e-02 8.677906042658763142e-02 8.766275056840831803e-02 8.755227789740731292e-02 9.246681027538472541e-02 7.852282427275364407e-02 1.017880398843321182e-01 1.020780849433280263e-01 9.539080330208661584e-02 9.788163158360066451e-02 9.053184896021160277e-02 8.954121925293562212e-02 8.876413079582015642e-02 8.780117366993708816e-02 8.619449919585134290e-02 8.354761456673805153e-02 7.953971800465936548e-02 7.431266861475048502e-02 7.472040409040844877e-02
8.327619956895482289e-02 8.473542155347549287e-02 8.485711328556300170e-02 8.503469107652414372e-02 8.525730923936530870e-02 8.396131683405409774e-02 8.230639543247203482e-02 8.226331680041333583e-02 7.980721591758173361e-02 7.910397957288158033e-02 7.559332974302562791e-02 7.427869302824499642e-02 7.410910764788040950e-02 7.571822498724516126e-02 7.620792600160489205e-02 7.672594159672771474e-02 7.768408490526899912e-02 7.813788166244901856e-02 7.786833539153426020e-02 8.120421795828169920e-02 8.459382896709770339e-02 8.788056946779576606e-02 9.288322431308114469e-02 9.894946408253008086e-02 9.994812759914581402e-02 1.010630110466026466e-01 1.020501417770001140e-01 1.028358347137980078e-01 1.033565955132921266e-01 1.034840175432137493e-01 1.034760257241007370e-01 1.034000225596205524e-01 1.031140017462009867e-01 1.025774268363299213e-01 1.016827283098593049e-01 1.021525033677265770e-01 1.025337621792928311e-01 1.028279563498431665e-01 1.025184439210852505e-01 1.014393476117167875e-01 9.983645935577709074e-02 9.971442473572666998e-02 9.840112341906295801e-02 9.614034634079034192e-02 9.943595690802081721e-02 8.416083882424470197e-02 8.612716394391295438e-02 8.559354025138667110e-02 8.617980886547095543e-02 8.506280952393073524e-02 8.322294903343019357e-02 7.803990642335929817e-02 7.998389296227342848e-02 8.177383352360392821e-02 7.952479111311427928e-02 7.656408869699116160e-02 8.198553416783239955e-02 7.931380948603404535e-02 7.713308780885455573e-02 7.762001621830125209e-02 8.000574543665313343e-02 8.018147378547502147e-02 1.036340463398306988e-01 8.748879366083427145e-02 8.615483084313152462e-02 8.526433630648799777e-02 8.502904194580596098e-02 8.353088582649849381e-02 7.736210937458098957e-02 8.727306655497919785e-02 8.544837568365296065e-02 8.133405991312717132e-02 8.024874485329114293e-02 7.638380674682021532e-02 7.538598330323935393e-02 7.906349904496003111e-02 8.175702666223844117e-02 8.353245729529004682e-02 7.725955412866013228e-02 1.032377534841617817e-01 8.232496568469205300e-02 9.598606600966691493e-02 9.617439906702239527e-02 8.858608262151453083e-02 8.722276396242165108e-02 8.641011305387064079e-02 8.594429665897453108e-02 8.467095245951404558e-02 8.278386020478746554e-02 8.026492490941844471e-02 7.699823851978669642e-02 7.917384332662182056e-02 7.609891464098371416e-02 7.880175609551509641e-02 7.728398390055271627e-02 8.125937035822057564e-02 8.399559338729281621e-02 8.591233509989229522e-02 8.592189735935701345e-02 8.713202720845954208e-02 8.691374920264910431e-02 8.781884105565457288e-02 8.757281930168325790e-02 8.742855211631279932e-02 1.046603358314880661e-01 1.035476413899922704e-01 8.697510332775866548e-02 8.590119342895603805e-02 8.831900365485276239e-02 8.080938861390991879e-02 9.908862678660443346e-02 9.513439816534163818e-02 9.427956454599924208e-02 9.241989453427439105e-02 8.982257152669886890e-02 8.561108422720559163e-02 8.055442148157265780e-02 7.430096423387785864e-02 7.402353083442626824e-02
8.604125336074058827e-02 8.620667022496313059e-02 8.644183240328384699e-02 8.674931600049719249e-02 8.579541476478448614e-02 8.461023596258329671e-02 8.483064271043556925e-02 8.306511830988469458e-02 8.280074820259387958e-02 7.990245335566617535e-02 7.842416627428311360e-02 7.394618707502201294e-02 7.131544308862007575e-02 6.952914991167204184e-02 6.894318626337146705e-02 6.862316446277016979e-02 6.895410113236151439e-02 7.190318280043619947e-02 7.666147574934262243e-02 8.095935227636180676e-02 8.429527227312383353e-02 8.674557468391463910e-02 9.044048485097290480e-02 8.373836240918258733e-02 8.414729861026132296e-02 8.440109247687783978e-02 8.487225454709426686e-02 8.600321428745061336e-02 8.823957539816086604e-02 8.658372632739973207e-02 8.580413102770596823e-02 8.548258164659777725e-02 8.522183311390023330e-02 8.618474924134532367e-02 9.201159186807152113e-02 8.742962528255562860e-02 8.639472465165465298e-02 8.290881506209683838e-02 7.966595656467620468e-02 8.283396246183397094e-02 9.139741533976242227e-02 7.847334786472554002e-02 8.039440955686234791e-02 8.412438022475721144e-02 8.417886712199978971e-02 1.057289989885594195e-01 8.463136968615996014e-02 8.698867359285857026e-02 8.625845002729047584e-02 8.529296648902588707e-02 8.140687325828034615e-02 7.799280935054687947e-02 8.211751121401100750e-02 8.376132283540441148e-02 8.188473607645753438e-02 7.939318605107084648e-02 7.722722495189168757e-02 8.416313418444550110e-02 8.157217450887387089e-02 7.969871034588676961e-02 7.743816488752543192e-02 7.804238648905369169e-02 1.008073233436543731e-01 8.584898246560829227e-02 8.566942922113544856e-02 8.580162623665874011e-02 8.421881319120988474e-02 7.697703044998700783e-02 7.992361417276419577e-02 9.155882713323608424e-02 8.432041310978903581e-02 8.385360396501008451e-02 8.095204310369094602e-02 7.726074722943553075e-02 7.545329765939928768e-02 7.616792331482390155e-02 7.956882105228220425e-02 8.199819012206677193e-02 8.364860247943556315e-02 9.964214762212797449e-02 9.456518453343393249e-02 8.782463212000968245e-02 8.703509124080956172e-02 8.701241034139869934e-02 8.635448767850306684e-02 8.542011160111868950e-02 8.421966852046179619e-02 8.251286770096920298e-02 8.014161626041349518e-02 7.706910100721482693e-02 8.088241235845444743e-02 7.605074588157549609e-02 7.899259482870993332e-02 8.099838591175290148e-02 7.690103031603748307e-02 8.211905967952136398e-02 8.467350892332980994e-02 8.629244238754220364e-02 8.742047680275480404e-02 8.710824152438750856e-02 8.797798217564208045e-02 8.772554799798010228e-02 8.761132332745168172e-02 1.074933340166381868e-01 8.623060210005828452e-02 8.603154213059782673e-02 8.840513208405199885e-02 8.729140055753492611e-02 8.666339983952632553e-02 8.737859838442066374e-02 8.588535649412770701e-02 8.814906825486988617e-02 8.627133567959661964e-02 8.577460647086823653e-02 8.286161398276015166e-02 8.116774460908368627e-02 7.670826913649542167e-02 7.376763463205109062e-02 7.440006252788571028e-02
8.702525025375623668e-02 8.730129813412429440e-02 8.766534281861382283e-02 8.696789987437450464e-02 8.612152846135831541e-02 8.650699058333974345e-02 8.525885646288668129e-02 8.530084204923887858e-02 8.339428064049941858e-02 8.257634758067006198e-02 7.855150918304570906e-02 7.544087903031541920e-02 6.922885158189330534e-02 6.716539331972080917e-02 6.782631473279251977e-02 6.891221782152981423e-02 6.013213202028322435e-02 7.304342203308236692e-02 7.192673394062035208e-02 7.485820986847142866e-02 7.863437397125164208e-02 8.123569100319549818e-02 7.835318723961903764e-02 7.893282691749248237e-02 7.934611648098623127e-02 7.978277625578927834e-02 8.089359997306112826e-02 8.471914014593344422e-02 8.367645078359726984e-02 8.262581105732640097e-02 8.243809482193428795e-02 8.257665068832452382e-02 8.478925159670003264e-02 8.574499956959263924e-02 9.049683035420091892e-02 8.703441136761182195e-02 8.512418420119843843e-02 7.948339859517891681e-02 8.110295733961869757e-02 8.543196728622418079e-02 8.876211480885727589e-02 7.767982814667326319e-02 8.488715331594594293e-02 8.536706468582046237e-02 8.583649335222230670e-02 8.517579414829580531e-02 1.071212148428245386e-01 8.521218964170416965e-02 8.673730529136824963e-02 8.400475930828454896e-02 8.147087867670654848e-02 7.779736712617874028e-02 8.382814304989122389e-02 8.530137774777274418e-02 8.366738583112236227e-02 8.160279781322932191e-02 7.726441781388862506e-02 8.019654982926829878e-02 8.595969824773153078e-02 8.327478939912880129e-02 8.133950026920902521e-02 7.922437147478496311e-02 9.896488928611847646e-02 9.048946027722637453e-02 8.936874736157185417e-02 8.466783808682680490e-02 7.862460315630420693e-02 7.730439526573075482e-02 8.188499588106609717e-02 9.357340589020676780e-02 8.608342497529891668e-02 8.406940755390503173e-02 8.135712914453177569e-02 8.022984873515720539e-02 7.644468094518495904e-02 7.557969426478511332e-02 7.698224030148875796e-02 8.044572915773323674e-02 8.286267461235252707e-02 1.010691261706091332e-01 8.561467329487311428e-02 8.609275020557430325e-02 8.568473066672011029e-02 8.496573094445952767e-02 8.386327254593022029e-02 8.234966446108671345e-02 8.030073754300359745e-02 7.756706446408948019e-02 7.692830797638181006e-02 8.277651426735221918e-02 7.645368155400759924e-02 7.885930629641352274e-02 8.126041550686638471e-02 8.243321843945763949e-02 7.818004721355789610e-02 8.127447491450554007e-02 8.574667337636904252e-02 8.692414405813561618e-02 8.768498256012992320e-02 8.830650677525993253e-02 8.791353816652094921e-02 8.767411223382498564e-02 1.081141940238840582e-01 8.707566506557212760e-02 8.746808657923930974e-02 8.640700354616484558e-02 8.713874960877471265e-02 8.665049457022780399e-02 8.683304205775262130e-02 8.591120803129638495e-02 8.616390350582214808e-02 8.525231454123446961e-02 8.547629485715418918e-02 8.294184074256255590e-02 8.180625903810301303e-02 7.771164512721075168e-02 7.524800595670343151e-02 7.503239788676824285e-02 7.586037316943111675e-02
8.769917882361705219e-02 8.808176842503194492e-02 8.758547367362934377e-02 8.699202204978301323e-02 8.748454591024945604e-02 8.661319802609945828e-02 8.680307640422355031e-02 8.507581759843541036e-02 8.566457027640414501e-02 8.264564318864771331e-02 8.002581393540353361e-02 7.399261933944367708e-02 6.747785385319064744e-02 6.584459898572507519e-02 6.693361028663862011e-02 7.233180227766548842e-02 5.971627896310986033e-02 7.412813310708935011e-02 6.854901863313604682e-02 7.613681017820349284e-02 7.606753258132958884e-02 7.682633059753279925e-02 7.700913580083268428e-02 7.683321178978737287e-02 7.643912307192565758e-02 7.594714772237134981e-02 7.537759859762102610e-02 7.573763361632954161e-02 7.606524871864987769e-02 7.677058700863524654e-02 7.762780204948796503e-02 8.059337213757117313e-02 8.171679783090528282e-02 8.319557216308590131e-02 8.803809236447118769e-02 8.588161640730777868e-02 8.266121209148383220e-02 7.844905287458325827e-02 8.337213919099176196e-02 8.381706794611637479e-02 8.413626906251703286e-02 8.409985478357122346e-02 8.522808100988965574e-02 8.527923654261883313e-02 8.627003094326077259e-02 8.651665375643599609e-02 8.562411679088743899e-02 1.081001916391884782e-01 8.401785567001961164e-02 8.502831865900378761e-02 8.114291681389791677e-02 7.792658382711248333e-02 8.521544028596933495e-02 8.649862758841345145e-02 8.494756869032343838e-02 8.330226080062741456e-02 7.751251360067713814e-02 8.046841850119355877e-02 8.262885862077420929e-02 8.712891720116573702e-02 8.452678840537806992e-02 8.187391165299902351e-02 1.007493989720539551e-01 7.975365541407414272e-02 7.658317048135884764e-02 7.940020939544231715e-02 7.737053005047062060e-02 8.011483355481840984e-02 8.332035725322704811e-02 9.492580544956612243e-02 8.599992939793585367e-02 8.402910536933694274e-02 8.350120620879136757e-02 8.075559147469482668e-02 7.720176235312131707e-02 7.572323893922902616e-02 7.824841143921690279e-02 7.788180399464875170e-02 8.127606943808904361e-02 1.020423695223452026e-01 8.557132990202907796e-02 8.495185328711474249e-02 8.378038135443643952e-02 8.220750637402884919e-02 8.025163573921266502e-02 7.767454998170481018e-02 7.736273717602099032e-02 7.965625492236820537e-02 8.477800232456472740e-02 7.902274277976314987e-02 7.661268591598545397e-02 8.119320586833730924e-02 8.306037553537097551e-02 8.381353673434820128e-02 8.018077260893125002e-02 7.933538842743131925e-02 8.532717245465726297e-02 8.783357640136149613e-02 8.813000505651209793e-02 8.842780253486735853e-02 8.779006828777324856e-02 1.083238576700605027e-01 8.724949601272319333e-02 8.800184438586622360e-02 8.705488181418560845e-02 8.702666380864844398e-02 8.618651219507197925e-02 8.660482830364728268e-02 8.563611120240022245e-02 8.586244649329800860e-02 8.448286916685315839e-02 8.457539513313187818e-02 8.249329634767595121e-02 8.173475374456201648e-02 7.806113913525414283e-02 7.593473901152014705e-02 7.526935628663772304e-02 7.627986682041335009e-02 7.923170342446628212e-02
8.808683818420684486e-02 8.772895392197328779e-02 8.738140802227922777e-02 8.794615692338413060e-02 8.748823126855369281e-02 8.794609620782815884e-02 8.685311091230461800e-02 9.500627450852210110e-02 9.153465996618978529e-02 8.749636387793519043e-02 8.002204883197482077e-02 6.926741437858886796e-02 6.937996458662075427e-02 6.518459125341573290e-02 6.681261899012606864e-02 7.616173297229490713e-02 6.173106823802607807e-02 7.464524387911154746e-02 6.750966220173007515e-02 7.445049211596189986e-02 8.087964033866149038e-02 7.973563804735378513e-02 7.960875882981090224e-02 7.911159956356939027e-02 7.839278553912878977e-02 7.749912083873922164e-02 7.606419874916693635e-02 7.243102571670391454e-02 7.266466453861468444e-02 7.372119937179816285e-02 7.388113501510390480e-02 7.551292690100015748e-02 7.712685024350737772e-02 7.898979102184548740e-02 8.403017679734266221e-02 8.313114061705534352e-02 7.873765553112978266e-02 8.127132474626348746e-02 8.159663065279969263e-02 8.334677551109076488e-02 8.304857599767261067e-02 8.456223937142000324e-02 8.466915987424682155e-02 8.582586319512322537e-02 8.589841284294806589e-02 8.687761727907727938e-02 8.388404915300269604e-02 7.760506349466320120e-02 1.056334559883312790e-01 8.260398832870576025e-02 7.793813392002006679e-02 8.023988980760010659e-02 8.627526131705319512e-02 8.746800829627399132e-02 8.575278088934543130e-02 8.444997919604965708e-02 7.996789080687219387e-02 7.830168634627404645e-02 8.319490682111764512e-02 8.460810582853303674e-02 8.634564261937055507e-02 1.012479950388775612e-01 7.576112960385777972e-02 7.588125631007164307e-02 7.682601604439856513e-02 8.246898037309562113e-02 8.035815075200812563e-02 8.225035368969350891e-02 8.434726549500115578e-02 9.531985465731251939e-02 8.565998457650265963e-02 8.532304576476831826e-02 8.349736990328801567e-02 8.115172456299320214e-02 7.780807988496334093e-02 7.826449619227496268e-02 7.630389009463239836e-02 8.078484451819124834e-02 7.859029723280303026e-02 1.022555244379855371e-01 8.284530278832204220e-02 8.085222671241476533e-02 7.815346678888036858e-02 7.787438127885328021e-02 7.792947975536405891e-02 8.030777675075395639e-02 8.205872722974383304e-02 8.668548916396158488e-02 8.133579089355363889e-02 7.687051321818820504e-02 7.921375227777281702e-02 8.300505803249555448e-02 8.442820894262526021e-02 8.494464701810681972e-02 8.191351326526556675e-02 7.866215086025608871e-02 8.381831605152827158e-02 8.739927182283843687e-02 8.865537414991209175e-02 8.741808912219135863e-02 1.086148154654611037e-01 8.722470608708426942e-02 8.818248207321059684e-02 8.733016094056929302e-02 8.738209672031331532e-02 8.634414520852055908e-02 8.647515041428568972e-02 8.540014568772534564e-02 8.558439623927649453e-02 8.412554698253207897e-02 8.403430282841972687e-02 8.188756611229414117e-02 8.121126850940513231e-02 7.785590282851376220e-02 7.600143418578796106e-02 7.532439798969910172e-02 7.636749920377396139e-02 7.942208841612309611e-02 8.001247597417154855e-02
1.015797380823299928e-01 1.018126052649484525e-01 1.020942136208460999e-01 1.023841834949263535e-01 1.026394120215909506e-01 1.028331381598530658e-01 1.029653543017567535e-01 8.858416521458395421e-02 8.376195162367722213e-02 7.863985968263409454e-02 7.169931072695959196e-02 6.790180099849942030e-02 6.686021102943905114e-02 7.098556922932212909e-02 6.744523554195117065e-02 8.000412631224290694e-02 6.541039066562441551e-02 7.534458699566712325e-02 6.861542073282778098e-02 7.052943764475526345e-02 8.089368208697683693e-02 8.463021543461873852e-02 8.253172590586348167e-02 8.171530631942819367e-02 8.081496643716068462e-02 7.989975112919162070e-02 7.884091981375039582e-02 7.733106150938674761e-02 7.649183457265790187e-02 7.641172055363404381e-02 7.508092521501978645e-02 7.523276474102974509e-02 7.475992931776012651e-02 7.571375798677308644e-02 7.763320142045256056e-02 7.852863046223418353e-02 7.878664286288841745e-02 7.910331796008630845e-02 8.154089952940213326e-02 8.190612718882339660e-02 8.356999261264708156e-02 8.371850788392429243e-02 8.506844239967741028e-02 8.512282265522667923e-02 8.630550548184447168e-02 8.246974487088033767e-02 8.177975245267404825e-02 8.646431520370628787e-02 1.061953387290105466e-01 7.942647078185909038e-02 7.809509215697579831e-02 8.198179620261039635e-02 8.708676063401865619e-02 8.839359234586896541e-02 8.605111914460172873e-02 8.514561397373286711e-02 8.170862221677631376e-02 7.852541410541941103e-02 8.214026407110244787e-02 8.359530092852245076e-02 9.954907221686525032e-02 7.519281680569386839e-02 7.801320940152965677e-02 7.748201029958332042e-02 8.011875047187647092e-02 8.433659061625781161e-02 8.245431975898481758e-02 8.371444020107016160e-02 8.496030168792291504e-02 9.478126251676748104e-02 8.636490538948445039e-02 8.435785272363684195e-02 8.373105632699567868e-02 8.145029842949623455e-02 8.250583880771310274e-02 7.717131604925347999e-02 7.624229716456389083e-02 7.888815011591426840e-02 8.452547741119464941e-02 1.011295149362633206e-01 7.852002614848935247e-02 7.856462487612365930e-02 8.120679923132191613e-02 8.104867360904058349e-02 8.275859344615441038e-02 8.411263611003952367e-02 8.833284324717942393e-02 8.338700076852087473e-02 7.952734834464694758e-02 7.679413309200416871e-02 8.131031471327745952e-02 8.439427160883411494e-02 8.541368141053405638e-02 8.573769950141163498e-02 8.344433718296856428e-02 7.846186805313690171e-02 8.328172084921182938e-02 8.619445810054900126e-02 8.654325377606580938e-02 1.092239977512836496e-01 8.713542869051212059e-02 8.820062153813879036e-02 8.741687018233150475e-02 8.755239884416088358e-02 8.654057064701836666e-02 8.663377701898226924e-02 8.539909435707837559e-02 8.544253369132495668e-02 8.387674279689183443e-02 8.367625820196693265e-02 8.142266352705566923e-02 8.063666531971214191e-02 7.736351076851191721e-02 7.562594860077168080e-02 7.527379564608378815e-02 7.629352777341441572e-02 7.932466138023630542e-02 7.998527776164943148e-02 8.240477225855553922e-02
8.651643662783546629e-02 8.596230523472597751e-02 8.649963639606654542e-02 8.568890169011211810e-02 8.618814048118683679e-02 8.511862609000978019e-02 8.612592957800635496e-02 9.412417882944419667e-02 8.831075347957366428e-02 8.128603928815979207e-02 6.873695024184899027e-02 6.746782732207064204e-02 7.019416839219293214e-02 6.939490530460419582e-02 7.317283915855142540e-02 8.311271841614481515e-02 6.425599353796117297e-02 7.680454976632601627e-02 6.961536858768352376e-02 6.595456232281275699e-02 8.223893306559061644e-02 8.597942623404902784e-02 8.730279175167379724e-02 8.451080003351629788e-02 8.332910421394612577e-02 8.234412344102381986e-02 8.145063559192280978e-02 8.044133641382544830e-02 8.238086876280041604e-02 7.945862683275414784e-02 7.838434340664870992e-02 8.047591997735019376e-02 7.643817434001622113e-02 7.590436132269716418e-02 7.513148495330204679e-02 7.513685390167375300e-02 7.560939806381244965e-02 7.858915532413024430e-02 7.952376200601686540e-02 8.188534555475279753e-02 8.222940624089801476e-02 8.389867161657599270e-02 8.396482326500756543e-02 8.529233033769366423e-02 8.079386833893670294e-02 7.863389326699310455e-02 7.921315838037149004e-02 7.983993387747116699e-02 7.807773171170503956e-02 1.062549761769621126e-01 7.697575063059786116e-02 8.313641659400729245e-02 8.737134714870720131e-02 8.939214798311236054e-02 8.646599875685412329e-02 8.546952701747521919e-02 8.301247059418326302e-02 7.880157325950915004e-02 8.025438919074044664e-02 1.042206399177629667e-01 9.564831615464471082e-02 9.745793788833100046e-02 9.854422199015031025e-02 1.007524297777892541e-01 1.015956525420735751e-01 1.016566817454436500e-01 1.017391598796750785e-01 1.013300289013333855e-01 1.005037921113235699e-01 1.031417208160263499e-01 8.312283719171247032e-02 8.464229019806801535e-02 8.475302491305708452e-02 8.461713605731170651e-02 8.132137723494496651e-02 7.777729593278574771e-02 7.903612483918349974e-02 7.614938459988188080e-02 7.759316534574856039e-02 1.012820986445946841e-01 8.031699808424180853e-02 8.474508828442957331e-02 8.349721468821870440e-02 8.462406088466044307e-02 8.572042599078832925e-02 8.957541836750629316e-02 8.514134773759511610e-02 8.174380157899456545e-02 7.710391230463943535e-02 7.925390620189784463e-02 8.297284733759062447e-02 8.544249223355604439e-02 8.608508250680266261e-02 8.610740704270730683e-02 8.488645105794133394e-02 7.862448196153197510e-02 8.321641304554634744e-02 8.442526619957507750e-02 1.098157252112341997e-01 8.944209867528947477e-02 8.848105247609236446e-02 8.744696924064790378e-02 8.759483618645746983e-02 8.662552500921329168e-02 8.676193185412250930e-02 8.550229838496198331e-02 8.548348539311505234e-02 8.379452898180117515e-02 8.347861905620951317e-02 8.110417151316759443e-02 8.018842012800776742e-02 7.686251508136976440e-02 7.509580969661029670e-02 7.524701768480213104e-02 7.622134724965939911e-02 7.916676649396159338e-02 7.977730773069811876e-02 8.218849035864672636e-02 8.249581123288779461e-02
8.556285747051595170e-02 8.611333811252525061e-02 8.513916459749538979e-02 8.545363344910539283e-02 8.384466717541333436e-02 8.369773125987399476e-02 8.100800679144112837e-02 7.992949388338482786e-02 7.518248049868024585e-02 7.068838049107144250e-02 6.790750965437486464e-02 6.316551882956569774e-02 6.949040910647286129e-02 7.262636945637418462e-02 7.254875474377807387e-02 8.634647875257475680e-02 6.460171400175795942e-02 7.719809754584505690e-02 7.062945361520983623e-02 6.679266020847848817e-02 7.483376201712192699e-02 8.730116028877840662e-02 8.867119571891081409e-02 8.879589084705312441e-02 8.581887434334817266e-02 8.458093031195107470e-02 8.362229530146370049e-02 8.230445641901996956e-02 8.679597977607100834e-02 8.266737341414664986e-02 8.095762654751705034e-02 8.437454541406619324e-02 8.020817601918051043e-02 7.950619813311290973e-02 7.621258682776960169e-02 7.504312610309675502e-02 7.390975372808271382e-02 7.556153268996394778e-02 7.881841570446845857e-02 7.974053874909789452e-02 8.203311941807341079e-02 8.227749678953294454e-02 8.379707498420227441e-02 7.809819872415070530e-02 7.853504106751091340e-02 8.155711065245370428e-02 8.330970781268343117e-02 8.507600051356659088e-02 9.598204506233905253e-02 8.416634344853225758e-02 1.040970311012088811e-01 1.016855884739598648e-01 1.010989172269139563e-01 1.037083194413326304e-01 7.662661044924291842e-02 8.584788849245934828e-02 8.401130289467619028e-02 7.728553360623373336e-02 1.065251694519995240e-01 7.828346053655332870e-02 7.744589556103877170e-02 8.132989725029168837e-02 8.860170596806195287e-02 8.079155502546454815e-02 8.425890342818737055e-02 8.525147895482663996e-02 8.582060439211493252e-02 8.610073060068615391e-02 8.610920956340752108e-02 7.683125910286450755e-02 1.036283174976341953e-01 1.050990777682319077e-01 8.369930496324215485e-02 8.343978582845124059e-02 8.257537210676370310e-02 7.798569410034665583e-02 8.161378176881471658e-02 7.925436173956634800e-02 7.617828889361277778e-02 7.523474135601630752e-02 1.030443549346013177e-01 8.433805812456340867e-02 8.532267211807592622e-02 8.685423508868175824e-02 9.017771182894324111e-02 8.651109797153899716e-02 8.369610379021082125e-02 7.964275821866069471e-02 7.666703781094200143e-02 8.133871119535196481e-02 8.433249718752565405e-02 8.624148434708893418e-02 8.656695450590110030e-02 8.684134973567117499e-02 8.648413777632096844e-02 7.908781900260364317e-02 8.205727684603153493e-02 1.098391372237590008e-01 8.751847831694192781e-02 8.850682665208436939e-02 9.099293644936541636e-02 8.807254296255020987e-02 8.670445385208289113e-02 8.681423641038388261e-02 8.557390812304180305e-02 8.557147067669423901e-02 8.383403156996790950e-02 8.345257357130077269e-02 8.096273851520779941e-02 7.993001267171861990e-02 7.649931898198865377e-02 7.463701094581114137e-02 7.530017776450298461e-02 7.629721887248637480e-02 7.922555103452419423e-02 7.964206851690229516e-02 8.185766435814173514e-02 8.214063339993094015e-02 8.401635739809919234e-02
8.561846306234588422e-02 8.471021243612908425e-02 8.498515054163870153e-02 8.333825165089221720e-02 8.304580226253825692e-02 8.019334721032887747e-02 7.871815317929325984e-02 7.381587537337734595e-02 7.036704314558644979e-02 6.851741763050020473e-02 6.854688413960714766e-02 7.000520973696304494e-02 6.682990894909365820e-02 7.226437168017066370e-02 7.517065192747525437e-02 8.838104388137818512e-02 6.605417976055520668e-02 7.793500824910734592e-02 7.183018470036926784e-02 6.808580238443526222e-02 7.211780512309423630e-02 8.088985503894276230e-02 8.974855959095687230e-02 8.993034601552939156e-02 8.950885991443592593e-02 8.665348167175726535e-02 8.551756801840126876e-02 8.471133213421391805e-02 8.389842869092274669e-02 9.158692274173743653e-02 8.225966475254836707e-02 8.768318887732466649e-02 8.329585961337732103e-02 8.043969429054177722e-02 7.955168990765087988e-02 7.613374731227895431e-02 7.486667859529116953e-02 7.391712290517422901e-02 7.570044571412232193e-02 7.893489088013748434e-02 7.976035552871225953e-02 8.180042306589896395e-02 7.795192056206713682e-02 8.107347298609206276e-02 8.368483684421185176e-02 8.624681766400622840e-02 9.560908110209796751e-02 9.720145533518774472e-02 8.527447595671254488e-02 9.550794385262328934e-02 8.444670703336418227e-02 8.284543965489825357e-02 7.813149283285909796e-02 7.943463366175236573e-02 1.034219158525383070e-01 9.933795354306296232e-02 9.788613685819080867e-02 9.835714413245671972e-02 7.665340309415846765e-02 7.957202503162438822e-02 7.681161664838004333e-02 7.906090275904593956e-02 8.866490561559374484e-02 7.816112662952497125e-02 8.273085735635915539e-02 8.423484046350400434e-02 8.518783300979985984e-02 8.573552900511144381e-02 8.600501150074836565e-02 7.827680215936300145e-02 9.097312960809149363e-02 7.697319235688691863e-02 1.054509497286097441e-01 1.057959905271654288e-01 7.984630986041707512e-02 7.834820056795561982e-02 8.358171307102335579e-02 8.176872426274442440e-02 7.936430220400497726e-02 7.598778146787260601e-02 1.001070069581912886e-01 9.554525664164809085e-02 9.611165865399390329e-02 9.524433745926651207e-02 9.217669674677009262e-02 8.822168814960688887e-02 8.216246888012546101e-02 7.684301656319447726e-02 7.887892810907015662e-02 8.322819862752593723e-02 8.543973294197293455e-02 8.685208413758346846e-02 8.766518947066292977e-02 7.731002707364574567e-02 9.192185432976290871e-02 7.865477425954019164e-02 1.092786015250193921e-01 8.730465565737664801e-02 8.774251832526643036e-02 8.826013983800483353e-02 8.823737148757691828e-02 9.113635322610848244e-02 8.747623449181107791e-02 8.570487583406716237e-02 8.564378177067516473e-02 8.390762911542704039e-02 8.353037436928335835e-02 8.097801845074920069e-02 7.987689839902918643e-02 7.633149702846189766e-02 7.436827440494263308e-02 7.533922202707987736e-02 7.644633713846556156e-02 7.958207636961384113e-02 7.995963164308320104e-02 8.186391091939768105e-02 8.172162622325596093e-02 8.345038874036814214e-02 8.365603740651558762e-02
8.416042902034445716e-02 8.451202278915435906e-02 8.291717365337966661e-02 8.259643378078795894e-02 7.978068970135314408e-02 7.830805039041879856e-02 7.354088265461543317e-02 7.019267798229973654e-02 6.825907531462027666e-02 6.871781652268335594e-02 7.197328372520182815e-02 7.187348117249747759e-02 7.311197480784922820e-02 7.042764125288396293e-02 7.501924427528007533e-02 8.987442663494045469e-02 6.713473509144332607e-02 7.877563457735332897e-02 7.315781344403038400e-02 6.958714660012325914e-02 7.081427938826559410e-02 7.837597627056054617e-02 8.425852355521429304e-02 9.078040073988898062e-02 9.033658299371039035e-02 8.972998961488454217e-02 8.712492107031968858e-02 8.613094937315876609e-02 8.587524632081698639e-02 9.289423193570402193e-02 8.392505775768460685e-02 9.023559691550406270e-02 8.403068130744426045e-02 8.292612158112026843e-02 8.011293172125809325e-02 7.935922628125952061e-02 7.605718069884909172e-02 7.482612060156756950e-02 7.413878100060058984e-02 7.587369032448504358e-02 7.898878531002262449e-02 8.023700329820712684e-02 8.585386143461393171e-02 8.941958598969319827e-02 9.204472552313495981e-02 9.554118088709577516e-02 8.641327353767562502e-02 8.622972244141816067e-02 8.705641517346125735e-02 9.276520558656881077e-02 8.255142379786173379e-02 8.050207482082598343e-02 7.791056848544247737e-02 8.712175786195926197e-02 8.525413275920767919e-02 7.702855901582546239e-02 7.615530108684091803e-02 9.891201148058526016e-02 8.023733522497990267e-02 7.747827889483328845e-02 7.652855157950635978e-02 7.626234871481843425e-02 8.692099072536085824e-02 7.789999029138122699e-02 8.033470822008205448e-02 8.248191276917886394e-02 8.393959724430923031e-02 8.486717758082613916e-02 8.544132411448777942e-02 7.828379326098464097e-02 9.042331705431319588e-02 8.713828902974007917e-02 8.416057206728193296e-02 7.761066531934940338e-02 1.046280843914701442e-01 1.009434692208347056e-01 1.009020065716394882e-01 1.002731785417849270e-01 9.900938498880598737e-02 9.633051047534113565e-02 7.671177303166698547e-02 7.716936138319197003e-02 7.729368350613849414e-02 7.901378459083602257e-02 7.712839006819509347e-02 7.705299183162450660e-02 7.917401235297433226e-02 7.678600254599962649e-02 8.095054304638017728e-02 8.523985446303708469e-02 8.626775049077679836e-02 8.704542664684444819e-02 8.878543928423876519e-02 7.807036212487274141e-02 8.027748484311170163e-02 1.081417187932717794e-01 8.723732355157226559e-02 8.770565657772422252e-02 8.802462188990775593e-02 8.734535781246099972e-02 8.784183915842580515e-02 8.776018859813075612e-02 9.120942589671982015e-02 8.652292720772068735e-02 8.410957568363829073e-02 8.365482849417532618e-02 8.109229035302953359e-02 7.999153842716896778e-02 7.635634221746115391e-02 7.432455247916676389e-02 7.527907839257316769e-02 7.650492616501501641e-02 7.986992864210970544e-02 8.044645509478612344e-02 8.269448695939080052e-02 8.236805490840287680e-02 8.273448733515036124e-02 8.282773455085915004e-02 8.447755214763971732e-02
8.389770136155115521e-02 8.247558372784807856e-02 8.219298906397906612e-02 7.945345292240894863e-02 7.798174574902411171e-02 7.334241214155561017e-02 7.006359759654710861e-02 6.824521568727863474e-02 6.857108656870669616e-02 7.184036904212068309e-02 7.252429896152268185e-02 7.522268310154217597e-02 7.490355330222579766e-02 7.580485920677065836e-02 7.385851288131523029e-02 9.069826572371234019e-02 6.800939102256947644e-02 7.965856332285378705e-02 7.458029308388532119e-02 7.121260520518003789e-02 7.246538790643329564e-02 7.423419566709936468e-02 8.223896552177477337e-02 8.617574476067653422e-02 9.099385592995218319e-02 9.025668676320564021e-02 8.965760640106722190e-02 8.727220429484511266e-02 8.584268040083711804e-02 9.452661131946731021e-02 8.646592111949392978e-02 9.435670554922197251e-02 8.443454050989634974e-02 8.267542588106395474e-02 8.238553985336621865e-02 7.990434835781255740e-02 7.922438781716817369e-02 7.600230227120206850e-02 7.468606776330560804e-02 7.454335743914253243e-02 7.636035618511222145e-02 8.023369282139575231e-02 8.163802817630450015e-02 8.461126170570237859e-02 8.533973794902365018e-02 8.425466190690850121e-02 8.590704842194930857e-02 8.572317779610197364e-02 8.588439606031406104e-02 9.129688513751683943e-02 8.035234805164354066e-02 7.743753586894745744e-02 8.453324762842392981e-02 8.196656155436217450e-02 7.887255750797278475e-02 7.691052560758385170e-02 7.971925634336418653e-02 1.008021747544681629e-01 8.361865200373808094e-02 8.197812041964397389e-02 7.949004397702971736e-02 7.642843249280970030e-02 8.096351356073870631e-02 8.332160570399299582e-02 7.719071428942281266e-02 8.007852298147184744e-02 8.215959296300669179e-02 8.357094190227704056e-02 8.440843667676496687e-02 8.462399206171300481e-02 8.708097452599591892e-02 8.647484588568528363e-02 8.149636472500765283e-02 7.916233963155051845e-02 9.377497427930762963e-02 8.647856717186734599e-02 8.677218126629382411e-02 8.626926330317975788e-02 7.697355234785673017e-02 1.010395704873253697e-01 7.633604108118524634e-02 7.692168142095895389e-02 7.839171973592720666e-02 7.760528904909085035e-02 8.009326708591862909e-02 8.182032009208071999e-02 7.980715765327801858e-02 7.703381915449949990e-02 7.829468943014968041e-02 8.880925665023933768e-02 8.663556796770416346e-02 8.707183462618389713e-02 8.986889615103854645e-02 7.765732288816441786e-02 1.071245576903740865e-01 8.721130565263957024e-02 8.859398273125719536e-02 8.798033124458029541e-02 8.729330929272945128e-02 8.759871294232884908e-02 8.671544477474549262e-02 8.717231118428690750e-02 8.693673526959050379e-02 9.095983150538700102e-02 8.478616802035054967e-02 8.138627139616702588e-02 8.022546964633453515e-02 7.654341364014539961e-02 7.449638411851999820e-02 7.509949334391435860e-02 7.643080500711998959e-02 7.992978022442319419e-02 8.066025179703056880e-02 8.319944959681585539e-02 8.330939040673959739e-02 8.487484621941326912e-02 8.405978971265876121e-02 8.300316756298670162e-02 8.372507660688484343e-02
8.011284879995050900e-02 8.179316440707347369e-02 7.926198536494304114e-02 7.780038303530839583e-02 7.326625219785547205e-02 7.001701995785374055e-02 6.842547529373785298e-02 6.864954988490559740e-02 7.174718623788579885e-02 7.239333493276441100e-02 7.535515765327649440e-02 7.576494198694155857e-02 7.776383478288625972e-02 7.740496924599543638e-02 7.829840408131477636e-02 9.141352740317944259e-02 6.876854673515851724e-02 8.055934229142773517e-02 7.605302667570290609e-02 7.287267630941494934e-02 7.385396114172702864e-02 7.196829850839744913e-02 7.959760393820157487e-02 8.479372175096208664e-02 8.719918099410120527e-02 9.074206536760720532e-02 8.993492374099508468e-02 8.946170565230782135e-02 8.735686451106064454e-02 8.627581378800441847e-02 9.970359493718999877e-02 8.547564073095309523e-02 8.425410382398440534e-02 8.420800975510477071e-02 8.237667249658615909e-02 8.215624810936045241e-02 7.978209179856918243e-02 7.907255715880012747e-02 7.586036044302768566e-02 7.440098641957464121e-02 7.508822017708298435e-02 7.684265985893035111e-02 8.051751737323363523e-02 8.150700594263182719e-02 8.192028760053149394e-02 8.393663033137038765e-02 8.394360840858110240e-02 8.394391776374969527e-02 8.553986602347407597e-02 8.760266207521567872e-02 7.743829865500143073e-02 8.238798099685329390e-02 7.948867369404027938e-02 7.705870791385451002e-02 7.726458373348484010e-02 8.003861655063437830e-02 8.212045574781114132e-02 1.014990943278899077e-01 8.480203539713590533e-02 8.375057797313352481e-02 8.194763379829969607e-02 7.954875955047671643e-02 7.655404837843288179e-02 7.983030692053176558e-02 8.121721589101475736e-02 7.690253124773076265e-02 7.972660009212793886e-02 8.177341160706574907e-02 8.325645243779628002e-02 8.339076295787561932e-02 8.560330258761103539e-02 8.562978679732349829e-02 7.860427087309503069e-02 8.201397842000157645e-02 9.337784428525215674e-02 8.635206700882509800e-02 8.672145898327815461e-02 8.624196767583713896e-02 7.810900146303956237e-02 8.000798130748713877e-02 1.026835840973235048e-01 1.021966942038353560e-01 7.961253075831226100e-02 8.188543125824247759e-02 8.510202735130117935e-02 8.227488827154105788e-02 7.825188840595302675e-02 7.921229896831100126e-02 7.883104428598418367e-02 9.052351696862219466e-02 8.705333952177876644e-02 7.725735229141783567e-02 1.028238196187654663e-01 1.040922996760444835e-01 8.754866394182021783e-02 8.886956349455400750e-02 8.804627470887911589e-02 8.833942437973224537e-02 8.759446421014352446e-02 8.668626398844200831e-02 8.691304926988867308e-02 8.570855910214131290e-02 8.600233478931407216e-02 8.537360387420023233e-02 8.983652851639679915e-02 8.156426945578021392e-02 7.690251545605367167e-02 7.487070830964639989e-02 7.480144279132014407e-02 7.624395623453411597e-02 7.980254083747348459e-02 8.063592417036606619e-02 8.330227959035425844e-02 8.357135273310295487e-02 8.543952646483250757e-02 8.531721129270425363e-02 8.983705790626539400e-02 7.624814459101852959e-02 8.386208919618437507e-02
7.765054146616240383e-02 7.715318030156087525e-02 7.798912946555874859e-02 7.359514998028086896e-02 7.021894940274184260e-02 6.870583367018645582e-02 6.890550716931229114e-02 7.192777402535695253e-02 7.245739582720110705e-02 7.533564929489294792e-02 7.581883168311441545e-02 7.809162202430157407e-02 7.822356850213915691e-02 7.979243331506374881e-02 7.949312544774966849e-02 9.249541502689807848e-02 6.948066191408090730e-02 8.146308313808796331e-02 7.752679128448482226e-02 7.447671399472664822e-02 7.485104279406491756e-02 7.038095862761392651e-02 7.934614211070939449e-02 8.332920482115502292e-02 8.625947086043009304e-02 8.755427022173854767e-02 9.022625901712091889e-02 8.951264995270037661e-02 8.921708325030984488e-02 8.733240652823784367e-02 9.924411115571962760e-02 8.525472107342629835e-02 8.537447646078340224e-02 8.389923321335555906e-02 8.387762812725031714e-02 8.217551877508866287e-02 8.199370600783861818e-02 7.964336223281442972e-02 7.880071895778247015e-02 7.554243354868629690e-02 7.407806507838857191e-02 7.510503456207817674e-02 7.653083544305945563e-02 7.751419780084142785e-02 8.055755608732316497e-02 8.097901469695090171e-02 8.121381051363782411e-02 8.322959196513769753e-02 8.303784158749821787e-02 8.179358239576688117e-02 8.057303981112484692e-02 7.689400660195144788e-02 7.715635978437217213e-02 7.976540478795961231e-02 8.186839112755978087e-02 8.355113196749749949e-02 8.462147844318863854e-02 1.014425053279748579e-01 8.565767657792543177e-02 8.504179966504379906e-02 8.379109326612872721e-02 8.202627600863192370e-02 7.968722468971303763e-02 7.674443312078980950e-02 7.800752320607599877e-02 7.923012091667168411e-02 7.654210670057544352e-02 7.927518467882607722e-02 8.139087216292952009e-02 8.182805353561199702e-02 8.389288919710503889e-02 8.405470871053555282e-02 7.832853841534789807e-02 8.208801396237985770e-02 9.237396940309627880e-02 8.589389534772838564e-02 8.633020993221399153e-02 8.577331548360916935e-02 7.782298199703652219e-02 8.107545748221189896e-02 9.479221901699198816e-02 7.726478993802637918e-02 1.041617752989306145e-01 1.042288428139797052e-01 8.267464858689566043e-02 8.092823093678634672e-02 7.938762851062659831e-02 8.040079803969790717e-02 7.811111126430449192e-02 1.040972477743432462e-01 1.006611956976218025e-01 1.044598388754741092e-01 9.169630231619513294e-02 8.637555901726563790e-02 9.001651767690461992e-02 8.842553330906122167e-02 8.855137254322904827e-02 8.768675329427477738e-02 8.792427532047708549e-02 8.694101001924824101e-02 8.571308764735675878e-02 8.575773732675258387e-02 8.400760708642338037e-02 8.385109262634679594e-02 8.236887551350889625e-02 8.687099131002107288e-02 7.572232607886665579e-02 7.436534843164174791e-02 7.596166312721869263e-02 7.954562563590245050e-02 8.046772867339335722e-02 8.318720262493867201e-02 8.353111799384103919e-02 8.549045474911289022e-02 8.549995186016483284e-02 8.682899435535229582e-02 9.310564867464242444e-02 7.834814606249917990e-02 7.594547155555675388e-02
8.261644129799748659e-02 7.966208219938658575e-02 7.517558150356228042e-02 7.133452467233057648e-02 6.891297678312029162e-02 6.908120142195453561e-02 7.214402264671246345e-02 7.270653955581944661e-02 7.556381493251650150e-02 7.599283796649436429e-02 7.825469699244308464e-02 7.843531237883526186e-02 8.008229132491224977e-02 8.011536840146143978e-02 8.127429693312959724e-02 9.317786436722778898e-02 7.009778276662684271e-02 8.237155304907753384e-02 7.898744994600698233e-02 7.610589243048192232e-02 7.629300747218986656e-02 7.199106282281590719e-02 7.481110257449152812e-02 8.343140015369701623e-02 8.517385104995391087e-02 8.675686469357916930e-02 8.743696551414957552e-02 8.958230533620953340e-02 8.900130072561150685e-02 8.862217944098138567e-02 9.930976023368198735e-02 8.595825660414702085e-02 8.489911964456728355e-02 8.488513590023406830e-02 8.356702557996005531e-02 8.367299775524617012e-02 8.207113657366214843e-02 8.183481926716594523e-02 7.936601510265189896e-02 7.619306511639833968e-02 7.711039076609038645e-02 7.527764315625878888e-02 7.459795292420416668e-02 7.551564002531563347e-02 7.647580284967700481e-02 7.717727720091593913e-02 7.991086366894928350e-02 8.011633488145671056e-02 7.983578300017700469e-02 7.895010188168691267e-02 7.692842786312151238e-02 7.967837316471293452e-02 8.188192560763050964e-02 8.356700336814207319e-02 8.485254502262561116e-02 8.578084461920471027e-02 8.616974487752887546e-02 1.011075015026467877e-01 8.629483048986304194e-02 8.599782636385124024e-02 8.515211093552471633e-02 8.386597929242618765e-02 8.206606449908243617e-02 7.968595881722184693e-02 7.666547622382924310e-02 7.563212907886573966e-02 7.697047327967587727e-02 7.599390877873496430e-02 7.864544758779828948e-02 7.932982692610690556e-02 8.159997239682462156e-02 8.189517534512769092e-02 7.815789144896680141e-02 8.188513795167634557e-02 9.071661975786088350e-02 8.516542197123626312e-02 8.570491380795325354e-02 8.500652504836762879e-02 7.773244060376516273e-02 9.179659020733293984e-02 9.010434375551289177e-02 7.869794729432245950e-02 9.112667466851433196e-02 7.775360705899603264e-02 1.053238682862291942e-01 1.039763878563938482e-01 7.782558265781792939e-02 7.672051288904141453e-02 1.056115701131276757e-01 8.534117346211773925e-02 8.290657699686550253e-02 8.241950239401041323e-02 8.018296553034441609e-02 9.573283633658752345e-02 8.762663755155844503e-02 8.875245163181502694e-02 8.792201414232929391e-02 8.809930051358333403e-02 8.703842660975898149e-02 8.717881387731983567e-02 8.582930551138290287e-02 8.408706124060523479e-02 8.373961504862165173e-02 8.109967661516026549e-02 7.994567134641528128e-02 7.629775733825973350e-02 7.363329627885775719e-02 7.533327014736611316e-02 7.913255645410001426e-02 8.021015939669172423e-02 8.296607371227955607e-02 8.335719714737294117e-02 8.533419040896116081e-02 8.537965293306468140e-02 8.686429113622712306e-02 8.673099073288810523e-02 9.550109310249414729e-02 8.079453276217929414e-02 7.527621384237508095e-02
8.573601698391214443e-02 8.173460123712901482e-02 7.601435160065832253e-02 6.965594349018291997e-02 6.862613606552755985e-02 7.180215284256662167e-02 7.269361111560448951e-02 7.575693674613151463e-02 7.628175895607967882e-02 7.859559215061408255e-02 7.876822206822142736e-02 8.036789838711363987e-02 8.025129359216484626e-02 8.148698803612292041e-02 8.141981207579415680e-02 9.359790972691543753e-02 7.059512416405054613e-02 8.330907222197181383e-02 8.042372889215547438e-02 7.775407393891750618e-02 7.798741601377015553e-02 7.402951624658760110e-02 7.359307810332180178e-02 8.000878742815122069e-02 8.535939130425826415e-02 8.581778547506369037e-02 8.663774611254509983e-02 8.705637770847543533e-02 8.887411210368406644e-02 8.818581116495320671e-02 9.949607552070072192e-02 8.542116556103450387e-02 8.551121559826839469e-02 8.437238547816561240e-02 8.455769917970722138e-02 8.347022530689215958e-02 8.366151276212301091e-02 8.199341161397165345e-02 7.964027233431986152e-02 7.647132629710275131e-02 7.974022253081618217e-02 7.860117976397988648e-02 7.839656764424358937e-02 7.590097542361790017e-02 7.487767158535391099e-02 7.519683385776813889e-02 7.605794645359170714e-02 7.652506715325685382e-02 7.656921117772950980e-02 7.714944844313564865e-02 8.003042339667498783e-02 8.224174334930811625e-02 8.390826390048516936e-02 8.511667646544099353e-02 8.596230272628570257e-02 8.650908826246006544e-02 8.661915620480328815e-02 1.008241353333261814e-01 8.766089093626595885e-02 8.775559164756935315e-02 8.728497493810226382e-02 8.640347053531889643e-02 8.506017952002106752e-02 8.319846383411654001e-02 8.082477303600707486e-02 7.801486369149451816e-02 7.516439507384324592e-02 7.444045749994844530e-02 7.506183710312236412e-02 7.588477820917721717e-02 7.849193048438074527e-02 7.903743532154539064e-02 7.759609373351264439e-02 8.123492200768112070e-02 8.809313574002453073e-02 8.402817817472016393e-02 8.478968972091215084e-02 8.406123941287889367e-02 8.594979041960587596e-02 8.753026857953641326e-02 8.907538704345907554e-02 7.869398668526450535e-02 9.042532269350317398e-02 7.923685286574912168e-02 8.572094674047138485e-02 7.743062105907144721e-02 1.012580015588216836e-01 1.033024238871925182e-01 8.617668782100089409e-02 8.712212572462874061e-02 8.657791318475756281e-02 8.291685023218725581e-02 7.945489904054708896e-02 8.215029617242820825e-02 9.599200647062387792e-02 8.788729182908538995e-02 8.834253667853571301e-02 8.724946646262504713e-02 8.733530856132705467e-02 8.593087428681628337e-02 8.584517830136073613e-02 8.390210599778841205e-02 8.134613508275091720e-02 8.029611287871785130e-02 7.652764599582406735e-02 7.437326671892670327e-02 7.490795104642507252e-02 6.977667070133962424e-02 7.849874330841517811e-02 8.241481224787339244e-02 8.310161527255678637e-02 8.511286236814252781e-02 8.516892726158725724e-02 8.663293857028547817e-02 8.652590190321080010e-02 8.754376044724739014e-02 9.746764768616948682e-02 7.754911409234249708e-02 7.537079867122205290e-02
8.529069473594506900e-02 8.096892043467882050e-02 7.439491271968709518e-02 6.909014512604610969e-02 6.992623091724675666e-02 7.169002304588864560e-02 7.533538815861456905e-02 7.618983058979710010e-02 7.873813696728233780e-02 7.905765225310736055e-02 8.078629820394028771e-02 8.068240626515460479e-02 8.171907440137804457e-02 8.136042054489291131e-02 8.223579572420702810e-02 9.365224571928629227e-02 7.099190050159162602e-02 8.427808910418177479e-02 8.181912378200491276e-02 7.938766470918508233e-02 7.977386391411520061e-02 7.637524070209972260e-02 7.613520982436847162e-02 7.630874683874994124e-02 8.275394659646571893e-02 8.594264990718031294e-02 8.569752610129922898e-02 8.616812119059052977e-02 8.655977008399529105e-02 8.792201037196389901e-02 9.938995810255732422e-02 8.573129905173276777e-02 8.483727291950694804e-02 8.496684989594006920e-02 8.419825926133787941e-02 8.467200502218713565e-02 8.365305683856294472e-02 8.207551840688000200e-02 7.972781709266277272e-02 7.647763360404714883e-02 8.172392160703957631e-02 8.128041745908543003e-02 8.157027737711780579e-02 7.966555142067546780e-02 7.884436519723055092e-02 7.572856182890409793e-02 7.422191537304825837e-02 7.554009995008782730e-02 7.871001915856079556e-02 8.155436084625206083e-02 8.382150022918727350e-02 8.549226094151596289e-02 8.664660723117745267e-02 8.738528649889053257e-02 8.780319584151075052e-02 8.797708705142326391e-02 8.775095986967725026e-02 1.008525529306155272e-01 8.641564942593420173e-02 8.609047256740003096e-02 8.520356449430800672e-02 8.390261194136156009e-02 8.212332904111027676e-02 7.977211680271031891e-02 7.687515060417932089e-02 7.640658456451571157e-02 7.619650991317233890e-02 7.582179571046755717e-02 7.525461790514796634e-02 7.446568776826818781e-02 7.462558934125355925e-02 7.544817406669560023e-02 7.647572967946693334e-02 7.990935182380476398e-02 8.401194389818412989e-02 8.226998233511161052e-02 8.349299096095390282e-02 8.323578226553336734e-02 8.449084048845754980e-02 8.652485525935758870e-02 8.787725496000027559e-02 8.497032486516002681e-02 8.436027660541800532e-02 7.881606632011235736e-02 8.120695171191794071e-02 8.261002687893098662e-02 9.814871580511623506e-02 8.592231289361053348e-02 8.901466105752131597e-02 8.697203079389251301e-02 8.677661343023876372e-02 8.696438264920938743e-02 8.161552329530377681e-02 7.893912478978004632e-02 9.225108290392550203e-02 8.847169654069418632e-02 8.776484102140737209e-02 8.761728194440372708e-02 8.609852751720163677e-02 8.597661240809562067e-02 8.403016450664095582e-02 8.348942382940732765e-02 8.064129349441227779e-02 7.697539795315277988e-02 7.500779127938890511e-02 7.477476666088285484e-02 7.616055529923587697e-02 7.833634354971905078e-02 7.434108716324669408e-02 8.146104479279225874e-02 8.458160769171302329e-02 8.491526469355897833e-02 8.639235499846251165e-02 8.627704378381637063e-02 8.740424481421704694e-02 8.711966854707281493e-02 9.838892250197239786e-02 8.020339352655428411e-02 7.598726097406310886e-02
8.492222429015951202e-02 8.018837052368962826e-02 7.318324192894144764e-02 6.944811628897205880e-02 7.128062483754842027e-02 7.339281181524323627e-02 7.552890363270564622e-02 7.814252383567668603e-02 7.874040698952360084e-02 8.076238481722008977e-02 8.096807593778758416e-02 8.218588437907849154e-02 8.196382906888416420e-02 8.253811143525643934e-02 8.147433561878190955e-02 9.316608092017417131e-02 7.165552067287106475e-02 8.519137037407940871e-02 8.310490172959926480e-02 8.097139869842460980e-02 8.148299761872232483e-02 7.884350319604883917e-02 7.883073458091971464e-02 7.644064973882094827e-02 8.001137498659273428e-02 8.392445100305533090e-02 8.565371311828835765e-02 8.511666164746026220e-02 8.551919454313089419e-02 8.590503929611237321e-02 9.898886729775045745e-02 8.497604702897798568e-02 8.504479066760059491e-02 8.444502205952467144e-02 8.515662313894589719e-02 8.466316888977942767e-02 8.371307898640065193e-02 8.214452257306573135e-02 7.972841851197454144e-02 7.632536247124944995e-02 8.298838825419253828e-02 8.334161478312834825e-02 8.395146712445705761e-02 8.272962070766627651e-02 8.215603669782597929e-02 7.924758029464928910e-02 7.747444374270628931e-02 7.488807391002073877e-02 7.635727221815837018e-02 7.972801104532695193e-02 8.238583196546911402e-02 8.432852242356014827e-02 8.567456010027457713e-02 8.653480749603706390e-02 8.699524605383651688e-02 8.724556871947283798e-02 8.714951874903646700e-02 1.011087247771679104e-01 8.486303977359539730e-02 8.390298040838810312e-02 8.230523279190798958e-02 8.024083276776150520e-02 7.749990818741075982e-02 7.725453148595856634e-02 7.944231745326829630e-02 7.935834262183456833e-02 7.936344445638651712e-02 7.928285686640661190e-02 7.896231296339660533e-02 7.644155254939222210e-02 7.577991248154426762e-02 7.488819611061832415e-02 7.453714748684994729e-02 7.596768343425916448e-02 7.927183664947096142e-02 7.959532677325494021e-02 8.149555048733166107e-02 8.169874889750849967e-02 8.343613772857934319e-02 8.532636875665314258e-02 8.680861234649547842e-02 8.424864211351873466e-02 8.142719538174796046e-02 7.841799342344829560e-02 8.223482033955033244e-02 8.494824272901217721e-02 9.970481479577619766e-02 8.649968264274186802e-02 8.685467392390827657e-02 8.749914820155274553e-02 8.632026329929282094e-02 8.635657188080156366e-02 8.641195886213576260e-02 7.902862035384686235e-02 8.929322725090454993e-02 8.685536700393815812e-02 8.666859212987271244e-02 8.635600507144826354e-02 8.609829526424792046e-02 8.410561713903284831e-02 8.361838220089523599e-02 8.087461657802026693e-02 7.955617086089139534e-02 7.564864692923917167e-02 7.434545736370544444e-02 7.595956108993562328e-02 7.938965749305415542e-02 7.997888409254409747e-02 8.143528234636029928e-02 7.784071521037817798e-02 8.350010809228486375e-02 8.592344182658062657e-02 8.602525799149428332e-02 8.714987798249543283e-02 8.695785700015493114e-02 8.769889180816764496e-02 9.906603558183774139e-02 8.043126978379067094e-02 7.646815674651764871e-02
8.930644148153965567e-02 8.184596623956286177e-02 7.259666934531004701e-02 7.019499344198473767e-02 7.484204467306926345e-02 7.947761368240098545e-02 8.332071000315637022e-02 8.584159565272383996e-02 8.794952478296733100e-02 9.015941391797656357e-02 9.144803716854948972e-02 9.212739059784634532e-02 9.264902903511344767e-02 9.279682611256297176e-02 9.224740307374867943e-02 9.586329568933849021e-02 7.497637211454526163e-02 8.565960684615957221e-02 8.418724785967698909e-02 8.239470756134456564e-02 8.290917010699151712e-02 8.110826759176012479e-02 8.129763232040165821e-02 7.971426577543604119e-02 7.780765228332205130e-02 8.194144840995518098e-02 8.408046350397256619e-02 8.485257075039770447e-02 8.416868268420715782e-02 8.462071774050107520e-02 9.803098408553119480e-02 8.478165737098558585e-02 8.413761888460052907e-02 8.520759139457906306e-02 8.531930827241039628e-02 8.479675408496764599e-02 8.383643499302534385e-02 8.226410976762561778e-02 7.732012072830030114e-02 7.823894662096350650e-02 8.410936444472083551e-02 8.503747892509865014e-02 8.558745055461078333e-02 8.522084086784893764e-02 8.472417839343249213e-02 8.444074936222684125e-02 7.674399020119315740e-02 7.538208460455374238e-02 7.721186377174971138e-02 7.692909153260478472e-02 8.024221772568514155e-02 8.268669818510737679e-02 8.447793293437966256e-02 8.572032831679990417e-02 8.616184834550494331e-02 8.652754550114409582e-02 8.659698804925947124e-02 1.009254364811398991e-01 8.042220025350527157e-02 7.804727222562812816e-02 7.808532108753701850e-02 7.796825360454978648e-02 8.019746315921170987e-02 8.180226244116306500e-02 8.154459411270043034e-02 8.129802382394553384e-02 8.201092552182365214e-02 8.220111562257403914e-02 8.029633366155027041e-02 8.004444553329027878e-02 7.960263587506311023e-02 7.684206107170195310e-02 7.607098110816086500e-02 7.501874194682595087e-02 7.495589409380738755e-02 7.593704988064681194e-02 7.857888940879931283e-02 7.928991301158982985e-02 8.158744718728050405e-02 8.369729391018936038e-02 8.540483903622275719e-02 8.263430628323814586e-02 7.826926178397131117e-02 8.075211594338718712e-02 8.428094873112053353e-02 8.570950051577536088e-02 1.003221476895441305e-01 8.666800611370338581e-02 8.707498520901270356e-02 8.643526684374314151e-02 8.673080865062647582e-02 8.547461609081688505e-02 8.544327625556287498e-02 8.517354768854688840e-02 8.480362913165034877e-02 8.475674475881322945e-02 8.465300077936505074e-02 8.438121513844255850e-02 8.400780427355253321e-02 8.351741981382071467e-02 8.088803256990612089e-02 7.979547092502689565e-02 7.612035370935014977e-02 7.391990314546058316e-02 7.565342503795458029e-02 7.917393871522308835e-02 8.008035990998385589e-02 8.253621882715223013e-02 8.255190274837305442e-02 8.347549904854889569e-02 8.033161313872348719e-02 8.485331907754833924e-02 8.675333797789894219e-02 8.671107273501107993e-02 8.759836549908057990e-02 8.725797789508521474e-02 9.952511249011687655e-02 8.047446829705930116e-02 7.675678952607176142e-02
8.273792889086259428e-02 7.842705546260510252e-02 7.120437093224596392e-02 7.021009710688402849e-02 7.325724076659888284e-02 7.561864305108718931e-02 7.679398652951290039e-02 7.627721243690128994e-02 7.455249632252132497e-02 7.182451788650108526e-02 7.219151234099360770e-02 7.231751809426507915e-02 7.239835008590857213e-02 7.250007472597397307e-02 7.256957649876072391e-02 7.323220869010080292e-02 9.523742487141338697e-02 8.497127378284148602e-02 8.477923709835895327e-02 8.348018252837066666e-02 8.379332843372219730e-02 8.296165897419474633e-02 8.303613699028861150e-02 8.206742467571859212e-02 8.082402388290482742e-02 7.820858432569205432e-02 8.303843463724711049e-02 8.400154763632168564e-02 8.394588285964493801e-02 8.235909829284873696e-02 9.625928819495677136e-02 8.330448779555893468e-02 8.426098434929242542e-02 8.607319664353016431e-02 8.558570219273238522e-02 8.494179471676260862e-02 8.401336556233221509e-02 8.048249433225726501e-02 7.745411556703739320e-02 7.973629313875388314e-02 7.728266476942965979e-02 8.888486787458940719e-02 8.635389162776196947e-02 8.744495411578195876e-02 8.935882559978775008e-02 8.066915318491804654e-02 7.761768816937021642e-02 7.817871678985273409e-02 7.561983326392685001e-02 7.933606968361915646e-02 7.729280918572639658e-02 8.033058383408755998e-02 8.277532870308546009e-02 8.521485816009471970e-02 9.133332332398542974e-02 9.191942413324789840e-02 9.228203654552316615e-02 1.041575566159989308e-01 7.736118984921568076e-02 8.211058485404684748e-02 8.152247096866876985e-02 8.251572407972135315e-02 8.370707324953349793e-02 8.333159453123896443e-02 8.271460406740495375e-02 8.378002204577576773e-02 8.443946118552278501e-02 8.294204174461924928e-02 8.294990896394340008e-02 8.291532174107675568e-02 8.086301171342162586e-02 8.055667002010398481e-02 8.001751414210805935e-02 7.707369299460886669e-02 7.625222611939236339e-02 7.522098850558894823e-02 7.485753049095038303e-02 7.596730934131304402e-02 7.887952923233675084e-02 8.143785314035253964e-02 8.347004872326510561e-02 8.029597907331524620e-02 7.791438612617845871e-02 8.278887077935104255e-02 8.475628789224548543e-02 8.622394556036774849e-02 1.006666826136901199e-01 8.632307538372042954e-02 8.651639887851908517e-02 8.675684691436243157e-02 8.562970055313010032e-02 8.573997252425946680e-02 8.409322564591019400e-02 8.385500347291055534e-02 8.345530575367222925e-02 8.367042167969222788e-02 8.175830367445395541e-02 8.147767849655684902e-02 8.103221420503731176e-02 8.043310774268172536e-02 7.954729659046240464e-02 7.621382003923816983e-02 7.438834015164294544e-02 7.522105194630791802e-02 7.663648555986703192e-02 8.003083586581312414e-02 8.259586694343599989e-02 8.277132135426440440e-02 8.435274583135887738e-02 8.408457659539951556e-02 8.478094993158595549e-02 8.211950539356707712e-02 8.578486723032004158e-02 8.726683411441038540e-02 8.711569451057210589e-02 8.769385064158546905e-02 9.959843618278141353e-02 8.027714372359776029e-02 7.683130550677644277e-02
