ncols 119
nrows 32
xllcorner 1740
yllcorner 590
cellsize 10.0
3.028007394629011628e+01 3.142417489640262218e+01 3.222402613213706957e+01 3.235302408542184338e+01 3.177806760309148615e+01 3.089714219403963114e+01 2.978336759606696660e+01 2.857870329499169415e+01 2.732716847456870823e+01 2.594635376215449796e+01 2.712903550408339370e+01 2.820198758719519816e+01 2.908683947057390640e+01 2.955921815515982232e+01 2.942778428910769861e+01 2.917514687278607965e+01 2.898497141810944200e+01 2.888056482630807764e+01 2.882760790464725531e+01 2.813904305410778761e+01 2.714697095694607754e+01 2.709601307439962881e+01 2.683887198414419828e+01 2.590016316970181265e+01 2.561453224947903351e+01 2.676514853256873394e+01 2.768500548198646882e+01 2.848892623505238930e+01 2.937622819500547422e+01 3.049498454329864217e+01 3.166254034507781512e+01 3.277135973282358350e+01 3.379545061692890329e+01 3.481387253020643868e+01 3.584339785942324141e+01 3.687870799456512572e+01 3.791159782791435617e+01 3.893320384470400342e+01 3.992617037107350342e+01 4.068174486496535991e+01 4.103686865740516510e+01 4.084673240215484924e+01 4.017865627249619109e+01 3.925170269782324795e+01 3.822769788267148527e+01 3.712058901063524274e+01 3.600976540925739755e+01 3.640765398127050645e+01 3.652980772202112547e+01 3.671343390508146598e+01 3.794016149155492457e+01 3.906019163728024068e+01 3.996961051486229621e+01 4.038797530622861132e+01 4.010411233048818502e+01 3.924903629778430769e+01 3.810419942805521742e+01 3.685524008573108290e+01 3.560971998758139989e+01 3.442420618528964837e+01 3.332364545836322378e+01 3.231470569983069652e+01 3.139382796975218426e+01 3.055721317528641023e+01 2.976510519122588860e+01 2.899179414313822178e+01 2.822022968931078069e+01 2.744190776405901033e+01 2.665462433825825173e+01 2.585903799797562286e+01 2.505595459371510714e+01 2.424535774291863532e+01 2.339850917675086706e+01 2.443658641714595348e+01 2.559754043129293422e+01 2.636430702176035012e+01 2.644998081761739073e+01 2.585108922515568963e+01 2.489634258678320577e+01 2.604999313992430743e+01 2.717659283686938210e+01 2.818264755452462822e+01 2.885254668986683768e+01 2.879072368750185262e+01 2.858774725523602100e+01 2.775694293507604726e+01 2.666100774422379871e+01 2.546750814574070532e+01 2.424355155061622114e+01 2.297988665537786090e+01 2.395722579807416608e+01 2.495623316818442206e+01 2.601785903746796791e+01 2.715869581012668732e+01 2.838591867931958035e+01 2.967947582967762088e+01 3.097665176601147508e+01 3.215093602950959450e+01 3.298103734817225785e+01 3.311160962496555982e+01 3.250518733227121970e+01 3.151053521970471749e+01 3.035449883602902332e+01 2.916534346942921374e+01 2.800931076083701399e+01 2.691445200984025021e+01 2.588600359670692441e+01 2.491816163215374047e+01 2.400988176899481275e+01 2.313916161179557918e+01 2.228342754517847268e+01 2.310116964210321200e+01 2.319873760100733762e+01 2.327367105837591765e+01 2.338416414877997695e+01 2.458041689773708072e+01 2.563178105419998687e+01 2.663833607479795162e+01 2.769466223757608958e+01
2.960646362260134978e+01 3.074768441730326529e+01 3.154827839506641851e+01 3.167612611785021670e+01 3.107529069781890030e+01 3.009928829570811004e+01 2.903673005625687509e+01 2.785931681651328162e+01 2.660818185897907640e+01 2.519877592987611337e+01 2.634420693214581277e+01 2.736519458177606623e+01 2.820236526333346916e+01 2.847242553601649462e+01 2.829331118015151958e+01 2.804184611121830883e+01 2.787195312363588329e+01 2.780386763098812253e+01 2.781402746238554613e+01 2.716272516297660644e+01 2.616012211430191314e+01 2.613090607624106099e+01 2.589443014990891001e+01 2.481105594181140006e+01 2.582570108358249428e+01 2.686436670294741091e+01 2.777281252562262281e+01 2.860006012447914614e+01 2.961124850271316333e+01 3.073167112015936553e+01 3.192560966423761570e+01 3.314854046857769987e+01 3.436989762625356803e+01 3.553321342140637285e+01 3.663028173998207393e+01 3.765434520806920204e+01 3.858034865122732526e+01 3.937854725269564682e+01 4.002258329297774253e+01 4.040934601664849879e+01 4.045715638664942304e+01 4.004091977219997034e+01 3.932483539248264748e+01 3.835970519960453373e+01 3.728841071883392999e+01 3.619939633502956156e+01 3.504985052447391070e+01 3.559909521666028098e+01 3.543899961714068070e+01 3.660181228368372786e+01 3.771796129933419195e+01 3.870699802329708206e+01 3.943399355869379264e+01 3.964777737745237829e+01 3.918502000993611034e+01 3.831997026955328067e+01 3.716382165806838600e+01 3.591147422947089751e+01 3.466611357852762154e+01 3.348145319319320379e+01 3.238060674690814267e+01 3.136895620136450802e+01 3.044265014247072898e+01 2.959331106947299617e+01 2.881364555548302775e+01 2.806552982825812848e+01 2.732198735133838241e+01 2.656711450890441739e+01 2.579684158029057528e+01 2.501355141857755982e+01 2.422030681282016218e+01 2.341817351789455159e+01 2.257152528665351099e+01 2.380112265039385733e+01 2.488246741457803779e+01 2.560730156370244970e+01 2.564395264441385791e+01 2.500261257605601628e+01 2.400714204969208154e+01 2.518626790888263045e+01 2.633028226721468812e+01 2.734007266119010282e+01 2.798603056895119323e+01 2.782797527834175710e+01 2.754031953398825294e+01 2.673589758351887369e+01 2.568012319076949623e+01 2.454707650096134586e+01 2.340155018007010312e+01 2.218737525649641640e+01 2.317666203903153388e+01 2.416190806119134749e+01 2.520558299583729323e+01 2.634215799217974308e+01 2.758058238486027847e+01 2.889844238370434226e+01 3.022803895923153306e+01 3.143337291766860275e+01 3.227819612051320064e+01 3.239531762486009114e+01 3.176488191585039900e+01 3.074797599440404028e+01 2.957568796311133141e+01 2.837715642469577304e+01 2.721822313208132726e+01 2.612627010835626962e+01 2.510519488219980033e+01 2.414347245360429284e+01 2.322387127634110371e+01 2.234244411630644933e+01 2.146060371126130661e+01 2.216949278030049086e+01 2.217129371611990507e+01 2.218981159660924263e+01 2.326061059980171564e+01 2.405585542612726968e+01 2.493728982055808530e+01 2.588507073524062108e+01 2.691875188984504774e+01
2.894393073469393940e+01 3.008154670466920777e+01 3.088859883411126006e+01 3.102781896871793066e+01 3.039912182509883465e+01 2.933567459145416123e+01 2.812571653163695373e+01 2.695840547065813908e+01 2.576695598331328441e+01 2.447923650666948703e+01 2.556432192064982090e+01 2.653180722544410841e+01 2.724347719151534974e+01 2.738232774923494262e+01 2.717799520729473883e+01 2.693768078789018361e+01 2.678868430961058067e+01 2.675103385160976188e+01 2.682110715315084093e+01 2.621736333634827432e+01 2.523129734554106918e+01 2.522507504462105743e+01 2.511341922510631974e+01 2.430595814620336625e+01 2.550134937710590677e+01 2.644879034929452999e+01 2.719705503713376160e+01 2.832666158119571520e+01 2.947577410597616421e+01 3.066840950899871032e+01 3.190557477292576394e+01 3.317486964489167889e+01 3.445382863358079106e+01 3.570679363076683899e+01 3.688496118706870419e+01 3.792945707134696676e+01 3.876469833074400384e+01 3.931767632491908415e+01 3.963931406294420867e+01 3.972891655724125570e+01 3.967593523048639526e+01 3.921129322726012134e+01 3.842273411900316660e+01 3.748808193183542414e+01 3.642453983644878690e+01 3.532290783772369025e+01 3.420771463982158167e+01 3.480018386240690376e+01 3.470706366542140131e+01 3.597327409088883599e+01 3.709303224937390553e+01 3.806539431722622169e+01 3.878366394432119080e+01 3.888656673891827609e+01 3.830500299068247472e+01 3.733389493110254875e+01 3.620426548203046480e+01 3.496185701929667999e+01 3.372618906971113972e+01 3.254980689631203461e+01 3.145510348358070019e+01 3.044699243980605630e+01 2.952173179335651909e+01 2.867261281395757777e+01 2.789206707687548459e+01 2.717149780149757277e+01 2.646897016080126619e+01 2.575146275702445209e+01 2.500687289885780018e+01 2.424006916283384427e+01 2.345899523381552143e+01 2.266836595752920402e+01 2.183628683701144269e+01 2.310509100467705323e+01 2.418061645088310030e+01 2.487624771590484940e+01 2.487169388380524637e+01 2.419282959118924126e+01 2.316117415274517199e+01 2.435983755781059301e+01 2.551810415245723007e+01 2.653834054566743461e+01 2.720070803478088806e+01 2.713555273423826364e+01 2.629061567809067057e+01 2.564601527543371873e+01 2.464657032238971723e+01 2.356357449079035860e+01 2.254852983696152080e+01 2.147469876101278174e+01 2.243434555936789110e+01 2.336645940180190451e+01 2.438808970311020730e+01 2.552699537392010498e+01 2.678690072490807594e+01 2.814284615161822245e+01 2.952193144840268602e+01 3.077451865044830726e+01 3.163850373526884496e+01 3.172477915505708879e+01 3.105398271947125366e+01 3.000435032614787545e+01 2.880996096078020940e+01 2.759957618011140923e+01 2.643772420850400096e+01 2.535062428734493878e+01 2.434310249354052402e+01 2.340542593291255002e+01 2.250947537397654941e+01 2.162520598800971783e+01 2.073291051789638217e+01 2.125457245950551766e+01 2.113794943820162686e+01 2.199268721685546524e+01 2.261474382678013839e+01 2.336154897863229607e+01 2.419128092923970996e+01 2.511064519491473135e+01 2.613369240552073691e+01
2.828009146511816851e+01 2.941565033983135891e+01 3.024248084912422030e+01 3.043312056218323391e+01 2.981766944365663363e+01 2.864404845644937225e+01 2.730326242247337021e+01 2.598510702883578816e+01 2.478059842545079405e+01 2.380955623766683971e+01 2.474286607542607186e+01 2.558434415614020097e+01 2.623623226261425501e+01 2.629702778647043004e+01 2.608755687335027673e+01 2.586533000892465850e+01 2.573601808977766225e+01 2.572167044917287271e+01 2.584404602946714746e+01 2.531250901358730232e+01 2.435038003283127495e+01 2.433444286416606062e+01 2.429493649726794402e+01 2.384460661206765053e+01 2.476610953378702007e+01 2.574437504373413077e+01 2.700171971472475008e+01 2.822328462802899196e+01 2.945222692759400829e+01 3.070686523894624642e+01 3.199360625841035954e+01 3.330520339139059871e+01 3.461807020737795426e+01 3.588727069762115462e+01 3.703997062772565840e+01 3.797168389275135780e+01 3.852670850433531768e+01 3.871468326923753978e+01 3.880051131292790956e+01 3.875743882805301865e+01 3.868256042460537714e+01 3.835826692133992566e+01 3.755809288616245567e+01 3.660484510919793166e+01 3.559464895406795648e+01 3.451954176866426849e+01 3.342024956157165150e+01 3.405346434222209240e+01 3.401321610097829762e+01 3.523253402458031758e+01 3.635809486889966990e+01 3.740538545724168529e+01 3.811622933306956895e+01 3.812992020334289833e+01 3.744997691382641136e+01 3.640123045521240641e+01 3.520424723477977835e+01 3.399931096264343466e+01 3.278238600406703540e+01 3.162127642688669127e+01 3.053821199462676006e+01 2.953797852891552012e+01 2.861662104434510567e+01 2.776828150340291046e+01 2.698980997248487412e+01 2.628018176476499335e+01 2.562964797375823167e+01 2.497500500398957968e+01 2.427262179069650472e+01 2.352789088229649295e+01 2.275986641498701601e+01 2.197996049356850534e+01 2.115912928508815227e+01 2.243880466671404506e+01 2.350381399621224787e+01 2.417136160330326078e+01 2.412870705576014529e+01 2.341628078336268359e+01 2.235236979383210709e+01 2.356508095579033579e+01 2.473335194203450627e+01 2.576371277031200435e+01 2.643723064868565942e+01 2.639451939297996930e+01 2.563511250907794548e+01 2.443213124647339995e+01 2.358422415241975756e+01 2.248593463471500087e+01 2.149541432918467621e+01 2.083298045216333350e+01 2.162972602396135713e+01 2.251921391139481443e+01 2.353637001466828238e+01 2.469226953295664018e+01 2.599022392529313308e+01 2.740776249946340926e+01 2.886882106630783795e+01 3.020301879797889555e+01 3.109769822566490305e+01 3.111286190513245131e+01 3.037501319523855159e+01 2.927782268136374100e+01 2.805283557837925912e+01 2.682585768143109561e+01 2.565882363654155185e+01 2.457512356115901753e+01 2.357760048298631972e+01 2.266383119809123059e+01 2.182020537312212838e+01 2.098272026866542461e+01 2.009380267344114657e+01 2.027100509066799816e+01 2.062826880279823172e+01 2.119544585703053841e+01 2.184172990670091963e+01 2.256639990680385921e+01 2.337710088408354991e+01 2.428510759948914810e+01 2.530523255175337027e+01
2.760022018527998000e+01 2.873322777293114783e+01 2.958950519772970722e+01 2.988739983238053810e+01 2.942575873119796981e+01 2.841767578826351581e+01 2.717681655891383130e+01 2.586994182709948475e+01 2.456030347156519866e+01 2.319167261734527230e+01 2.362825410044170837e+01 2.454036693154564119e+01 2.520627146999751034e+01 2.522808948180755095e+01 2.502637097478009665e+01 2.482675788598136535e+01 2.471456439754856049e+01 2.471436558221112989e+01 2.484552590761213509e+01 2.447457587658800904e+01 2.351867180043506167e+01 2.344708133852692455e+01 2.320770594191343505e+01 2.416258934540349301e+01 2.510859295016781090e+01 2.610891151132908661e+01 2.720297183770935590e+01 2.836271667926138562e+01 2.957679983436080207e+01 3.083967336733455511e+01 3.214281467555474592e+01 3.346689679601515621e+01 3.477371897774929010e+01 3.599642761773637289e+01 3.702875406094896960e+01 3.772159262575999605e+01 3.789401075644762784e+01 3.776800817783208686e+01 3.771149622097706811e+01 3.761497427612030720e+01 3.756281990756246358e+01 3.738357311423310136e+01 3.671074794570650823e+01 3.577010333104320239e+01 3.476818746491509415e+01 3.375159687420016752e+01 3.267834116185123605e+01 3.334663566384943323e+01 3.335340384961835269e+01 3.442114318567472253e+01 3.565594210617864945e+01 3.680061466931437053e+01 3.748607454003318651e+01 3.739908375275594921e+01 3.662299234400062886e+01 3.550273017747398541e+01 3.425576977615340724e+01 3.300677897194260169e+01 3.182885449070933603e+01 3.068956041589632378e+01 2.962368146765626165e+01 2.863607715344588911e+01 2.772228502927510974e+01 2.687533580800818100e+01 2.609264439830581139e+01 2.538087897733658238e+01 2.475361242011692653e+01 2.420258116548988525e+01 2.358356802928141249e+01 2.287035597138854115e+01 2.211517267191889147e+01 2.134397596264496499e+01 2.053208890671898246e+01 2.180855510314960810e+01 2.285473323566384707e+01 2.348997259657432934e+01 2.341017076140998654e+01 2.266835954419652666e+01 2.157629625089939296e+01 2.279471209505677720e+01 2.396753477472978133e+01 2.500912282392972585e+01 2.569055818604639185e+01 2.565507865114938113e+01 2.491594912643987314e+01 2.380928058738902564e+01 2.248925710304648362e+01 2.148706608278008900e+01 2.007356796128589593e+01 2.089866114334661518e+01 2.183463608217216745e+01 2.280371438992003874e+01 2.386222064322399561e+01 2.502179549050624274e+01 2.627797017653537637e+01 2.760023830391225985e+01 2.891026634810897278e+01 3.004761421319873804e+01 3.072137205250703573e+01 3.056607873006811005e+01 2.972604344830000755e+01 2.856526101555624919e+01 2.730042435953697222e+01 2.605099189492342049e+01 2.487546946671450954e+01 2.379423330967615158e+01 2.280457643987266181e+01 2.189563550871914188e+01 2.108390002867690782e+01 2.037124334992167363e+01 1.953142675057893740e+01 1.988744855631064468e+01 2.111106330339815784e+01 2.203765092460574948e+01 2.281938288758102473e+01 2.363628177173074718e+01 2.450548269532021095e+01 2.544295821967918414e+01 2.645914579184871229e+01
2.688822974039724301e+01 2.801099246674387544e+01 2.886988910512453899e+01 2.934877873389800840e+01 2.912389669287077254e+01 2.825265415043829620e+01 2.707776486379750480e+01 2.579506788594528643e+01 2.451376772997422293e+01 2.330734038992576984e+01 2.232178232226652881e+01 2.353330875732094185e+01 2.420045493282408344e+01 2.418650591588869148e+01 2.399680331092668695e+01 2.382333371486874185e+01 2.372504236979542469e+01 2.373512712999742291e+01 2.385306141437801841e+01 2.359010558610360420e+01 2.274467656083321287e+01 2.257551533689979451e+01 2.349508476642394328e+01 2.441066854211211989e+01 2.536454242062292153e+01 2.636984819959734239e+01 2.744230738781124757e+01 2.858546578963418838e+01 2.979723575472783281e+01 3.106982450422774633e+01 3.238613930042131983e+01 3.371213564465799095e+01 3.498762682833029913e+01 3.611182423813743725e+01 3.693038411298461199e+01 3.724580527525823470e+01 3.709006769534149583e+01 3.658516831580976714e+01 3.649009297128878870e+01 3.638565163746814335e+01 3.636577099538465774e+01 3.631215061540233791e+01 3.578815087863190314e+01 3.495477015859390235e+01 3.398463152174059587e+01 3.299802739443664734e+01 3.197700983390976859e+01 3.266761438736001111e+01 3.273231334138908011e+01 3.402745891018866331e+01 3.528102017760986797e+01 3.633824089593423423e+01 3.692701242188346811e+01 3.669897745413700108e+01 3.582139586463304681e+01 3.463179623626148640e+01 3.333829669556359931e+01 3.205827891892029413e+01 3.085163025027639350e+01 2.974943225314349604e+01 2.870605742827993367e+01 2.773649187729005661e+01 2.683622155082496263e+01 2.599636534355738959e+01 2.521053825921197244e+01 2.448316653259380260e+01 2.383495538849842887e+01 2.331064204161734565e+01 2.293733603994396830e+01 2.226813698347735837e+01 2.152159271212152447e+01 2.075483376080394748e+01 1.994943874323764987e+01 2.121199819311713242e+01 2.222905031597920456e+01 2.282425182511122586e+01 2.270846540112536616e+01 2.194433712696350725e+01 2.083038259836433781e+01 2.203288082513777724e+01 2.321092174711417755e+01 2.427934801394221154e+01 2.496557095560877926e+01 2.492057671260577933e+01 2.417947720442237269e+01 2.309924076481854627e+01 2.190270280589571072e+01 2.064125309169544664e+01 1.950895543262720011e+01 2.075541161605012164e+01 2.184375810257358097e+01 2.279660484894749217e+01 2.393604890035930666e+01 2.515655604059980988e+01 2.643888371192839060e+01 2.774198724526763726e+01 2.897852225427227069e+01 2.997457340091004951e+01 3.039268316354934996e+01 3.004229253280173140e+01 2.909342155936121088e+01 2.786088756481636963e+01 2.654901537629613273e+01 2.527118456789721535e+01 2.408260130283197853e+01 2.300197441645533303e+01 2.202476107693092544e+01 2.112787154894457942e+01 2.027417916077081372e+01 1.959181036981112456e+01 1.910266898790402124e+01 2.019140262275654862e+01 2.127412444193517871e+01 2.231572741172967156e+01 2.331813892129669341e+01 2.427091989136809858e+01 2.523060144963583795e+01 2.622742639763055905e+01 2.727338491645875962e+01
2.613133679043701818e+01 2.721850638723533322e+01 2.817655314333517325e+01 2.879484463941007633e+01 2.876046627682998746e+01 2.802816520245156795e+01 2.691251430590192584e+01 2.563187866420022942e+01 2.430685436404663591e+01 2.300125407428523872e+01 2.172608473295307974e+01 2.267367878764203581e+01 2.322651572406775955e+01 2.317248941402151274e+01 2.299792830591241000e+01 2.285607858696129568e+01 2.276637507256784332e+01 2.279005552846932048e+01 2.285823595028496058e+01 2.263838936073354091e+01 2.199738993415150290e+01 2.284512574901285120e+01 2.369197717917518275e+01 2.458446792679428228e+01 2.553095021471760262e+01 2.654073968460609123e+01 2.762346118018684393e+01 2.878351866670082515e+01 3.001989393595763289e+01 3.131976794271531972e+01 3.265645489657283207e+01 3.397541316350120155e+01 3.518869044542450553e+01 3.614813882830713965e+01 3.662682563235247102e+01 3.655704163101953696e+01 3.605728969603462986e+01 3.535899930306356964e+01 3.522491000969485953e+01 3.512869433600387481e+01 3.512982179066445099e+01 3.513748778942642303e+01 3.483119560033836848e+01 3.406646730408744617e+01 3.320188940906461283e+01 3.228317673390270670e+01 3.131556078807988897e+01 3.197048070990895852e+01 3.211489387230878378e+01 3.371954829343719950e+01 3.506364865317176793e+01 3.607273682714691176e+01 3.642836365943644239e+01 3.598525043285719960e+01 3.502996792206042187e+01 3.377821670670586229e+01 3.244223855352500863e+01 3.113418430608616916e+01 2.990953204900883833e+01 2.878913855809033251e+01 2.778011693305553109e+01 2.683349963694734086e+01 2.595335713771060426e+01 2.513033671496517840e+01 2.435311377291433388e+01 2.361693729306662348e+01 2.293364477812488289e+01 2.232040725484487353e+01 2.240038089564967194e+01 2.173955069878475044e+01 2.098116924218218315e+01 2.020950213094690895e+01 1.940638219634445605e+01 2.064345823249239587e+01 2.161714443877240655e+01 2.215796840952230085e+01 2.201019228235168157e+01 2.123778707381480757e+01 2.011508298774049663e+01 2.121415794568837754e+01 2.246911995948190466e+01 2.360404759369021477e+01 2.427257718533750008e+01 2.419987266713548024e+01 2.343006436891349153e+01 2.232917759786045053e+01 2.115976250941070447e+01 2.009281446421462647e+01 1.900735624666595314e+01 2.034797363961683558e+01 2.123025255324178318e+01 2.252502886812446903e+01 2.381919861647804737e+01 2.513349964037812967e+01 2.645919295631556523e+01 2.775613913386304787e+01 2.893408580449504797e+01 2.980905137978836450e+01 3.004420144487840716e+01 2.948618548448511234e+01 2.846649242811860958e+01 2.715975727289455577e+01 2.579585507358960328e+01 2.448427043016092952e+01 2.327719642984544635e+01 2.219171951802956499e+01 2.122501810371201003e+01 2.036084280586495154e+01 1.955594847252256230e+01 1.856163760637780413e+01 1.931729210415838693e+01 2.019544781565576841e+01 2.115710029418419680e+01 2.216385552490059396e+01 2.319122535288613207e+01 2.422536872824558785e+01 2.526898914767456006e+01 2.633310774149972744e+01 2.742851844412881590e+01
2.530965982245196599e+01 2.644857809874999077e+01 2.747459537108191796e+01 2.820612435943136376e+01 2.834894706686860388e+01 2.780686638329975935e+01 2.676049904997746864e+01 2.548576783690148773e+01 2.411439604696882810e+01 2.269658353554522634e+01 2.117613728285906660e+01 2.169744985752635813e+01 2.221834946129374444e+01 2.218052868380731368e+01 2.202657314648732623e+01 2.192706490603477221e+01 2.183403137255643855e+01 2.189128017090625633e+01 2.186384394776974815e+01 2.144571717354517304e+01 2.215198257403853432e+01 2.289224816370244397e+01 2.370131310355828447e+01 2.457809088501208805e+01 2.552998088264491372e+01 2.656029575752560845e+01 2.767918654716762816e+01 2.888261964179532271e+01 3.017180878849563896e+01 3.151586640345713519e+01 3.288437354568826976e+01 3.417974157065629015e+01 3.529513710367447032e+01 3.600707233050948730e+01 3.612400958029727605e+01 3.569669691178194881e+01 3.500385095357411558e+01 3.411082532495309749e+01 3.395339989526325297e+01 3.388378601609956320e+01 3.389508393867669866e+01 3.392857050886293990e+01 3.374862117768807224e+01 3.310826891057512000e+01 3.231018749330878137e+01 3.155194424078429094e+01 3.070536490057070367e+01 3.107952895378675251e+01 3.241174862293095060e+01 3.376085936437091561e+01 3.498118616424223148e+01 3.584791661994012202e+01 3.596968884548581258e+01 3.530280626944467315e+01 3.421848687183264559e+01 3.293056165587929485e+01 3.155710430591573612e+01 3.022385943935218222e+01 2.898422039373263814e+01 2.785516261781838665e+01 2.683557221911331681e+01 2.592111515160015500e+01 2.506567880637378209e+01 2.426805602774648918e+01 2.351570441071908846e+01 2.279286110062465198e+01 2.209448236720444925e+01 2.142358152938327365e+01 2.176804476882281492e+01 2.138130875938460562e+01 2.049352183780930048e+01 1.970816523059797021e+01 1.889877582308371728e+01 2.009574161962231287e+01 2.100533421457422278e+01 2.145672369293505710e+01 2.129158504620365377e+01 2.053686037363326378e+01 1.942731938499075639e+01 2.084533950570850536e+01 2.204288553747517554e+01 2.298364151401868938e+01 2.361080754039963736e+01 2.350632204253584945e+01 2.269277265268497956e+01 2.152881125968175979e+01 2.026570230430867525e+01 1.920423571747710056e+01 1.852743134214601639e+01 1.963037246254815216e+01 2.103980122330756686e+01 2.240528026999387379e+01 2.376132034355511280e+01 2.511389464880151934e+01 2.644809902134128521e+01 2.771251276428719379e+01 2.881984016568702600e+01 2.957099071902417364e+01 2.972213221410363815e+01 2.903710574583082860e+01 2.783905315725261076e+01 2.644911083397336782e+01 2.502502211095476170e+01 2.367300790963518509e+01 2.244175916027490558e+01 2.134480514432468823e+01 2.037836967167307023e+01 1.953305946627058276e+01 1.880120059099593632e+01 1.820465869163214734e+01 1.914929346320552028e+01 2.011860094588346470e+01 2.113108603918573891e+01 2.217017094789135356e+01 2.321949004646013748e+01 2.427151311062795358e+01 2.533144904532906949e+01 2.641308082173706495e+01 2.752705171172475218e+01
2.450570115326448217e+01 2.567192396161744483e+01 2.674212240028101206e+01 2.755347756453586072e+01 2.784708282471159890e+01 2.745036299976014860e+01 2.651383933619011657e+01 2.530686306950514464e+01 2.399010981469109893e+01 2.266425663385214762e+01 2.141278075911702672e+01 2.036992089422155772e+01 2.118735890992169502e+01 2.122254005485494233e+01 2.107781627269528713e+01 2.104221248076505546e+01 2.091617392171635004e+01 2.106049987373712895e+01 2.088828561284204710e+01 2.219599096737805155e+01 2.319294707063741967e+01 2.404550649765442571e+01 2.486109430590757796e+01 2.572966231429300166e+01 2.666137747653761281e+01 2.769740801005310971e+01 2.878411943485960478e+01 2.997342202220142937e+01 3.117824302509135848e+01 3.244083492173071193e+01 3.361262637922169461e+01 3.468959157070901256e+01 3.543050475470169403e+01 3.572281838213711325e+01 3.549940752301420588e+01 3.483543906506444188e+01 3.391703188569893967e+01 3.290141415416998427e+01 3.269009190195306758e+01 3.267958475834561938e+01 3.268890276734696698e+01 3.271286748118655652e+01 3.257228536032360466e+01 3.198979048988847751e+01 3.128229751384201762e+01 3.060855376908404324e+01 3.013084585461773202e+01 3.137852782886664826e+01 3.262965742526119328e+01 3.387396254261326334e+01 3.497772162043586519e+01 3.568651943125817638e+01 3.557734703915476615e+01 3.468578258753147736e+01 3.343237425078684311e+01 3.206790428169919238e+01 3.067138997350506102e+01 2.931428275621313517e+01 2.806361294807604523e+01 2.693045221607626871e+01 2.590952193226657485e+01 2.499050023828374023e+01 2.416601132796075646e+01 2.339654655307930753e+01 2.267885563879907806e+01 2.199591707949069885e+01 2.131786561606458008e+01 2.061930140071409312e+01 2.111984503285158610e+01 2.095305191616512275e+01 2.028483765900212532e+01 1.924389814928712639e+01 1.842811338595917192e+01 1.956044735558748826e+01 2.038743072871472606e+01 2.064729393800613622e+01 2.051513990456322034e+01 1.982491115333895948e+01 1.876505891027387563e+01 2.012470832918721442e+01 2.126999233293345881e+01 2.232037114744471751e+01 2.297389510882160835e+01 2.285667328396619169e+01 2.200348454651697949e+01 2.077249828478986160e+01 1.939388628336741505e+01 1.784813655180898095e+01 1.881357863169939648e+01 1.992290957854001121e+01 2.116082244027533932e+01 2.244768272034566436e+01 2.375270541941230462e+01 2.505661725863988565e+01 2.632986291911166532e+01 2.747260929587736555e+01 2.842484886301504332e+01 2.919931060825246050e+01 2.946085811181742642e+01 2.899787493113263181e+01 2.797136766409127873e+01 2.670529956856276854e+01 2.537422301692893001e+01 2.407414661111769050e+01 2.285039813713961010e+01 2.171765645294307134e+01 2.067366474806248888e+01 1.970689635142710472e+01 1.879920676392829293e+01 1.788769762736187730e+01 1.904468226845382262e+01 2.017840752067937160e+01 2.130313580615739255e+01 2.239714049270843432e+01 2.343991465928315776e+01 2.444423774976268504e+01 2.544338671536793584e+01 2.649096692605277781e+01 2.759472672288522332e+01
2.369944873056828882e+01 2.487470995794850737e+01 2.596064248407372332e+01 2.679643118855736361e+01 2.729205364833633141e+01 2.714873247308376136e+01 2.637038649274709101e+01 2.524378045629054768e+01 2.395544378189333656e+01 2.261206895199694245e+01 2.125851105089597226e+01 1.983879131214099090e+01 2.022904117837290627e+01 2.032427752944237653e+01 2.013797610855794673e+01 2.021769340557178651e+01 1.994853269106324234e+01 2.032286218089999963e+01 2.181304002112646501e+01 2.304448871177450187e+01 2.413986582617992838e+01 2.511666845118512725e+01 2.602472378009496268e+01 2.688801337716412831e+01 2.780873130826718054e+01 2.879541607106316192e+01 2.988448032468841475e+01 3.099142475729312807e+01 3.215362232992653446e+01 3.323701578222422626e+01 3.424484632258714356e+01 3.496938472453487634e+01 3.532429635487704900e+01 3.522207914807496820e+01 3.471016021365588955e+01 3.395749846265919558e+01 3.296021364416944266e+01 3.174530693950178772e+01 3.141526762288266994e+01 3.154372488862954427e+01 3.152962112185787547e+01 3.152172843604820329e+01 3.129847522360840273e+01 3.074122755554631681e+01 3.004621263916926566e+01 2.939095499686196078e+01 3.047377539867168750e+01 3.161804260553207158e+01 3.282374077657141953e+01 3.401689325881977766e+01 3.505064425022108310e+01 3.560655196631619646e+01 3.527072902573726054e+01 3.412728723377392726e+01 3.265107932070471009e+01 3.124278957989958982e+01 2.976466231417360930e+01 2.838732387649215738e+01 2.713174835345777325e+01 2.600233066719642139e+01 2.498673640274715879e+01 2.407253512644956572e+01 2.324848153486156832e+01 2.250803602162223171e+01 2.182198036876458502e+01 2.118639255757964435e+01 2.057890097173146771e+01 1.990283115098091216e+01 2.041270837095863300e+01 2.031599416363914301e+01 1.977618178383476533e+01 1.903382836195829952e+01 1.798518040217722458e+01 1.903300906589285546e+01 1.963766140050262976e+01 1.971875060732977403e+01 1.963530582146194448e+01 1.908370299627289768e+01 1.812514188092798761e+01 1.927076712401757774e+01 2.054764922821241413e+01 2.171956074227625422e+01 2.239451324347742300e+01 2.227254294057787831e+01 2.139746263237826440e+01 2.008087125640198778e+01 1.867620931524288252e+01 1.735520448096855617e+01 1.867330794468688637e+01 1.991660584374298892e+01 2.115349977060756359e+01 2.234628247074189034e+01 2.352132825681777462e+01 2.467018491356132159e+01 2.573580751070224792e+01 2.677965731888104983e+01 2.783074412328195280e+01 2.865900739117607188e+01 2.911433560443992619e+01 2.886751646781807423e+01 2.800804714675134832e+01 2.685187941468831241e+01 2.558302167250435133e+01 2.429914163365955559e+01 2.304953854456282869e+01 2.185456421075940270e+01 2.071910928316249922e+01 1.963958893116887694e+01 1.860834551379427282e+01 1.757690957849299451e+01 1.889666932239223129e+01 2.014789600134659509e+01 2.131264810312222124e+01 2.235745584718773316e+01 2.322504817008809752e+01 2.393907085935695633e+01 2.483576862472967761e+01 2.587197160279862373e+01 2.698997304902853500e+01
2.288467703887342353e+01 2.404788272599623866e+01 2.510498860941770971e+01 2.604030750376869108e+01 2.667425862760659072e+01 2.674281424796512496e+01 2.619264432063179271e+01 2.519054181897283229e+01 2.396239356003243870e+01 2.265392210864711231e+01 2.135648116009554087e+01 2.014326575126077756e+01 1.910345032910360885e+01 1.952862884310796332e+01 1.913789604805446132e+01 1.947304547299293631e+01 2.077928873396693987e+01 2.170919113879666185e+01 2.279417612874854271e+01 2.394345161041290027e+01 2.504495825038117474e+01 2.608168815334763835e+01 2.706700248602018632e+01 2.801578882640306389e+01 2.891884934926832784e+01 2.988034327098666765e+01 3.088928712189137471e+01 3.196273057058381539e+01 3.296859186821209420e+01 3.391001411594815096e+01 3.459366861666720183e+01 3.495303208505711012e+01 3.490196202379184598e+01 3.448276913642558128e+01 3.385397127588372257e+01 3.301572945730046627e+01 3.207844813124880545e+01 3.103633026899793279e+01 3.004590353141854919e+01 3.053192998107571299e+01 3.042146970963784369e+01 3.047608315774553134e+01 2.985663572918813102e+01 2.940914892542418357e+01 2.861079066913482905e+01 2.984184430185555215e+01 3.103996110889723781e+01 3.221312839974229547e+01 3.337272818834659205e+01 3.445332809569748633e+01 3.530239712109244010e+01 3.563259933839928806e+01 3.507437073940366901e+01 3.386030449247099483e+01 3.228760482659039610e+01 3.047567827290745512e+01 2.887108801157095428e+01 2.738213831408751275e+01 2.613811221418020025e+01 2.502604866938193950e+01 2.402650672324224956e+01 2.312590465887512536e+01 2.231274263054385187e+01 2.157754035985003327e+01 2.091331250337672643e+01 2.031190813230193726e+01 1.976462117884789649e+01 1.925694850989232876e+01 1.958314567039550980e+01 1.944886736505744906e+01 1.899747352960661928e+01 1.840866254604648944e+01 1.757153682934485417e+01 1.844221253695572571e+01 1.871558850135278007e+01 1.865243196828909333e+01 1.857563425930144163e+01 1.828725853111835775e+01 1.752088037442639745e+01 1.886749853845246605e+01 2.014708953668117175e+01 2.123974306185332495e+01 2.187942570440144507e+01 2.175087897834737305e+01 2.092331607466213228e+01 1.980150055391399633e+01 1.844504812394512072e+01 1.690935047554391346e+01 1.834366660219119183e+01 1.952507007291363550e+01 2.056855410901396652e+01 2.163944871688538640e+01 2.271528152107693899e+01 2.375582544261322937e+01 2.482824688415989201e+01 2.600055215347737558e+01 2.711110047520609001e+01 2.809746988705585480e+01 2.870660255178180620e+01 2.863508993662166446e+01 2.796161876011823821e+01 2.692370344528458403e+01 2.572243833711447181e+01 2.445328672673008086e+01 2.317565286148262160e+01 2.191753562301512304e+01 2.069439995522811060e+01 1.951412968686846128e+01 1.838087576019333369e+01 1.725525261256018439e+01 1.871062132070410655e+01 1.999798329093161797e+01 2.104740982729627419e+01 2.184110217952585131e+01 2.246558269538155272e+01 2.278700367286607786e+01 2.380089672074033302e+01 2.488647979042801239e+01 2.604899502164512981e+01
2.205746393862244403e+01 2.317371053505202738e+01 2.427007180259719021e+01 2.524676988917884302e+01 2.595965061079449399e+01 2.618757588515997980e+01 2.581141557470174064e+01 2.501980897681877281e+01 2.388156910893146190e+01 2.260186591108061194e+01 2.128406675699072892e+01 1.997574143972938643e+01 1.867319794762879326e+01 1.869974020834057171e+01 1.979059919957427383e+01 2.060923924427245524e+01 2.158066257052165682e+01 2.256615850577345483e+01 2.359303573723800795e+01 2.466206972576579659e+01 2.573511524910799508e+01 2.679312598857946881e+01 2.784230218576018245e+01 2.887898245988580825e+01 2.988975432392530607e+01 3.082982948186452177e+01 3.179483096912883866e+01 3.273160099390928934e+01 3.361755293872369066e+01 3.426139727649018596e+01 3.459973674632355767e+01 3.455814053460013469e+01 3.417776343221142099e+01 3.361610320659308115e+01 3.287427672739532625e+01 3.206343932777365779e+01 3.114406187215200106e+01 3.016078393165301819e+01 2.908157715388363940e+01 2.941100503351264805e+01 2.931366864538086148e+01 2.942392222666722645e+01 2.890256270050492304e+01 2.784251088450804090e+01 2.880058900293953172e+01 2.990604605760258394e+01 3.108534841631437118e+01 3.229414392119706179e+01 3.349279027797981456e+01 3.460228560362212136e+01 3.545722065965750147e+01 3.570014601929656095e+01 3.503408724802340402e+01 3.384149574563270590e+01 3.238999845355082385e+01 3.087737649526415495e+01 2.945580120717385597e+01 2.837871132663177676e+01 2.719733289155698586e+01 2.609715180180936756e+01 2.508122700686152484e+01 2.414071284316788280e+01 2.326168414532367024e+01 2.243014080401107080e+01 2.164450847460497585e+01 2.096873399309692587e+01 2.031829820221591376e+01 1.958132639973150901e+01 1.864131477273584281e+01 1.826187046810996861e+01 1.788437837975521205e+01 1.751966203672718692e+01 1.717792865228683752e+01 1.770621811388561184e+01 1.767288591581811374e+01 1.748223457510788492e+01 1.736151591314127529e+01 1.727336538589718629e+01 1.693898530685777359e+01 1.846631631929335171e+01 1.976838306703663406e+01 2.080046211569253956e+01 2.138518314326883640e+01 2.124002244148240592e+01 2.040105925447544521e+01 1.914586204777620537e+01 1.780126957937332932e+01 1.646749400361263227e+01 1.767571162981426269e+01 1.864502834539581499e+01 1.961916161209679643e+01 2.062831364430680026e+01 2.164650220813418358e+01 2.272273940073941034e+01 2.393475222436467220e+01 2.517636079121932013e+01 2.643517313427433280e+01 2.754274150303074720e+01 2.824763039782691720e+01 2.824107055094217955e+01 2.762708066841307897e+01 2.678103065369682412e+01 2.572106732633201531e+01 2.451670352111256790e+01 2.325515076136955983e+01 2.196296985457285444e+01 2.067003736195366059e+01 1.939729952799278934e+01 1.815969805812723337e+01 1.692726236656790206e+01 1.839835095461276282e+01 1.951420577358994279e+01 2.037679429088284522e+01 2.103672432013652838e+01 2.129505511435403520e+01 2.253607020202370848e+01 2.372785254442169744e+01 2.492377576190031974e+01 2.613812609984739055e+01
2.120461078900246932e+01 2.233274559796863912e+01 2.342205232059389530e+01 2.438963535754759349e+01 2.510157866262094117e+01 2.550216065048727287e+01 2.532454158664127419e+01 2.456506317451103527e+01 2.361189333166817761e+01 2.240923102015612756e+01 2.112330479747175005e+01 1.977914041722908678e+01 1.827233775362205392e+01 1.924697342544395440e+01 2.001812994792923206e+01 2.090085241454636034e+01 2.182170519330059122e+01 2.277367226313208803e+01 2.376291556896162405e+01 2.479000624967365951e+01 2.583961020871115721e+01 2.690268571165055889e+01 2.801945522230393948e+01 2.916961787955738927e+01 3.032436527918441627e+01 3.144187573240069611e+01 3.242706586874201946e+01 3.326905806418850631e+01 3.390511257896681485e+01 3.423543116360205119e+01 3.419461126677916951e+01 3.382567481069025916e+01 3.328991929739000000e+01 3.259132157885583325e+01 3.184869452621045482e+01 3.103396461917112958e+01 3.021668104702445490e+01 2.932910226721870117e+01 2.821868121297126919e+01 2.829678914464118833e+01 2.821517219527305897e+01 2.838544905016194875e+01 2.793811241393967393e+01 2.735781042381430339e+01 2.863843286726847737e+01 2.985350863761822993e+01 3.108156075551854158e+01 3.232469719570136135e+01 3.355352373190618920e+01 3.469118123646457263e+01 3.557502822982663560e+01 3.585939888477558668e+01 3.528161251587877700e+01 3.412523715521795964e+01 3.272104123939691078e+01 3.128225654428186431e+01 2.992420081436821278e+01 2.868757178918480477e+01 2.751279944943196298e+01 2.641136740193264743e+01 2.537772149311519954e+01 2.439813326960539541e+01 2.345164190262243764e+01 2.250985781194095736e+01 2.151028513050498603e+01 2.083187919524548093e+01 2.017378928043521213e+01 1.952534215736991996e+01 1.973924085282828855e+01 1.960445007251588123e+01 1.926393548594649374e+01 1.865829711336415286e+01 1.791260385187274551e+01 1.678495496717911806e+01 1.649459529281891434e+01 1.622984761964501388e+01 1.596610925518852753e+01 1.608107111783181509e+01 1.720472794029537056e+01 1.842439815866351793e+01 1.954588231743616333e+01 2.036092172483576945e+01 2.086172329106457113e+01 2.072093442705331867e+01 1.995869160864902270e+01 1.889708694192953331e+01 1.753531484575179178e+01 1.605500678844864737e+01 1.673861491319076222e+01 1.756695255823126089e+01 1.848120567307563888e+01 1.947709827963512907e+01 2.056423438204422993e+01 2.175887947577131953e+01 2.305414121269192051e+01 2.443570888670495833e+01 2.582106736673475922e+01 2.703563018597145629e+01 2.777793402154774682e+01 2.772491359522991772e+01 2.707506141702944191e+01 2.617749731273329772e+01 2.525267266294246937e+01 2.427098915313586858e+01 2.315503784384579333e+01 2.191068562604454684e+01 2.060431311027054946e+01 1.927272161940888040e+01 1.794273281129189712e+01 1.659964574469201537e+01 1.787022030554881979e+01 1.886243055888184372e+01 1.962439936695406928e+01 1.988970301447569966e+01 2.119948860799952328e+01 2.246961993103900213e+01 2.371656158990830221e+01 2.493395494874005891e+01 2.613100864219332564e+01
2.039292422459639198e+01 2.150004824138988369e+01 2.254345216317033262e+01 2.343696962775747750e+01 2.420025902135353135e+01 2.470618408268300925e+01 2.470615038398178243e+01 2.409417730479847108e+01 2.297973936492930846e+01 2.173649908549440113e+01 2.044444919200062571e+01 1.918939210335330259e+01 1.801280325220924539e+01 1.919704362107593809e+01 2.020169256166653327e+01 2.111812349777700604e+01 2.200714565491962205e+01 2.289992640437947102e+01 2.383791040999785338e+01 2.482290539450780997e+01 2.581077223132527720e+01 2.675662912238903957e+01 2.793203324216978700e+01 2.915448476630071539e+01 3.037886726340021326e+01 3.154641713543635362e+01 3.257347920357224069e+01 3.336611925765280517e+01 3.378870820708325340e+01 3.379167103456802579e+01 3.344164990162538942e+01 3.291659032799883988e+01 3.223076768502581757e+01 3.151016648284713284e+01 3.072955530179361006e+01 2.997087178697767129e+01 2.920264224230074390e+01 2.848992990531596092e+01 2.786197867501610759e+01 2.708742150089989309e+01 2.712907050344321647e+01 2.737322248441515526e+01 2.672493732900824881e+01 2.763784984057828709e+01 2.870716033922417054e+01 2.986789434749560357e+01 3.108580207266970419e+01 3.233659057785402524e+01 3.358207827971723702e+01 3.474524636397620725e+01 3.567251806262116531e+01 3.604925971239767080e+01 3.560273754530187773e+01 3.444064716877230836e+01 3.299459395054206823e+01 3.152077232840499832e+01 3.013550892201959996e+01 2.885182438699459340e+01 2.765636288037714507e+01 2.654156436731761559e+01 2.549775310514330684e+01 2.452292356234693926e+01 2.360926269699690039e+01 2.273620427298560998e+01 2.279223684356771784e+01 2.220728817470506300e+01 2.144301428006400556e+01 2.055173567835610982e+01 2.085031158633852399e+01 2.079295058612499503e+01 2.029718498223963508e+01 1.956749959915255843e+01 1.883544733810650484e+01 1.804911324404021045e+01 1.750016310094123284e+01 1.702384578725503772e+01 1.642522492496711806e+01 1.558029065805259705e+01 1.698939605526892294e+01 1.811007617864886754e+01 1.897354527939885216e+01 1.975290728451261657e+01 2.023919333194168857e+01 2.012662052913428212e+01 1.941203060326378704e+01 1.834310936961594862e+01 1.707013899055383632e+01 1.565920974678790678e+01 1.663088038714089834e+01 1.759973031779571073e+01 1.862400892575793776e+01 1.971048336160046333e+01 2.086364950899957904e+01 2.208465964167655216e+01 2.336194311769904175e+01 2.466071003929448224e+01 2.589505554170389345e+01 2.689651423152196585e+01 2.734402511227728638e+01 2.711375890282242906e+01 2.638300170188923133e+01 2.543075894869943809e+01 2.443248069942807277e+01 2.350792039353983753e+01 2.257854576714441563e+01 2.157963847198448804e+01 2.037629508502894993e+01 1.907289232683297442e+01 1.770160362470408799e+01 1.627863029701733311e+01 1.736716919266244830e+01 1.824916583318238139e+01 1.857292817158989351e+01 1.990770210353014846e+01 2.119121690039112593e+01 2.242848048193034316e+01 2.361565228147923179e+01 2.470470391948212097e+01 2.573535062686183039e+01
1.960840527558449509e+01 2.066638329261790119e+01 2.160988663380781105e+01 2.245445447242184756e+01 2.319930791846761409e+01 2.377247802638499508e+01 2.395737039085232922e+01 2.371061829766270179e+01 2.286889000696597662e+01 2.172243751469853024e+01 2.043725016558190433e+01 1.910895555920320632e+01 1.775717489074563815e+01 1.891565595246602882e+01 1.981524442366061578e+01 2.067415613213755066e+01 2.150241409852393559e+01 2.230285181698310026e+01 2.321505668835083469e+01 2.422227043728607043e+01 2.508507226792799116e+01 2.644269822815759241e+01 2.778325405045321972e+01 2.911042790749906573e+01 3.038943126656012339e+01 3.155533531523956370e+01 3.250905094593161238e+01 3.311536685298444382e+01 3.329618858861127961e+01 3.302118151872490159e+01 3.252005210565743454e+01 3.183849356871080616e+01 3.111854728458822805e+01 3.034128195476197121e+01 2.959232222444181204e+01 2.883593251699554116e+01 2.812919053145077442e+01 2.744852397512453024e+01 2.686890896471792800e+01 2.666993070274857658e+01 2.606084889290789874e+01 2.656250610128441281e+01 2.631749723963747556e+01 2.747239168996920711e+01 2.863372332862603287e+01 2.983047757358175645e+01 3.106260732002032654e+01 3.232170726888439560e+01 3.357819104025043089e+01 3.476369329391832963e+01 3.574102038871222220e+01 3.625734520521131543e+01 3.596078912651892523e+01 3.499954584092776599e+01 3.376278922018908446e+01 3.250505735213128844e+01 3.126636331866033913e+01 3.007329328600044249e+01 2.893154501924000499e+01 2.782298063057865534e+01 2.682678532991705467e+01 2.589180781867237258e+01 2.500161634484760498e+01 2.411416105278517819e+01 2.408329905988957265e+01 2.343835900123148619e+01 2.253221927662518453e+01 2.169364363720996636e+01 2.197292234901103569e+01 2.180140630544588376e+01 2.113044242456326671e+01 2.038408629156166896e+01 1.952151950244686063e+01 1.867876024173330762e+01 1.790785949978590708e+01 1.717112447145949972e+01 1.637112438972975781e+01 1.533764889508167073e+01 1.649853490531270594e+01 1.738345028371885448e+01 1.823678642586645893e+01 1.900074340567496023e+01 1.950238740650098634e+01 1.944027265464473686e+01 1.879792190565502707e+01 1.783701649891560947e+01 1.674390919174342329e+01 1.528785782037847696e+01 1.637455160329361092e+01 1.746582825340072631e+01 1.860282921718149396e+01 1.978352347528806376e+01 2.100440082059770575e+01 2.225736245627898313e+01 2.352144799433875022e+01 2.475099027222011472e+01 2.584648065300912378e+01 2.663747616517264660e+01 2.681743275693200701e+01 2.635800686141358184e+01 2.557651955611373751e+01 2.458101361401879359e+01 2.354251006007087099e+01 2.255127506657581549e+01 2.166934158055133963e+01 2.080701535090543075e+01 1.991503031918369260e+01 1.879673816074999593e+01 1.745953490114731110e+01 1.596755102318805264e+01 1.692655006235280979e+01 1.736698208578790315e+01 1.864584177917452479e+01 1.986272282115769983e+01 2.102274162401509017e+01 2.206034464580566734e+01 2.298580069684224014e+01 2.391102581979087915e+01 2.479143299481269125e+01
1.885016267034793103e+01 1.981932258960735638e+01 2.068283047082509540e+01 2.134217898488018506e+01 2.204834570002967453e+01 2.263068320560930502e+01 2.314076536634197723e+01 2.319344123814672542e+01 2.268040571905094183e+01 2.168403034585569245e+01 2.043975230912932872e+01 1.905160838246153787e+01 1.748353646588754984e+01 1.822461918616177101e+01 1.905520131514268201e+01 1.985714971645313653e+01 2.063170720221623355e+01 2.118342268889680113e+01 2.222059230002512820e+01 2.336324889619741541e+01 2.485456753577453171e+01 2.629803337420495879e+01 2.771169606789527506e+01 2.907374007318255593e+01 3.033187943308450230e+01 3.139664669256952934e+01 3.212142749025375821e+01 3.254076679836413888e+01 3.255751022810013495e+01 3.211727524918242693e+01 3.144813257916262828e+01 3.071903913637059702e+01 2.992787510899387371e+01 2.916888901658278144e+01 2.840662582102807221e+01 2.769669601422849325e+01 2.700117747581993299e+01 2.635639993774535839e+01 2.572712972306679191e+01 2.586028674210091438e+01 2.540403261663301393e+01 2.576521595619356120e+01 2.654619573870000693e+01 2.741424648146475107e+01 2.866840828805762342e+01 2.988486323822514024e+01 3.112054717615260557e+01 3.238515781200000987e+01 3.365454322151542499e+01 3.486399150484886889e+01 3.588014087711805189e+01 3.647346162953866155e+01 3.631369277664690287e+01 3.554401064427604240e+01 3.454917449671454932e+01 3.345912837541669660e+01 3.234173763882159136e+01 3.122608119567495777e+01 3.010762462168920450e+01 2.910561917854607117e+01 2.817131134314047358e+01 2.727734364488988916e+01 2.639015820465957418e+01 2.559475829172321326e+01 2.536512074782821458e+01 2.454428590606123350e+01 2.374545694535017404e+01 2.294738655394428406e+01 2.308772854698046828e+01 2.262524777137090481e+01 2.171257784266811086e+01 2.059954205000625294e+01 1.951298688773977119e+01 1.849539684026982300e+01 1.755207138974190073e+01 1.667379028290205056e+01 1.585906149387056452e+01 1.509259515330637491e+01 1.578624195349273585e+01 1.654282794016639357e+01 1.735422510954153807e+01 1.811617179839844027e+01 1.864819305640599367e+01 1.864581094506510439e+01 1.808121973278043626e+01 1.720934932033733133e+01 1.615371697468331647e+01 1.491994747017418810e+01 1.612950473250965899e+01 1.734641176170839927e+01 1.859465264038991705e+01 1.986123383738630466e+01 2.113412957635422273e+01 2.239975849841339084e+01 2.362685963409478518e+01 2.476819605248769918e+01 2.568974187730982095e+01 2.624910935488179931e+01 2.621427268247473208e+01 2.558307652456393555e+01 2.465849613510551919e+01 2.365457345337252448e+01 2.259571046931153404e+01 2.158091717473932647e+01 2.065111724962726214e+01 1.983331460609129238e+01 1.903040275839233075e+01 1.817117297448253410e+01 1.709439475315192070e+01 1.567021885245715751e+01 1.630013821967280307e+01 1.744140622090790060e+01 1.852463671540834156e+01 1.949406434698989443e+01 2.034558615338140797e+01 2.116207040338692735e+01 2.199873855564568714e+01 2.281984360819089730e+01 2.369104526822805568e+01
1.810867410617746742e+01 1.901777669113305791e+01 1.975686114675026417e+01 2.000448279500156445e+01 2.072474707331537758e+01 2.153185136016200119e+01 2.214339542249607717e+01 2.250020944245514798e+01 2.231853465419029803e+01 2.156369881950422851e+01 2.048883502000172285e+01 1.928802158347740203e+01 1.818219130691685947e+01 1.707725042129531445e+01 1.821695992145247089e+01 1.878063815340727061e+01 1.969987721272836012e+01 2.100956394044637676e+01 2.226942363616629095e+01 2.355924505880665620e+01 2.493265078415524627e+01 2.633218825507657712e+01 2.770924966777336707e+01 2.900538873161872999e+01 3.013124570817132764e+01 3.092287353111127146e+01 3.149473975210745991e+01 3.167332113540989624e+01 3.162932386398059137e+01 3.111061536369166802e+01 3.035896104462976197e+01 2.953584103349556145e+01 2.874624710910030956e+01 2.796024728460760400e+01 2.723514558768683003e+01 2.653000039527925225e+01 2.588157588368125417e+01 2.525486620992637654e+01 2.459206423504551964e+01 2.493740972397898759e+01 2.603296840206205687e+01 2.683647288383686558e+01 2.758572546573072515e+01 2.851948091157543175e+01 2.893951932621162726e+01 3.004423306636093116e+01 3.122592857234645436e+01 3.248398478749398777e+01 3.376492266147327825e+01 3.500095041367845994e+01 3.603298297697432417e+01 3.665471668859594701e+01 3.657053378220465589e+01 3.598430948249736616e+01 3.515055373520310411e+01 3.420123256085489061e+01 3.319757495622337018e+01 3.213845943731335808e+01 3.118399258417573350e+01 3.030054077861095863e+01 2.945071331598687081e+01 2.858663128632472095e+01 2.781570727329131287e+01 2.712083388415143403e+01 2.652468637612907187e+01 2.579711307862172021e+01 2.504147427436142692e+01 2.427869560285702732e+01 2.414342516572325081e+01 2.337083792931430182e+01 2.241010228793543746e+01 2.137964374550818647e+01 2.035027306254023216e+01 1.935060017282206957e+01 1.843082026723212152e+01 1.757047511806423046e+01 1.682575565875322710e+01 1.591543185819851658e+01 1.471663919964600176e+01 1.554045408379734106e+01 1.633485377750188761e+01 1.711083233535347148e+01 1.768033197102310083e+01 1.773279959239332015e+01 1.725380005091148305e+01 1.647051976917461857e+01 1.559509600258551032e+01 1.456133640696125298e+01 1.592858557301890698e+01 1.727646424187972229e+01 1.860965766020636636e+01 1.990927358642431244e+01 2.115721919237326887e+01 2.235323566566146525e+01 2.343631251248869773e+01 2.437851866668530576e+01 2.519986719135322062e+01 2.570017083845562311e+01 2.553491988927564194e+01 2.477965789018936604e+01 2.375350876543528145e+01 2.265361071554012540e+01 2.160381803945841384e+01 2.058419017997122680e+01 1.964717631787357632e+01 1.880454848297899773e+01 1.806138579075171435e+01 1.732267356546918080e+01 1.649341085032267884e+01 1.538811164199500858e+01 1.629921633638356226e+01 1.712449387825838798e+01 1.786968682642467243e+01 1.858989715510630703e+01 1.930973869749181304e+01 2.007214113910239561e+01 2.084347553299902245e+01 2.167771679209756286e+01 2.253638140555661096e+01
1.742671590992890884e+01 1.827803526398209044e+01 1.861499687338198683e+01 1.860816549680379595e+01 1.948830987801753167e+01 2.032519871550772095e+01 2.111507106051906035e+01 2.167848239653265097e+01 2.179157394881917398e+01 2.135744546597991445e+01 2.045282350560054141e+01 1.931652294412018378e+01 1.809812247133748642e+01 1.682012466355961067e+01 1.756397653938461900e+01 1.872785305282648949e+01 1.987788074075761813e+01 2.111011108791636559e+01 2.238930452039334185e+01 2.370437510737309594e+01 2.504697401773833931e+01 2.638311471423687848e+01 2.765346627921261558e+01 2.878662349865417980e+01 2.961055724830411506e+01 3.029609627841911745e+01 3.056259684372937713e+01 3.060149941261163420e+01 3.055297696644117522e+01 3.003290539216628829e+01 2.924423920664175114e+01 2.838043178879186712e+01 2.753948426373676739e+01 2.677675281632088655e+01 2.604706970548240008e+01 2.538348289207475617e+01 2.474797565802881039e+01 2.408671372441438407e+01 2.514958468608234554e+01 2.596700491839232683e+01 2.680608447133801775e+01 2.770395778638206252e+01 2.857782643939307832e+01 2.944137512544986990e+01 3.027083111499188206e+01 3.119005586329295454e+01 3.229318283361912734e+01 3.341894395886824753e+01 3.457591048948562218e+01 3.558831224055610676e+01 3.640313273697036323e+01 3.675899716969495756e+01 3.656367270332543029e+01 3.598998731589993127e+01 3.523213996772795298e+01 3.439611740468686918e+01 3.353254745646551527e+01 3.269706890823078993e+01 3.192848915872029636e+01 3.122399219732055897e+01 3.048409313806621412e+01 2.980628944041458439e+01 2.914110919048173542e+01 2.845279594218111896e+01 2.779855215607443597e+01 2.708969023024917888e+01 2.633200122544784350e+01 2.565422068083798024e+01 2.507986542561229015e+01 2.422313658152755167e+01 2.326046253275258735e+01 2.224048384576862603e+01 2.119905718413078333e+01 2.021676920555002965e+01 1.929192002401023842e+01 1.851795071648365720e+01 1.762326878160718735e+01 1.666730941962445200e+01 1.550373170117981125e+01 1.429482066731058332e+01 1.520597517805486198e+01 1.600150752593982517e+01 1.661247150223269742e+01 1.669006440187358464e+01 1.634344167725346608e+01 1.555446157623972958e+01 1.480293641706211361e+01 1.418967725424968762e+01 1.583398051621384717e+01 1.727486700074402037e+01 1.859777305631989108e+01 1.980562680819979349e+01 2.085543433928687307e+01 2.179640938836066866e+01 2.272422978878284638e+01 2.370315144376911221e+01 2.460117266218816923e+01 2.507183336770770055e+01 2.480644897103316282e+01 2.395622171019928359e+01 2.284961246358034259e+01 2.168109590291973632e+01 2.056254588623729163e+01 1.955944874900528063e+01 1.862902951060337742e+01 1.779374874662966377e+01 1.704971393500682453e+01 1.639320970587788651e+01 1.576756682735264370e+01 1.512096872256667979e+01 1.563752297626689014e+01 1.619190121047534348e+01 1.679509413557565267e+01 1.744176000852173303e+01 1.813286493832459456e+01 1.887143742373526933e+01 1.966628420226305707e+01 2.052904835698760877e+01 2.148832341733621121e+01
1.680215886877631704e+01 1.734328927266732379e+01 1.742297391025772413e+01 1.727255658795909810e+01 1.820437956674110325e+01 1.915557582168613138e+01 2.003650410253007763e+01 2.069637717955825451e+01 2.108214732816268366e+01 2.093256729732659949e+01 2.026359174406660912e+01 1.921011688354131763e+01 1.795761736662668540e+01 1.658441078259888712e+01 1.766514853704629218e+01 1.880399917918938968e+01 2.000409694910381830e+01 2.125531889945377628e+01 2.254068046579484985e+01 2.383938700247441034e+01 2.511758079916859643e+01 2.633686122696011012e+01 2.739626062486468072e+01 2.820619985378678862e+01 2.901901228513197495e+01 2.937065192488757503e+01 2.944684152607576522e+01 2.939345579098303318e+01 2.933035607107061793e+01 2.894314389190822112e+01 2.811527710677037462e+01 2.722840229556738478e+01 2.637008504589261548e+01 2.558351683145163591e+01 2.488712222747311031e+01 2.423213814061942983e+01 2.355205963528777602e+01 2.470133596521394992e+01 2.573984518727717941e+01 2.672210004868555799e+01 2.764317194979409109e+01 2.858501675741227999e+01 2.951135435729899470e+01 3.045086175812577522e+01 3.136050460537183682e+01 3.232229586686591460e+01 3.330958066923276562e+01 3.435196168684609574e+01 3.529539025453310330e+01 3.611249152420356268e+01 3.658051145687388583e+01 3.659801412596080183e+01 3.618767933540323867e+01 3.547139431358201733e+01 3.468338355876235113e+01 3.388512254833152326e+01 3.313435310366541131e+01 3.250649779897967306e+01 3.195458814909260781e+01 3.157403707425209660e+01 3.118426340831222277e+01 3.074605521250497020e+01 3.019033480408141656e+01 2.962623145757239129e+01 2.900585336108167311e+01 2.829048824464344492e+01 2.759105099093888924e+01 2.688107794681229379e+01 2.607690721943156476e+01 2.517618105614537427e+01 2.418273763775652796e+01 2.311616469523064410e+01 2.206783924072644254e+01 2.103472419501481383e+01 2.014290361998573431e+01 1.913060621492791569e+01 1.809456745469013228e+01 1.702938631976597250e+01 1.602400330626362290e+01 1.499559285755311322e+01 1.387101347521967121e+01 1.481407170182890809e+01 1.548291562677117028e+01 1.561459570382672979e+01 1.527585416771727012e+01 1.446100964096797803e+01 1.360499532411377466e+01 1.493629894875060948e+01 1.610395839758981751e+01 1.729709477331515544e+01 1.837448007385055959e+01 1.924351774401202775e+01 1.998917869240107947e+01 2.086357883742629582e+01 2.179554017967758739e+01 2.300412801598806567e+01 2.402202681412120455e+01 2.442209369204859470e+01 2.405033018271850054e+01 2.312251988318069706e+01 2.194916660999879099e+01 2.072208872365000332e+01 1.955225737493858418e+01 1.849786963004936524e+01 1.758759112421987680e+01 1.676748680928033508e+01 1.604036164962468547e+01 1.540132540426535002e+01 1.473948526831660466e+01 1.590031899621232903e+01 1.668458506398667751e+01 1.734047246172066181e+01 1.796214493201143014e+01 1.861717524547320579e+01 1.930719289766134139e+01 2.003811257158951520e+01 2.081727506656655891e+01 2.165574314019267632e+01 2.257173673323632812e+01
1.600013254856786560e+01 1.624026667577758687e+01 1.620739693046253294e+01 1.600505992806970568e+01 1.701064991893800382e+01 1.800382484058892985e+01 1.889476248140680070e+01 1.969295533435491663e+01 2.024237128438511490e+01 2.030115231038789503e+01 1.982396414648651373e+01 1.897296034452915947e+01 1.776169296101852169e+01 1.633876138310438719e+01 1.757714501150927688e+01 1.881061048995113794e+01 2.006686576187973259e+01 2.132629881433096131e+01 2.257530928783733870e+01 2.379252295447388477e+01 2.489791972461610214e+01 2.585404022899783882e+01 2.668481246353395164e+01 2.760261635730471141e+01 2.818449595411401631e+01 2.828956983659389124e+01 2.823196542822228849e+01 2.811516692092671477e+01 2.804072758504433693e+01 2.776860760760736113e+01 2.699554750895042687e+01 2.607344798062565872e+01 2.520655848778983099e+01 2.442223850673930841e+01 2.372627403035020421e+01 2.302020547114893745e+01 2.419587053806222343e+01 2.528816015468671097e+01 2.638052305437246758e+01 2.742921188665485488e+01 2.845693416103965490e+01 2.944611398337813668e+01 3.044659857074367082e+01 3.141306325282601719e+01 3.239133433768411408e+01 3.332714995811492287e+01 3.428024064093048651e+01 3.514156278131046918e+01 3.590599859505338287e+01 3.637390426823963452e+01 3.645632669342086274e+01 3.613262196985283481e+01 3.546792593403240090e+01 3.466952085906854109e+01 3.377150482817685884e+01 3.293251266308048741e+01 3.217249882273735295e+01 3.153352233328395116e+01 3.107635918661560837e+01 3.116616898007774594e+01 3.123368146726862449e+01 3.116606732562732418e+01 3.092058689594832543e+01 3.052943387385484897e+01 2.997218877305882145e+01 2.937606079642882762e+01 2.871234119721207634e+01 2.793557001842315302e+01 2.710187490946974620e+01 2.615979539682604837e+01 2.509893839523600079e+01 2.401532611633609449e+01 2.287821721625605065e+01 2.169379314230064537e+01 2.036235153979605883e+01 1.910003648568996226e+01 1.792721140453610218e+01 1.686289313956324065e+01 1.590639139851604078e+01 1.505001033942836308e+01 1.450773388915925821e+01 1.346084012672110042e+01 1.432231319882775722e+01 1.461801897642304304e+01 1.416858375737224129e+01 1.302517447309665499e+01 1.404992087894352260e+01 1.513413226048785098e+01 1.616486720548827805e+01 1.704657681993138851e+01 1.768013728272561025e+01 1.833133421507594818e+01 1.872029578276184125e+01 1.993337506768715883e+01 2.138896481280600170e+01 2.265163343431609633e+01 2.358533037568615853e+01 2.381255694969132364e+01 2.325738465732649374e+01 2.228729669725118612e+01 2.105663979152490484e+01 1.977654165019417576e+01 1.855883023259790576e+01 1.746137113678994979e+01 1.651327914549055365e+01 1.571459295010000723e+01 1.501436784746813125e+01 1.429704749815241804e+01 1.563773049714860974e+01 1.674013080295877387e+01 1.763429521741666051e+01 1.839231350511438734e+01 1.910316293803083809e+01 1.977421154038875883e+01 2.047781199421370601e+01 2.121298993636288799e+01 2.198730214450846177e+01 2.281020696570457318e+01 2.369495459243709945e+01
1.489755987719679098e+01 1.503752870079213899e+01 1.500181303696152035e+01 1.483709090421371357e+01 1.588241101137985645e+01 1.685288706794832336e+01 1.779148058678068622e+01 1.863856430064686975e+01 1.927388407493940292e+01 1.948911765852042777e+01 1.926940350515263134e+01 1.849379935872691050e+01 1.748256403459795649e+01 1.608871377654819312e+01 1.745646869460816930e+01 1.875022334558595816e+01 2.000963876873712266e+01 2.118043197943729083e+01 2.227536972890238332e+01 2.325542696676713206e+01 2.418012713412285564e+01 2.503870896907904253e+01 2.605486728707496979e+01 2.686790337912827908e+01 2.716511224478673370e+01 2.711915652214416284e+01 2.697828124606104438e+01 2.681823566230969291e+01 2.672441090118304174e+01 2.653024456837443168e+01 2.580807112337242515e+01 2.492010320789611555e+01 2.403228813559548627e+01 2.326102993049113365e+01 2.249540337786335797e+01 2.368170196849919051e+01 2.479239368067516125e+01 2.592534926786272820e+01 2.704276483507887363e+01 2.816207177863822864e+01 2.923875090898201279e+01 3.031048572379484085e+01 3.133557927643867203e+01 3.235982983990285788e+01 3.331677798178915140e+01 3.425149102759159803e+01 3.506591681844560782e+01 3.577531809052793932e+01 3.620850996566748137e+01 3.629308115987348060e+01 3.600050926285983621e+01 3.536992158466461689e+01 3.458113324321598725e+01 3.364640087551342162e+01 3.271563261314458515e+01 3.177934405018263320e+01 3.095296799516223274e+01 3.024203889890641506e+01 2.967916664663249549e+01 3.011771141238200755e+01 3.066232837698014890e+01 3.097909085245644434e+01 3.108879910856255790e+01 3.094763054741874342e+01 3.062554166016780854e+01 3.018638107131522830e+01 2.958012188586378599e+01 2.889426256491262279e+01 2.807433458616663202e+01 2.708485089139932001e+01 2.603226450912213252e+01 2.488251543658549281e+01 2.370652141417772896e+01 2.245157279541960804e+01 2.120732622386462296e+01 1.999181068259624894e+01 1.887989391920819671e+01 1.784560998252398534e+01 1.692719842524922313e+01 1.610757572996830689e+01 1.525809413134943071e+01 1.426352137909170636e+01 1.305485840767257422e+01 1.365978514902140262e+01 1.355053808783502589e+01 1.266859406672666388e+01 1.393522338080023104e+01 1.493996302665085274e+01 1.571357913795598016e+01 1.632214939091202766e+01 1.663378260216676452e+01 1.698536466540651801e+01 1.837231182708144672e+01 1.971720231276513502e+01 2.106910732585449963e+01 2.228856194692920667e+01 2.315369402179919334e+01 2.326771677273475802e+01 2.257806093712821038e+01 2.144927362373588409e+01 2.018078046802646952e+01 1.884660268612380563e+01 1.758359723525834895e+01 1.644172852340827262e+01 1.544662249566529155e+01 1.464065429673829399e+01 1.385399606578655174e+01 1.515081264082480139e+01 1.634233922938505756e+01 1.746728879520111377e+01 1.848739870532469354e+01 1.935252501614752418e+01 2.014060248433520783e+01 2.090774563873873859e+01 2.163033934594736252e+01 2.238463307833178462e+01 2.316649931074110214e+01 2.398448176015496003e+01 2.484844663610800453e+01
1.366823856945898719e+01 1.379129146844585563e+01 1.382609059600293477e+01 1.377796880593552231e+01 1.481680073712952961e+01 1.576921220668138623e+01 1.666948836162347192e+01 1.751198589038585496e+01 1.813762227184727749e+01 1.862007568813011815e+01 1.856603969844233859e+01 1.799306111430620803e+01 1.698033972996512375e+01 1.584373858323534456e+01 1.719898695103681874e+01 1.838235776311169900e+01 1.945126980198921984e+01 2.050468616462126192e+01 2.146746429353109420e+01 2.239207248779726100e+01 2.328786076070993261e+01 2.438577821072896867e+01 2.536848774634368908e+01 2.597990227952694298e+01 2.606142254921473622e+01 2.591595949886854555e+01 2.572838119971932258e+01 2.553832335816439780e+01 2.540507518123397190e+01 2.525089904552825004e+01 2.455611999226039543e+01 2.369435656233408238e+01 2.284057796250317196e+01 2.197557111846073141e+01 2.316550915138110156e+01 2.428364820623452047e+01 2.543414562704727899e+01 2.658322052405685909e+01 2.775304930955739025e+01 2.889658005576482580e+01 3.004242866601700612e+01 3.113577790308996285e+01 3.221743566895772659e+01 3.321741078646789447e+01 3.417467285732733018e+01 3.498596356831703957e+01 3.566766272108598912e+01 3.606701988204595466e+01 3.613127275598886001e+01 3.584683771669586605e+01 3.524095719225933721e+01 3.447287418156804506e+01 3.353741441418645763e+01 3.257210268196433844e+01 3.155745602823010643e+01 3.059958672476799890e+01 2.967412263127672389e+01 2.886593518732023256e+01 2.813982307184151210e+01 2.898693399393335923e+01 2.970429411686385990e+01 3.028803323265800529e+01 3.069618071736898912e+01 3.077480056833581656e+01 3.068457266070502953e+01 3.050384292594987201e+01 3.016297461366984223e+01 2.964217642123129792e+01 2.887438474951758138e+01 2.797235606114788808e+01 2.690436066926936576e+01 2.578095947608084160e+01 2.456375463541945692e+01 2.334711453963803152e+01 2.211595556171517885e+01 2.096398296514268011e+01 1.986723042671796691e+01 1.887913877194553081e+01 1.796364546335344414e+01 1.707793507848890258e+01 1.611312597244269185e+01 1.506093392928672436e+01 1.395275552335481706e+01 1.266408985649984409e+01 1.293372584528905911e+01 1.236408231393266277e+01 1.347451194260133356e+01 1.430023019271736118e+01 1.494580046781710436e+01 1.524003053931981988e+01 1.537240861608409226e+01 1.671084803143999409e+01 1.805342488784995325e+01 1.941430063662594563e+01 2.074902614827315261e+01 2.193996684795089180e+01 2.276009629855777305e+01 2.281162179852553251e+01 2.202950650854079484e+01 2.074136629367294304e+01 1.931464679267024920e+01 1.791929260623913933e+01 1.661367506691376406e+01 1.543474588221764954e+01 1.439129954662767119e+01 1.344251017287468564e+01 1.445415757674995128e+01 1.543225072480817595e+01 1.655226777548688233e+01 1.771270412062222377e+01 1.887021224530975161e+01 1.998691688614730921e+01 2.098300158061377374e+01 2.185527249448839626e+01 2.270085414552665171e+01 2.347924432951255369e+01 2.428270047440640766e+01 2.510739228902165365e+01 2.596131828703676447e+01
1.234168234576202750e+01 1.249564154048172959e+01 1.264686561268269216e+01 1.279832408224883622e+01 1.390983772134452678e+01 1.462189572767481316e+01 1.550051341671353278e+01 1.628857130299523703e+01 1.707688622097851550e+01 1.763528215811639299e+01 1.768753614113685302e+01 1.745408872634054731e+01 1.677231293376685883e+01 1.560499671889764173e+01 1.651842760233357765e+01 1.752351260233201202e+01 1.859696487269654241e+01 1.958381111055754076e+01 2.053401721576810601e+01 2.146961439110640057e+01 2.262861776904110300e+01 2.374506463862375938e+01 2.463055073513974591e+01 2.496027067975474978e+01 2.490970702081243004e+01 2.471365800979641847e+01 2.450952815276504637e+01 2.430287229107797131e+01 2.409765579636207278e+01 2.394518605162769731e+01 2.325083282589978140e+01 2.239923916654193192e+01 2.145642614168819762e+01 2.263819503067904648e+01 2.376340956908384072e+01 2.492364906844920824e+01 2.609032638421495776e+01 2.728807422131798788e+01 2.847216588029949236e+01 2.967145476546956573e+01 3.082549857501041757e+01 3.196822414249001554e+01 3.302139950821282355e+01 3.401900873257326907e+01 3.485229528347031902e+01 3.553292298651946624e+01 3.591197917184554456e+01 3.594923191347445623e+01 3.566020534523747898e+01 3.507531724742749191e+01 3.434138913989119146e+01 3.343561633392736354e+01 3.247841463184794009e+01 3.144275959606040871e+01 3.042913669620244832e+01 2.940936935078610404e+01 2.846067390199620561e+01 2.755497447135053690e+01 2.672732919569173760e+01 2.772748117266413104e+01 2.862332058926077494e+01 2.943004968382548725e+01 2.993859528830732586e+01 3.003140269016259722e+01 3.005704035716408384e+01 3.020611070322757286e+01 3.022204790202287583e+01 2.999879738306628241e+01 2.949425982557509229e+01 2.869904260310655175e+01 2.775451933623660139e+01 2.664292117094370838e+01 2.549103930862331779e+01 2.427680817270020341e+01 2.311047679410800271e+01 2.196868113473631468e+01 2.092685587511961032e+01 1.995283578355635612e+01 1.902866917934738211e+01 1.805770292899816454e+01 1.703182078613279060e+01 1.595118563206286844e+01 1.482175807683653090e+01 1.366270863166253768e+01 1.229812764413832049e+01 1.207053922495045306e+01 1.281108361970360576e+01 1.354411104490742446e+01 1.386591000010446351e+01 1.392461926038702558e+01 1.517042243725787287e+01 1.643709761553707693e+01 1.775927337678265872e+01 1.911125193850795512e+01 2.043475591832881832e+01 2.160925262406398417e+01 2.240825941720678927e+01 2.245281131260492558e+01 2.168603094662853437e+01 2.054660357095799128e+01 1.925022945670993835e+01 1.793063682556691418e+01 1.665329009892446166e+01 1.544498507312214386e+01 1.430955684295206964e+01 1.319665781513446667e+01 1.428158165183368311e+01 1.536235801193358697e+01 1.649254677500474742e+01 1.766949426674299772e+01 1.887925200183893892e+01 2.009809301794380687e+01 2.129110280434995062e+01 2.243446225594128052e+01 2.346070330751831534e+01 2.439057139183951861e+01 2.521569589775186415e+01 2.605832315243321062e+01 2.691126783753596996e+01
1.361227533740463436e+01 1.369731750538815440e+01 1.377011368682684278e+01 1.380954208605756683e+01 1.303429560498377171e+01 1.320541753547333919e+01 1.438187351372596012e+01 1.510944386811153173e+01 1.594238049216839315e+01 1.655558407681510147e+01 1.665166646115860516e+01 1.663430391649326268e+01 1.641117526586111808e+01 1.589890864789185621e+01 1.525845695849575989e+01 1.661960639832936337e+01 1.767837468689281621e+01 1.865940099953379416e+01 1.963220250754103802e+01 2.082076962461350789e+01 2.203475865778209908e+01 2.311313028295750982e+01 2.378394869856697014e+01 2.388070495130646620e+01 2.374242860351647266e+01 2.353260402504514559e+01 2.333763495711262337e+01 2.313669643538715093e+01 2.280851998018881588e+01 2.262389663687658370e+01 2.190307413460072539e+01 2.093738963177968060e+01 2.211953736881324417e+01 2.324343901345190844e+01 2.438559395467698820e+01 2.556891378501465439e+01 2.678637100496536405e+01 2.799817782045623105e+01 2.923436471301603845e+01 3.043446239204430626e+01 3.163016939949999440e+01 3.273704335851933678e+01 3.378329134861402139e+01 3.465258008879448681e+01 3.535043397619246264e+01 3.572347249062377728e+01 3.573330997220284644e+01 3.542343081528253634e+01 3.484024340481337134e+01 3.414078793730284644e+01 3.329172050283905548e+01 3.238631160018220356e+01 3.138005232200847416e+01 3.036428258558791171e+01 2.931231686991073104e+01 2.830040690825747518e+01 2.730075054270733048e+01 2.637036840986818476e+01 2.545648343920588275e+01 2.655056671346913078e+01 2.761006801548979084e+01 2.854072396093030761e+01 2.893815129347601456e+01 2.895856383303673098e+01 2.894757264440622535e+01 2.935778200236959989e+01 2.974153667682295676e+01 2.990479783990642559e+01 2.975961134095642180e+01 2.926972187330194330e+01 2.846101913796035277e+01 2.749895380982538029e+01 2.638286645799135854e+01 2.525586173458270522e+01 2.410223485621903095e+01 2.302829823852935220e+01 2.201194814442740721e+01 2.105341932483185374e+01 2.005693805113042671e+01 1.902746126600663601e+01 1.796270611460300515e+01 1.686792388197024550e+01 1.575596603009773666e+01 1.465019501839114824e+01 1.366570802945300578e+01 1.290273159179728779e+01 1.179392956016364025e+01 1.255264421294149280e+01 1.262440219806778074e+01 1.375215036593180784e+01 1.492290134422340309e+01 1.614853573405593323e+01 1.745601731534614132e+01 1.880524314887760085e+01 2.012645280872050790e+01 2.129295049290114861e+01 2.207784057468844452e+01 2.216031826378252845e+01 2.155601476676592299e+01 2.052319662747952123e+01 1.929754727043613727e+01 1.799846343024401563e+01 1.669688272199529777e+01 1.542302154125203195e+01 1.418894968815222768e+01 1.296483308268660473e+01 1.407361795345396160e+01 1.518741300321808296e+01 1.631538177600559791e+01 1.749327010445954400e+01 1.871993735192694075e+01 1.998018660726028273e+01 2.124852188337692027e+01 2.249249251064056665e+01 2.367118974053753888e+01 2.476107569508727124e+01 2.575598547804518290e+01 2.663910689358470663e+01 2.749414592938557078e+01
1.488404877770172696e+01 1.490759544303003636e+01 1.491174866460189818e+01 1.489435106913658657e+01 1.420784738515177992e+01 1.424947649826395413e+01 1.345981649811036007e+01 1.364179364383901572e+01 1.484684034976342559e+01 1.539027603577853398e+01 1.549119006795334386e+01 1.559130732447858492e+01 1.561648462987379204e+01 1.550261554022542576e+01 1.501793980087507663e+01 1.585901650552917275e+01 1.678332078097327695e+01 1.781893657432970102e+01 1.898793982755683629e+01 2.025083645401708310e+01 2.150347840133383670e+01 2.246802775007217789e+01 2.283024670248373411e+01 2.275080762439328197e+01 2.257584064031518523e+01 2.238338592629886747e+01 2.221646200647622038e+01 2.219850420865858709e+01 2.152375934003427105e+01 2.129735850768918581e+01 2.042650775875176805e+01 2.160953876664667916e+01 2.273238580568489908e+01 2.386780166248806623e+01 2.504579546605931384e+01 2.624172457564977634e+01 2.747981348915670807e+01 2.874598502002426414e+01 2.998388522852232185e+01 3.122451630317373272e+01 3.238120428344866752e+01 3.347835001684302370e+01 3.439234480739447264e+01 3.512207126847292216e+01 3.550498499550947429e+01 3.549663898878335289e+01 3.515488986450000652e+01 3.454009188070180869e+01 3.383502916522076731e+01 3.302535117178015867e+01 3.220550180916765726e+01 3.129217633241276886e+01 3.033494699335235367e+01 2.930432818062501710e+01 2.827980711831968819e+01 2.724185125129051954e+01 2.624955054610298433e+01 2.527739018916778235e+01 2.433189403978171228e+01 2.552252735138759121e+01 2.668699429925709765e+01 2.757669551310933898e+01 2.786817422972189817e+01 2.774143957526457882e+01 2.760333423125158347e+01 2.826023783720631144e+01 2.885901123779195387e+01 2.938174251928228387e+01 2.962606147715788651e+01 2.951581387480313623e+01 2.902804005543926280e+01 2.821189461801191456e+01 2.725250941107981717e+01 2.616524291010030723e+01 2.510081165747031662e+01 2.406045452842286281e+01 2.306859043390441499e+01 2.202976143681903665e+01 2.096721397725734448e+01 1.988554320058506875e+01 1.878979755662871653e+01 1.768907876277351221e+01 1.659956685925687481e+01 1.555037157079923738e+01 1.457455229925874107e+01 1.363063560607340641e+01 1.262644933811795234e+01 1.148296416915088791e+01 1.237816299535624331e+01 1.344378401240825838e+01 1.463519010933675268e+01 1.576236949355540951e+01 1.711588919470711900e+01 1.849544857956435706e+01 1.983142973811398235e+01 2.099479752627502549e+01 2.171285224744097420e+01 2.178416414665711898e+01 2.119851038218427419e+01 2.033397813103105278e+01 1.923339962280773108e+01 1.798476260382595626e+01 1.669303519052206397e+01 1.538383826205610916e+01 1.406725817675419243e+01 1.272886378375641314e+01 1.397900084169613244e+01 1.517307161388064074e+01 1.619500755384379431e+01 1.738288403317732289e+01 1.864045000690897425e+01 1.993833419961941189e+01 2.124408584418669221e+01 2.251769870016472908e+01 2.371172491173888375e+01 2.478349373218677343e+01 2.572920982245984334e+01 2.656944271398419488e+01 2.739758518541110632e+01
1.617657172011529809e+01 1.615520433959597213e+01 1.610117953162287918e+01 1.604652074484197755e+01 1.538635022550690756e+01 1.528228998267197092e+01 1.501854896160556052e+01 1.482246286090524734e+01 1.389720683179042027e+01 1.406884532826639678e+01 1.422303523433495798e+01 1.437653382983618577e+01 1.452547806805178254e+01 1.472312911138203262e+01 1.564972714894756223e+01 1.646739531919429567e+01 1.733698517938910655e+01 1.822330735475426522e+01 1.922432017265776949e+01 2.021400366817464800e+01 2.108141161647125728e+01 2.174005506462288295e+01 2.183620654103523506e+01 2.157601769392055147e+01 2.142182152596715383e+01 2.127276798453210915e+01 2.109324617472606889e+01 2.116563299066727666e+01 2.067029355574803517e+01 1.993474110015139900e+01 2.111171995569073090e+01 2.223007014827489414e+01 2.336504716712450502e+01 2.453996395830120036e+01 2.572544260550089490e+01 2.695685514680087991e+01 2.819881637967552734e+01 2.947501926696026331e+01 3.075794193007835275e+01 3.196408091040008159e+01 3.311494552950341586e+01 3.408154554754793253e+01 3.485725329287341623e+01 3.526900048977021385e+01 3.526297834314557633e+01 3.489593456237395941e+01 3.423589306651278719e+01 3.348078763596234353e+01 3.263038703242564509e+01 3.182416442518620769e+01 3.102688694295842708e+01 3.023256012559340178e+01 2.930775351463687883e+01 2.832831288893203947e+01 2.729521689804446893e+01 2.627986748644776327e+01 2.526678376474197663e+01 2.430091437095771667e+01 2.332890861459155474e+01 2.461009498364381187e+01 2.575832200685369244e+01 2.661226555849076547e+01 2.681985511682076506e+01 2.650333095839919650e+01 2.618932838861207202e+01 2.698760808594824923e+01 2.781970791119489661e+01 2.853338594158614328e+01 2.912279736190142998e+01 2.939734588251645420e+01 2.928510570422608694e+01 2.877910331974542757e+01 2.794837758763827296e+01 2.699821510607199215e+01 2.597598227085545375e+01 2.495447103318706539e+01 2.384983013495065762e+01 2.271547264976755898e+01 2.157106449940360449e+01 2.042848163456412180e+01 1.929512335251278188e+01 1.817940689686116684e+01 1.709200539927049789e+01 1.604455206639314468e+01 1.503978032120403086e+01 1.405759737435962187e+01 1.307603552408022551e+01 1.211283942906189104e+01 1.118742890260695511e+01 1.246317902296141611e+01 1.376536606880951474e+01 1.524022568193337079e+01 1.667152807167063600e+01 1.807148459099015625e+01 1.939501344237261904e+01 2.052746588189422283e+01 2.127357842599540305e+01 2.132323301935923965e+01 2.068703699181480715e+01 1.972842797239275470e+01 1.872015660835417350e+01 1.766366311007012868e+01 1.650466317185566112e+01 1.527491381713489638e+01 1.393621992482334271e+01 1.249137283155825173e+01 1.351048109885532966e+01 1.460474013017168815e+01 1.596295174292077235e+01 1.730444398920773708e+01 1.865482385273741173e+01 2.000469974070417933e+01 2.132224047606273132e+01 2.255514014669773104e+01 2.363649132129667052e+01 2.448465408569089874e+01 2.511313757628477106e+01 2.584072754666034655e+01 2.663795779567313105e+01
1.745320930358699130e+01 1.741583335980844183e+01 1.730932181814001325e+01 1.712970014604870528e+01 1.674149020621645434e+01 1.656432960597124193e+01 1.642214319047512561e+01 1.602250079146663708e+01 1.506503507396621977e+01 1.521520056193459070e+01 1.532840904085932721e+01 1.543911841099740201e+01 1.551956632231277133e+01 1.481813872880972838e+01 1.567482251210676480e+01 1.634879491995804557e+01 1.718825858513837446e+01 1.800943302394927414e+01 1.880216203682880405e+01 1.960903999606074422e+01 2.039821801729634032e+01 2.089861700784179988e+01 2.087276388988630771e+01 2.032761457043008946e+01 2.029485425162183532e+01 2.022373772779127066e+01 1.996178217357845242e+01 2.008987859355296379e+01 1.947280549441971687e+01 2.064527821045805567e+01 2.173261893935053379e+01 2.287113741795671729e+01 2.404537188001854631e+01 2.523012876171638297e+01 2.645762043467048841e+01 2.768774268842017250e+01 2.895893684170081173e+01 3.021696983717482254e+01 3.147881477315732468e+01 3.269008542970666298e+01 3.372219969503153436e+01 3.456170748997053010e+01 3.502494064256484307e+01 3.504874901153372235e+01 3.467677005925754941e+01 3.398334447942967529e+01 3.317329995595447656e+01 3.224914821070186832e+01 3.135892766937279674e+01 3.048237221661655028e+01 2.974315158271605242e+01 2.917023743889029319e+01 2.836297481639973128e+01 2.740366708559076159e+01 2.640372847183778759e+01 2.537659729919877449e+01 2.437940704061374575e+01 2.339628927823840598e+01 2.242451680930073010e+01 2.372181943796721271e+01 2.485431013426462599e+01 2.566832296491630672e+01 2.585388515339064242e+01 2.537581825860883811e+01 2.475223300586620567e+01 2.574040706983320348e+01 2.666498625620391394e+01 2.757160939982587777e+01 2.833066002808199357e+01 2.893850427608666109e+01 2.919931522796709089e+01 2.903202986640686589e+01 2.845214076792208147e+01 2.758313091292681207e+01 2.651931852446426063e+01 2.530481585435984471e+01 2.404594157015639411e+01 2.278200853076069166e+01 2.153417412145508436e+01 2.031406176227941884e+01 1.912910096598562149e+01 1.798361005475508989e+01 1.688008866809702724e+01 1.581883794620249972e+01 1.479687697158698256e+01 1.380863258160637308e+01 1.285110950725201739e+01 1.192780693180056595e+01 1.100302224103270454e+01 1.233168040768046403e+01 1.365211046309696030e+01 1.505101765557089522e+01 1.641630665788510512e+01 1.775951546415685911e+01 1.902746859276649261e+01 2.006336997606493355e+01 2.081310324272749313e+01 2.082906997167849639e+01 2.011589393427260219e+01 1.905440243027214464e+01 1.790097393844896345e+01 1.683111433301704096e+01 1.578611342412420981e+01 1.470122678969792673e+01 1.359715829805313270e+01 1.225875360828328731e+01 1.344161277956336242e+01 1.465765057551467621e+01 1.598407408313851619e+01 1.735180621089248731e+01 1.872425173141430221e+01 2.006270501484810609e+01 2.130914602301781713e+01 2.238102501016187063e+01 2.314754799450872724e+01 2.369148352572868532e+01 2.397095896352019651e+01 2.471945734685657214e+01 2.553195407010565887e+01
1.865310976148073863e+01 1.865301893896720387e+01 1.854159415895902541e+01 1.836941989127864971e+01 1.807363097049461231e+01 1.789237408864645928e+01 1.778835357335010059e+01 1.719450506668109924e+01 1.626577693734987662e+01 1.637722180394194638e+01 1.644495638730573717e+01 1.651435117782549611e+01 1.656930817165342162e+01 1.600738866428936191e+01 1.513285814423564801e+01 1.536155658393443169e+01 1.648089078893770676e+01 1.716779506118749765e+01 1.794742298402892189e+01 1.880791880022855977e+01 1.959793695498861510e+01 1.992333831543539091e+01 1.979870831636056394e+01 1.913178581455696659e+01 1.922115596949855387e+01 1.935631784296044700e+01 1.877051951508385130e+01 1.904227428155757806e+01 2.023113518806550815e+01 2.130187864917165541e+01 2.241813409432503690e+01 2.355274660454665181e+01 2.474321518774111084e+01 2.597176482804578868e+01 2.720282983899221918e+01 2.847228964929060169e+01 2.972100743714158710e+01 3.098522672853619042e+01 3.217894849118464151e+01 3.329562586524205869e+01 3.422652373686680249e+01 3.477297568564164720e+01 3.485995525558880814e+01 3.450942427763048670e+01 3.380490056266287269e+01 3.295680031355799144e+01 3.197179107122288144e+01 3.099862147635385412e+01 3.001051879972898107e+01 2.911507079751043392e+01 2.828166059185011960e+01 2.818966561794428571e+01 2.748832437928941985e+01 2.658267848292313928e+01 2.557414980382634084e+01 2.456259039964642810e+01 2.355083586149853048e+01 2.257822489059715920e+01 2.159634094640969693e+01 2.288211343497681938e+01 2.397810839660347426e+01 2.473677561011476200e+01 2.485496344436417004e+01 2.432515304495957764e+01 2.347581411231382376e+01 2.451825797938358420e+01 2.554315781210797454e+01 2.650366446069362070e+01 2.743860420135614575e+01 2.821292014503571721e+01 2.879712025224694827e+01 2.896212534156557794e+01 2.858591456825654475e+01 2.772263250514417621e+01 2.658975333478493397e+01 2.531820401056273084e+01 2.399873080785858548e+01 2.268103321926087546e+01 2.139094318219585844e+01 2.014111882536585085e+01 1.893723510592304393e+01 1.778105749374989131e+01 1.667208025584467634e+01 1.560828865519049380e+01 1.458668145773084213e+01 1.360405955536283784e+01 1.265797531530715858e+01 1.174714172944996626e+01 1.083334672023394241e+01 1.192352768550809650e+01 1.307269888223292398e+01 1.430140600578326726e+01 1.561380301881614230e+01 1.697027000407134878e+01 1.830958320870809786e+01 1.954439078098142701e+01 2.037993278404038122e+01 2.035990828280431586e+01 1.955168914910857225e+01 1.837468923494326489e+01 1.709747301482438431e+01 1.586971930903643724e+01 1.478764854253933514e+01 1.378497186425841292e+01 1.285690691898274807e+01 1.201336177136954042e+01 1.330988930263986525e+01 1.461674707554094255e+01 1.606845940361794334e+01 1.746253112029130961e+01 1.880641183803005845e+01 2.005429121556834460e+01 2.112002054407351537e+01 2.184739929800798208e+01 2.234624629561196230e+01 2.252670299482884531e+01 2.263379590440070999e+01 2.345009160306441842e+01 2.429633631029018659e+01
1.967987364930157668e+01 1.979406040764260410e+01 1.973745821658211241e+01 1.961269180835002857e+01 1.937940461049647567e+01 1.921031035669130915e+01 1.907791237513911753e+01 1.843292228407316458e+01 1.753449345596578368e+01 1.759600430401183147e+01 1.761087520502313097e+01 1.762952038198455540e+01 1.762966972287590295e+01 1.704170219485289905e+01 1.621080350497295086e+01 1.640683393532375689e+01 1.569746340845997068e+01 1.594318928556180559e+01 1.709321557271973901e+01 1.787435965612517563e+01 1.865294559735183455e+01 1.892349263237198542e+01 1.869667465188201660e+01 1.788799134763849707e+01 1.813788686320299703e+01 1.839341763471479752e+01 1.932429023866436069e+01 2.014026808854547212e+01 2.099693297457810104e+01 2.205631743592567418e+01 2.315362167192053278e+01 2.430780278609549327e+01 2.548529207903338545e+01 2.672536784776075436e+01 2.799964896991940932e+01 2.925512110797750154e+01 3.052610423274195028e+01 3.172160638902386509e+01 3.286180907015987174e+01 3.380921406202418211e+01 3.449409911703707365e+01 3.469498102952928775e+01 3.439722182713686749e+01 3.370511247019511814e+01 3.283881521949133742e+01 3.181369113057681375e+01 3.078036807627270832e+01 2.971131667090896755e+01 2.870943145831618892e+01 2.773994151369361560e+01 2.686069844092204661e+01 2.707401959487834020e+01 2.679366066083337827e+01 2.585482281837943574e+01 2.484433903063308691e+01 2.380724904673267162e+01 2.280221170073871662e+01 2.181504510736569458e+01 2.083560020272620505e+01 2.208437016598527691e+01 2.312183012680465666e+01 2.381648338705523926e+01 2.387012267505074803e+01 2.327254405993160802e+01 2.232501699690654462e+01 2.339532939175972714e+01 2.441052610945493129e+01 2.545147427082778790e+01 2.644323475159113457e+01 2.740577828781528424e+01 2.816952367594382522e+01 2.864263373944023172e+01 2.850118026642123326e+01 2.772835064915326342e+01 2.660850716160327067e+01 2.532219662884575939e+01 2.397636876167724651e+01 2.262991758346435134e+01 2.131335895230643018e+01 2.004118561123159026e+01 1.881919435096677162e+01 1.764858438039412647e+01 1.652815504708021876e+01 1.545548641537484791e+01 1.442761570303277807e+01 1.344144854882529572e+01 1.249393315452945785e+01 1.158242452476213735e+01 1.066725109525336457e+01 1.182047749497963629e+01 1.299675039778309404e+01 1.423636821224410376e+01 1.553626386533255044e+01 1.687004985590819572e+01 1.817622288051472523e+01 1.933127071402842390e+01 2.007713032211187709e+01 1.998369349113279014e+01 1.904603920979300469e+01 1.772699281549502359e+01 1.632129553229975016e+01 1.497743842624009680e+01 1.375444508614756955e+01 1.266479886548687439e+01 1.165229429428658214e+01 1.275521015757160193e+01 1.395135934988664950e+01 1.520496588974739005e+01 1.637537847581062778e+01 1.762792985569735649e+01 1.883246859508629001e+01 1.988054767577148851e+01 2.059347792897834140e+01 2.110273547361865809e+01 2.121852619637368420e+01 2.114669778344922335e+01 2.130446541181242281e+01 2.220370783634421130e+01 2.305196937654779177e+01
2.037375929614800896e+01 2.071662803114061546e+01 2.078954343274161332e+01 2.076145673252769441e+01 2.060268593501381673e+01 2.046445877361503562e+01 2.030164606130164273e+01 1.967885661347299475e+01 1.886002590856812233e+01 1.886609254450213058e+01 1.882022241926344464e+01 1.877026807306812373e+01 1.865974723221219733e+01 1.787706476530008359e+01 1.754640869124111191e+01 1.761338942647547512e+01 1.700779079593146292e+01 1.708689044715936944e+01 1.630174896494256487e+01 1.655365559684632615e+01 1.769123228484235710e+01 1.800810873709658466e+01 1.750438166965732378e+01 1.853894691974210573e+01 1.926359773713338441e+01 1.989956090137231470e+01 2.063198549003852023e+01 2.088814798038162479e+01 2.186677774483852588e+01 2.288044542420020377e+01 2.398188434793372537e+01 2.511358637151057138e+01 2.630766699828116728e+01 2.751979279547601109e+01 2.879220652606167974e+01 3.007808131170119026e+01 3.129506130694109345e+01 3.246346563195249502e+01 3.344223404406071154e+01 3.420615808223922727e+01 3.454429017452606132e+01 3.434922794093796483e+01 3.368901831155957183e+01 3.281903216440846194e+01 3.176932804563905322e+01 3.069455566969485716e+01 2.956936288924012857e+01 2.849485323812225701e+01 2.743261232391427384e+01 2.645408480896283265e+01 2.551442404739004388e+01 2.598078245724761715e+01 2.602330011437902613e+01 2.532775196154300446e+01 2.419618520697907016e+01 2.313464140599853991e+01 2.210530923068746034e+01 2.112177766654502520e+01 2.013402357561642475e+01 2.130992787177275716e+01 2.226240418949271316e+01 2.289660467234506314e+01 2.290634352253400152e+01 2.226934471360412715e+01 2.126833293228999722e+01 2.230419770802051715e+01 2.332959882158430887e+01 2.436606625437244844e+01 2.546611158952786980e+01 2.651947261954858348e+01 2.751043659857207402e+01 2.821865882423709238e+01 2.830934916538018342e+01 2.767994801234350888e+01 2.662175159182003625e+01 2.535435716561879715e+01 2.400594687346909595e+01 2.264632754854645924e+01 2.131178551973974677e+01 2.001964720253680952e+01 1.877708453783631981e+01 1.758605642489320431e+01 1.644590935357824790e+01 1.535473801887145839e+01 1.431006299352980093e+01 1.330908528883899855e+01 1.234876700627410173e+01 1.142632732923876127e+01 1.050150823892835383e+01 1.167410704807688226e+01 1.286765073090341183e+01 1.411855830906520026e+01 1.542016601790415109e+01 1.674601585892232691e+01 1.803334814579299916e+01 1.915433106144486430e+01 1.986326453964259642e+01 1.976343540654037056e+01 1.889662499804667917e+01 1.767225328347277724e+01 1.633727191930129763e+01 1.501779851051446890e+01 1.376424329804087954e+01 1.258397576530611417e+01 1.141691292282721726e+01 1.267481761860004674e+01 1.394152495695621319e+01 1.521969300143389781e+01 1.645432886036627806e+01 1.761892342906571329e+01 1.864277279662441344e+01 1.935222900201530649e+01 1.992263332047284763e+01 2.006741665534871188e+01 1.994239940095275543e+01 1.954349815388397005e+01 2.024268488504430863e+01 2.102185820973068786e+01 2.182813564633126902e+01
2.071575606857385310e+01 2.122948232442039185e+01 2.152162900269858170e+01 2.165958323403973651e+01 2.163032721968686900e+01 2.156786975588482846e+01 2.141150005032508474e+01 2.088179621736820479e+01 2.021584376554332607e+01 2.016911164369930276e+01 2.006195242553849312e+01 1.993236624155727554e+01 1.963412954896257645e+01 1.916366302327314486e+01 1.886489744549936276e+01 1.890073772332375768e+01 1.834909043696529096e+01 1.837488469348060249e+01 1.779940856123719684e+01 1.760824037463733660e+01 1.687901707568903120e+01 1.712197402789955092e+01 1.828859546404868297e+01 1.925576100297179138e+01 2.014533555966468725e+01 2.102678631814612586e+01 2.186295425943380977e+01 2.232300484319243594e+01 2.261473612324815363e+01 2.378651197672433071e+01 2.487492210816778027e+01 2.601478196134623744e+01 2.717311917392253662e+01 2.839236155455506250e+01 2.960870744901866658e+01 3.086056310498245736e+01 3.206715597190441969e+01 3.309810099650277948e+01 3.393270380106289252e+01 3.436740063273587964e+01 3.431224981183957112e+01 3.378908560935180816e+01 3.290686975242161338e+01 3.183694000124967260e+01 3.072946142929547975e+01 2.956193688321227242e+01 2.843548245064676649e+01 2.731105150613710819e+01 2.625638960979392778e+01 2.523220905103997680e+01 2.425637739403200044e+01 2.503933644973328043e+01 2.527116181465654066e+01 2.478266696263240831e+01 2.371836432253672200e+01 2.249533094631697594e+01 2.148384913255275919e+01 2.047269513346467917e+01 1.948996460282396015e+01 2.050987860511455452e+01 2.135471662446498087e+01 2.195914716143597900e+01 2.195703617562910992e+01 2.131609601284855415e+01 2.029678026029952775e+01 2.126327647592258074e+01 2.222328136803274390e+01 2.332433446098920626e+01 2.446963656507369222e+01 2.568279722167773826e+01 2.684109586796899194e+01 2.774111395118525181e+01 2.805159701787685833e+01 2.763675188279664141e+01 2.667905710758800097e+01 2.545660520034600793e+01 2.412380334089679224e+01 2.276221093598570633e+01 2.141518513208525931e+01 2.010346313975149002e+01 1.883613887774309248e+01 1.761675305436841654e+01 1.644602869137085221e+01 1.532341143860114485e+01 1.424770841080624706e+01 1.321723851272533956e+01 1.222976018505306506e+01 1.128287810869381858e+01 1.033593285307413900e+01 1.151887256023054817e+01 1.272400201692577149e+01 1.398541146861741069e+01 1.529353889249923526e+01 1.661974600515050327e+01 1.789958061560125913e+01 1.900487705608538391e+01 1.969724657673891954e+01 1.960095388299679087e+01 1.876635534401576066e+01 1.757719920595512164e+01 1.625978309158893609e+01 1.493084030618699209e+01 1.364203949142247474e+01 1.240929838362748860e+01 1.118997857955901409e+01 1.257588451436430077e+01 1.391651091294585108e+01 1.520068722520302451e+01 1.637835579831448385e+01 1.735663792184662313e+01 1.805791772745525847e+01 1.874979043730603934e+01 1.896172302485994265e+01 1.890498821511122429e+01 1.868929762790270743e+01 1.831124935189116698e+01 1.910422290708461546e+01 1.990581734596127106e+01 2.052488224123340999e+01
2.057264521765019083e+01 2.118036887550237779e+01 2.166289967723259124e+01 2.203854378545309345e+01 2.226624893463619870e+01 2.236938337225512896e+01 2.230441633553324010e+01 2.196359012928711607e+01 2.154565343513293385e+01 2.146002957532095223e+01 2.131534616222667822e+01 2.114929064269296788e+01 2.084481143261384517e+01 2.045362428817994171e+01 2.017544009327436783e+01 2.011106059727079298e+01 1.986893445515393708e+01 1.970969677603673631e+01 1.911241701932259218e+01 1.844471945543583047e+01 1.750939700222114226e+01 1.827019796127418161e+01 1.910618890384322555e+01 2.008635321392338824e+01 2.102887428322285501e+01 2.194013562630166092e+01 2.290220227206541637e+01 2.360681013278015783e+01 2.384517388795552861e+01 2.484305216574977138e+01 2.589399036742057447e+01 2.697629727586238602e+01 2.812769167348883315e+01 2.928399987265247972e+01 3.048297125151444931e+01 3.162582209274575362e+01 3.272872173801407314e+01 3.364790256503376042e+01 3.418108423888445202e+01 3.424138021580216673e+01 3.383243095800405342e+01 3.303141666687751155e+01 3.203655723917221820e+01 3.088289696111077731e+01 2.967641740246881810e+01 2.850613961640713256e+01 2.733320205789324575e+01 2.622434863282409978e+01 2.513944187562313104e+01 2.412533869196240133e+01 2.312482232259402082e+01 2.402016576062997899e+01 2.452576806278485577e+01 2.436034880988721341e+01 2.353673628026696818e+01 2.236292021793545004e+01 2.094639994882651379e+01 1.984149463078465203e+01 1.889217644530142692e+01 1.951445530559397312e+01 2.035819792269271389e+01 2.099877995279217657e+01 2.100728731506225344e+01 2.040090502758175717e+01 1.941841532514978752e+01 2.008891941557380889e+01 2.114205548202615859e+01 2.228144422148187331e+01 2.353877650911173802e+01 2.487078335952550034e+01 2.616856694907021819e+01 2.722262070796729105e+01 2.771637083447905070e+01 2.745238995416610450e+01 2.664078761374607396e+01 2.550583953970835083e+01 2.423109448616687089e+01 2.289989875527296448e+01 2.156591866157037174e+01 2.025267427456759961e+01 1.897075465899455082e+01 1.772628540605473191e+01 1.652205439404837506e+01 1.535978416921590473e+01 1.424092628207033506e+01 1.316641764472823972e+01 1.213647952768235072e+01 1.115085271819209645e+01 1.017018210690377700e+01 1.136350000464698873e+01 1.258077685912383004e+01 1.385454101248764225e+01 1.517256615733398206e+01 1.650359214763098237e+01 1.778087224563594404e+01 1.887544188317137994e+01 1.955380532062049070e+01 1.945716694510499423e+01 1.863781415487723336e+01 1.746024249245556703e+01 1.614115119293478529e+01 1.479504819439732444e+01 1.347696154045466521e+01 1.221000610830552446e+01 1.095921740419594315e+01 1.243570003744206254e+01 1.378226823041386595e+01 1.494789131202172250e+01 1.588950942052658277e+01 1.665122437741095851e+01 1.746425555705653920e+01 1.788661580798453699e+01 1.785078718444166412e+01 1.767463515401393792e+01 1.745067983695585312e+01 1.722326372316670984e+01 1.804879119665084986e+01 1.897050751761123877e+01 2.025037211401382464e+01
