ncols 119
nrows 32
xllcorner 1740
yllcorner 590
cellsize 10.0
3.019729270695264134e+01 3.134406117429384864e+01 3.214748706331951666e+01 3.227710791409174362e+01 3.169849793081880307e+01 3.081907742863805666e+01 2.970495255849249006e+01 2.849999953992046997e+01 2.724804198655044374e+01 2.584480439652656258e+01 2.704469014513351155e+01 2.811943999693243512e+01 2.900693710692735294e+01 2.948233450934374389e+01 2.934444881222424328e+01 2.908895142945979728e+01 2.889821859926939851e+01 2.879428233457139186e+01 2.875034330853156206e+01 2.805816195104033994e+01 2.705388284269803734e+01 2.701090070497118489e+01 2.676045325398431629e+01 2.580925756089069267e+01 2.551253098357845062e+01 2.668623949522945793e+01 2.760878229584768206e+01 2.841209963438172537e+01 2.929839384204361252e+01 3.041560654303698996e+01 3.158408474759094986e+01 3.269419129989279327e+01 3.371856749409335663e+01 3.473432486286781540e+01 3.576316239115232065e+01 3.679848832714881723e+01 3.783175714674435142e+01 3.885407962402594961e+01 3.985051116507836610e+01 4.060699292437465147e+01 4.096146407087736918e+01 4.076788320852090663e+01 4.009478949076773802e+01 3.916391919127454457e+01 3.813857976512453263e+01 3.702995473995659381e+01 3.590644959042947448e+01 3.631766234528669202e+01 3.643887676312904489e+01 3.661128812300328406e+01 3.785284660748752827e+01 3.897508470680052994e+01 3.988868220553203514e+01 4.031231560256816948e+01 4.002935724369292103e+01 3.917195531869240455e+01 3.802507846773170996e+01 3.677452308636621581e+01 3.552779549041262896e+01 3.434136781701493391e+01 3.324008189720780138e+01 3.223055352751372737e+01 3.130912929330732553e+01 3.047269198579424909e+01 2.968051222997955918e+01 2.890690628963041320e+01 2.813491933642759690e+01 2.735614743919118652e+01 2.656843744816443831e+01 2.577245801007475379e+01 2.496902096778625690e+01 2.415825533780172307e+01 2.329977165311611742e+01 2.434767881722857297e+01 2.551752607136796769e+01 2.628741844067815947e+01 2.637216763520903839e+01 2.576798108168953050e+01 2.479293355119280307e+01 2.596129627036759757e+01 2.709070590522081901e+01 2.810112969536845640e+01 2.877777206685322398e+01 2.871222876614906738e+01 2.851493316262958544e+01 2.767941022134269247e+01 2.658021655688401808e+01 2.538463701875286205e+01 2.415952004740558934e+01 2.288178721794371384e+01 2.387073708236700398e+01 2.486963343306344854e+01 2.593145635718569153e+01 2.707261507323031680e+01 2.830046745817525888e+01 2.959516187394446263e+01 3.089419924997578804e+01 3.207126884545635903e+01 3.290515292546281501e+01 3.303633430863602172e+01 3.242612665300416808e+01 3.142863602726069772e+01 3.027063129589330259e+01 2.908016080875671960e+01 2.792325016443890462e+01 2.682776648243842743e+01 2.579878404471118358e+01 2.483036667413708187e+01 2.392220373594402716e+01 2.305158459012486816e+01 2.218580276504116355e+01 2.302393290464933884e+01 2.311287676233203570e+01 2.318756631670185442e+01 2.328582042451340328e+01 2.449301515035620724e+01 2.554498400824788007e+01 2.655137511899652836e+01 2.760784466101819135e+01
2.952379960914692347e+01 3.066763445215180184e+01 3.147177024259131883e+01 3.160020883239018374e+01 3.099543739748072824e+01 3.001629855787481915e+01 2.895508570635892553e+01 2.777746430104669173e+01 2.652630447628971311e+01 2.509722885373612655e+01 2.626023137293096710e+01 2.728294102968349932e+01 2.812491062394899544e+01 2.839343104102679760e+01 2.820908109792530638e+01 2.795513889014805287e+01 2.778477096403406321e+01 2.771709901070879667e+01 2.773692033869475893e+01 2.708197340442470491e+01 2.606696738825722193e+01 2.604583690547753960e+01 2.581731968597106075e+01 2.470991601673973292e+01 2.574674054287701708e+01 2.678718488800495123e+01 2.769574179665187330e+01 2.851560136080146179e+01 2.952714570150144979e+01 3.064723293521854330e+01 3.184153095089811103e+01 3.306576873633871116e+01 3.428957904397377376e+01 3.545568758395054232e+01 3.655310338873468368e+01 3.757729818582338766e+01 3.850363092443800639e+01 3.930243196906716463e+01 3.994739639612752313e+01 4.033382394780969094e+01 4.037977528955867257e+01 3.995910122945812049e+01 3.924100858180564444e+01 3.827260622202391005e+01 3.719883156312751993e+01 3.610928958761454766e+01 3.494625895337047439e+01 3.551763851834274277e+01 3.533923872664655619e+01 3.651904331903494949e+01 3.763541787853243648e+01 3.862523844545146545e+01 3.935460006030456270e+01 3.957220842408097639e+01 3.910857495145985041e+01 3.824341094883806846e+01 3.708493915267099084e+01 3.583081577951488583e+01 3.458417629153695572e+01 3.339862618513034676e+01 3.229718446241225394e+01 3.128513958997843858e+01 3.035854114523710123e+01 2.950884664856524608e+01 2.872931265842881743e+01 2.798094694213740752e+01 2.723687792530923346e+01 2.648140210749337342e+01 2.571059161762743983e+01 2.492686763109408332e+01 2.413329694472980691e+01 2.333110754376635398e+01 2.247225176583190631e+01 2.371856018686094103e+01 2.480241699278868239e+01 2.553050309853967548e+01 2.556615630717291054e+01 2.491985536597681161e+01 2.390411068867947364e+01 2.509865588597451591e+01 2.624557014699548319e+01 2.725963126847760165e+01 2.791206774486101239e+01 2.774779869268062527e+01 2.746854588525034657e+01 2.665928322654809790e+01 2.559992105538882612e+01 2.446487461515178552e+01 2.331839245611698175e+01 2.208940198812716815e+01 2.309073735237268110e+01 2.407577409648855138e+01 2.511934794401368265e+01 2.625608253026436145e+01 2.749505595441008765e+01 2.881402860840635327e+01 3.014552047480931662e+01 3.135372917292116668e+01 3.220243098318189823e+01 3.232003552176320227e+01 3.168577848644728334e+01 3.066602852137044621e+01 2.949179343259628183e+01 2.829198832433587540e+01 2.713223659249919706e+01 2.603974980656977323e+01 2.501829141144442659e+01 2.405616720043687096e+01 2.313599479688366500e+01 2.225465340404696590e+01 2.136355144289123587e+01 2.209284410723211067e+01 2.208495086024527509e+01 2.209202418621915243e+01 2.318386242224158167e+01 2.396946208886697249e+01 2.485044810706814644e+01 2.579810207247696496e+01 2.683186541419878424e+01
2.886133847886729953e+01 3.000150654084753654e+01 3.081206809086742382e+01 3.095211461494407601e+01 3.031921009856478832e+01 2.925240108342901024e+01 2.804000682001452560e+01 2.687412003756897860e+01 2.568387458027191173e+01 2.437837107332760311e+01 2.548095995436024808e+01 2.645137908132727489e+01 2.716603428791627195e+01 2.730176509468077128e+01 2.709304464061324680e+01 2.685056950558512057e+01 2.670114530774219475e+01 2.666382608915653663e+01 2.674421176590782423e+01 2.613681233547628580e+01 2.513805203221028961e+01 2.513953382882950294e+01 2.503726995382299947e+01 2.420758399968088881e+01 2.542350233475285748e+01 2.636821321671400042e+01 2.710478548915368080e+01 2.823745152312254802e+01 2.938730086194626168e+01 3.058034941080275004e+01 3.181793227650143052e+01 3.308797762715607860e+01 3.436828421296734604e+01 3.562352092849926777e+01 3.680399954991329281e+01 3.785095196308428456e+01 3.868883842241763915e+01 3.924240648310473034e+01 3.956247206548778905e+01 3.964910301840513540e+01 3.959731571657535198e+01 3.912901461035688300e+01 3.833727382869963662e+01 3.740160330603537631e+01 3.633590418301130143e+01 3.523270237706832830e+01 3.410475993370224757e+01 3.471895048023176145e+01 3.460795957328614492e+01 3.588772765446916679e+01 3.700758682111571574e+01 3.798098836640020437e+01 3.870469303918194726e+01 3.881085921630516111e+01 3.822813124485064407e+01 3.725565479675258729e+01 3.612566439401813057e+01 3.488133920451041092e+01 3.364429273758690897e+01 3.246699040410400272e+01 3.137173886054495497e+01 3.036337261565115497e+01 2.943803290482534507e+01 2.858882712242841961e+01 2.780796209295025889e+01 2.708734782223338300e+01 2.638428200345716945e+01 2.566597206600109971e+01 2.492065858911512777e+01 2.415333876488105602e+01 2.337194190137394756e+01 2.258130790813142497e+01 2.173706224894311489e+01 2.302259785734142383e+01 2.410068667918820395e+01 2.479964068851153769e+01 2.479402415028904372e+01 2.411043425100114135e+01 2.305842216105964937e+01 2.427301134796276827e+01 2.543419607408964467e+01 2.645848319274167437e+01 2.712657818477635630e+01 2.706403105097249551e+01 2.620779613369777650e+01 2.557072768224730908e+01 2.456688319486504213e+01 2.348131596698434365e+01 2.246693066118495707e+01 2.137757774086875173e+01 2.234939453862241265e+01 2.328056531303725407e+01 2.430190311075892140e+01 2.544088544905944715e+01 2.670128185832292189e+01 2.805831475337897629e+01 2.943933684693101682e+01 3.069492998943669448e+01 3.156295363714923496e+01 3.164944187153287203e+01 3.097477568116765667e+01 2.992229164720483325e+01 2.872597433232826702e+01 2.751435205203889467e+01 2.635172487228282989e+01 2.526413510513143024e+01 2.425632452941000139e+01 2.331850337753964553e+01 2.242222835954943605e+01 2.153737487372204029e+01 2.063669293401974514e+01 2.117800471972964971e+01 2.104249317659225582e+01 2.191624145872802032e+01 2.252815100966270379e+01 2.327472825541363477e+01 2.410431009307663075e+01 2.502363813091177036e+01 2.604676383435353415e+01
2.819751304599531139e+01 2.933554449877469850e+01 3.016582910965863817e+01 3.035808779693756421e+01 2.973820175270119393e+01 2.855856691835651517e+01 2.721361080007887878e+01 2.589304137305238385e+01 2.468783174713507478e+01 2.371051165921051052e+01 2.466168886327305643e+01 2.550316937733624556e+01 2.615862011139692811e+01 2.621525208103627946e+01 2.600202927954285315e+01 2.577790299254319706e+01 2.564818100347333285e+01 2.563403900372244948e+01 2.576737618601016067e+01 2.523220189425839877e+01 2.425724532192992200e+01 2.424829125671458740e+01 2.421793899205856704e+01 2.374465521250380107e+01 2.467175273676411251e+01 2.564855790605120944e+01 2.691116736154609512e+01 2.813429677236711868e+01 2.936439230296747027e+01 3.061988335473050427e+01 3.190743441054436502e+01 3.322003661810764896e+01 3.453430222551494211e+01 3.580543715163231155e+01 3.696056311240077719e+01 3.789512878266220497e+01 3.845094273450641964e+01 3.863512713654727548e+01 3.871963717006934758e+01 3.867426773858226596e+01 3.860081286389956290e+01 3.827803484961246738e+01 3.747284890831936366e+01 3.651740881571237907e+01 3.550673275904634352e+01 3.443003665414478576e+01 3.331751397255395375e+01 3.397234493572593550e+01 3.391416151288583336e+01 3.514540750200650621e+01 3.627040106478740000e+01 3.732129355524588732e+01 3.803804863562928773e+01 3.805414127825922321e+01 3.737256795638477769e+01 3.632234645525208805e+01 3.512407144498939715e+01 3.391894632055880976e+01 3.270058008718054765e+01 3.153849715251583774e+01 3.045487581260729115e+01 2.945443792373651348e+01 2.853311870311652854e+01 2.768485769617921832e+01 2.690624947781632059e+01 2.619614530464363256e+01 2.554545608076827889e+01 2.488996657322614325e+01 2.418656364013752480e+01 2.344116846819532896e+01 2.267279685324648852e+01 2.189291046727570134e+01 2.105998599969235130e+01 2.235653331055327087e+01 2.342410099111876320e+01 2.409499588096134914e+01 2.405119291925305447e+01 2.333421566068650321e+01 2.224984488779077552e+01 2.347884722111886546e+01 2.464996309944127972e+01 2.568411613311156216e+01 2.636274995837211677e+01 2.632186487768732519e+01 2.556072718189666304e+01 2.434689362750287955e+01 2.350548181203241427e+01 2.240224326864746729e+01 2.141210835145122005e+01 2.073484650332284573e+01 2.153740668295964156e+01 2.242580870917982949e+01 2.344255232791519106e+01 2.459863242508666303e+01 2.589757074563273775e+01 2.731725282855356696e+01 2.878201824749043070e+01 3.012164779130140246e+01 3.102270652477831803e+01 3.103737324081066262e+01 3.029561469871275747e+01 2.919557635226454906e+01 2.796868566972709047e+01 2.674050869658554674e+01 2.557274672814163097e+01 2.448859029532524900e+01 2.349074634784562221e+01 2.257691332951111463e+01 2.173361555881584550e+01 2.089570987674128588e+01 1.999907927604450464e+01 2.017906879881207516e+01 2.053346682130491629e+01 2.109891169043818238e+01 2.174414247118024335e+01 2.246820143528131553e+01 2.327849252966114335e+01 2.418629871487581440e+01 2.520645515719390417e+01
2.751759658300578337e+01 2.865298244564182895e+01 2.951262383064936401e+01 2.981235845413362640e+01 2.934734594795486728e+01 2.833585519977891209e+01 2.709279947081846984e+01 2.578443097060695166e+01 2.447343471919170454e+01 2.308971565165307283e+01 2.354200819339150286e+01 2.445820030023247327e+01 2.512865205695911186e+01 2.514538779519994804e+01 2.494037464454883946e+01 2.473908989478210074e+01 2.462648829080993451e+01 2.462643594622877075e+01 2.476688193438628005e+01 2.439675451390380090e+01 2.342598339852845157e+01 2.336145792183278047e+01 2.310668379573380804e+01 2.407570721251036971e+01 2.502137271850544664e+01 2.602144329677621570e+01 2.711505713905296133e+01 2.827497856744655635e+01 2.948944884661308308e+01 3.075283787597950180e+01 3.205667876062396715e+01 3.338176858253320489e+01 3.469005719399911669e+01 3.591482005837904268e+01 3.694980064455131696e+01 3.764563260934290412e+01 3.781455819808544305e+01 3.768479831275738690e+01 3.762762479530056936e+01 3.752937499605430816e+01 3.747867903206650908e+01 3.730343356391839649e+01 3.662747577623119355e+01 3.568312099171583185e+01 3.467962943292668854e+01 3.366269203650682584e+01 3.257572777374552686e+01 3.326546664074433579e+01 3.325443858868226243e+01 3.432752998634445873e+01 3.556599801403799432e+01 3.671692764233075934e+01 3.740886572085253903e+01 3.732339152009299710e+01 3.654516580932631342e+01 3.542317770950918288e+01 3.417496122298772576e+01 3.292499218707092723e+01 3.174714704606369509e+01 3.060685318968231527e+01 2.954037696651613487e+01 2.855254533908602355e+01 2.763879634340826286e+01 2.679194779348571132e+01 2.600912220318225465e+01 2.529681913581262265e+01 2.466895438868865043e+01 2.411848430257353471e+01 2.349785382303169712e+01 2.278368849203397417e+01 2.202809916770435095e+01 2.125693164754454756e+01 2.043307463493610143e+01 2.172657100517849216e+01 2.277528964475332174e+01 2.341386530060350069e+01 2.333280888409572995e+01 2.258659552818671301e+01 2.147399611905817096e+01 2.270895665083178017e+01 2.388437297908740220e+01 2.492952324320752666e+01 2.561570922547805296e+01 2.558133971754847735e+01 2.483988988719917401e+01 2.373176176354336420e+01 2.240232640223824134e+01 2.140596833380907427e+01 1.997213635660760289e+01 2.081497478794705103e+01 2.175147979875604065e+01 2.272061474682344695e+01 2.377871118129596795e+01 2.493803728178160029e+01 2.619431326200006893e+01 2.751729254155789306e+01 2.882898960457207949e+01 2.996932221170425592e+01 3.064738898406886136e+01 3.049027576503493364e+01 2.964634690622419555e+01 2.848274624937150179e+01 2.721603979538681273e+01 2.596544865154791992e+01 2.478925161236887220e+01 2.370763181675012632e+01 2.271768873723635807e+01 2.180832173278933084e+01 2.099689649619961784e+01 2.028625795792616415e+01 1.943577335150018115e+01 1.979157084649243359e+01 2.103351365732188327e+01 2.196116803574471277e+01 2.274015864896072259e+01 2.355636145160596229e+01 2.442497830298053785e+01 2.536194771556858996e+01 2.637771030616637802e+01
2.680551875998641265e+01 2.793057811540654356e+01 2.879056325592765830e+01 2.927324166817923512e+01 2.904808884662842772e+01 2.817308427332660514e+01 2.699553492494884921e+01 2.571117649849353270e+01 2.442913914338339509e+01 2.322284908426811967e+01 2.221924979322367122e+01 2.345286552912049416e+01 2.412322422400040978e+01 2.410302659804471759e+01 2.391039712484591107e+01 2.373549734238455855e+01 2.363676973410510485e+01 2.364704437291269556e+01 2.377285135877931310e+01 2.351278324852320978e+01 2.265318795738795998e+01 2.247565297466733014e+01 2.340868343648901018e+01 2.432404594185000946e+01 2.527796273573993702e+01 2.628326352026339663e+01 2.735567960916942098e+01 2.849890675925410477e+01 2.971090665497933969e+01 3.098395115184186466e+01 3.230104596764685709e+01 3.362828783207628902e+01 3.490563185335572172e+01 3.603237629256966557e+01 3.685401860901671967e+01 3.716865216538428029e+01 3.701064491174135895e+01 3.649755989984799243e+01 3.640423700552428699e+01 3.629841261507545624e+01 3.627981616037581603e+01 3.623179978897302789e+01 3.570508783931665420e+01 3.486952760513086957e+01 3.389662440376915953e+01 3.290870284890377917e+01 3.187454878107004674e+01 3.258632369752449165e+01 3.263246858402676764e+01 3.393428007756009634e+01 3.518919747259496944e+01 3.625114761009143649e+01 3.685116898019545317e+01 3.662421135517314497e+01 3.574366049077965357e+01 3.455186836899029856e+01 3.325693097826569300e+01 3.197600059361095504e+01 3.076869700523197793e+01 2.966682054271272406e+01 2.862281349624341331e+01 2.765294766127506065e+01 2.675263890774507658e+01 2.591280030576690407e+01 2.512672651479423180e+01 2.439860619805725861e+01 2.374925653647440171e+01 2.322467848109448596e+01 2.285235633000797861e+01 2.218152201924275602e+01 2.143448221639124540e+01 2.066777017210580425e+01 1.985059103480809384e+01 2.113034161207982820e+01 2.214991113693177738e+01 2.274840192902514957e+01 2.263124668579237664e+01 2.186287314884448918e+01 2.072840678518936386e+01 2.194761554831989159e+01 2.312753556761509088e+01 2.419959144686125185e+01 2.489048847635750406e+01 2.484594444437850669e+01 2.410193530367413217e+01 2.301987565678670222e+01 2.182262745429070350e+01 2.055429128327137533e+01 1.940966515210097398e+01 2.067712564164386890e+01 2.176798717515642423e+01 2.271267915825558248e+01 2.385252363685745536e+01 2.507325781619841010e+01 2.635629856760641587e+01 2.766076895495613996e+01 2.889959795405867737e+01 2.989910682080809678e+01 3.031883073664996076e+01 2.996610781140125468e+01 2.901335915609183047e+01 2.777804226316320069e+01 2.646433822317713336e+01 2.518538741942108317e+01 2.399617225033716039e+01 2.291523245225386773e+01 2.193790386011615112e+01 2.104087010071246766e+01 2.018553250849290848e+01 1.950513730595182693e+01 1.900293706003814265e+01 2.010980359430804398e+01 2.119348612922071950e+01 2.223703219981004864e+01 2.324171475138633269e+01 2.419446305231223704e+01 2.515374518408938798e+01 2.615021123029826811e+01 2.719586884613744360e+01
2.604852142941994941e+01 2.713604863957863245e+01 2.809687070714392121e+01 2.871883031648086515e+01 2.868535466163234560e+01 2.794904030669965778e+01 2.683037190764966695e+01 2.554767642904457858e+01 2.422132877178996679e+01 2.291504978589837194e+01 2.162589829730112001e+01 2.259465012976318121e+01 2.314919148826861317e+01 2.308827829841327528e+01 2.291114086646836512e+01 2.276817573583025123e+01 2.267791517669661516e+01 2.270209149095936496e+01 2.277672810783981916e+01 2.256086190733771701e+01 2.189683922665809135e+01 2.275988343430022809e+01 2.360634107154243466e+01 2.449872849482010295e+01 2.544511654955904945e+01 2.645483794283337176e+01 2.753752527463586119e+01 2.869765775792228268e+01 2.993429089650273411e+01 3.123474207417201853e+01 3.257245262585315970e+01 3.389307293627385320e+01 3.510874812682521195e+01 3.607133410422908071e+01 3.655081933525696058e+01 3.647838669465895123e+01 3.597445002496652222e+01 3.526911977586675562e+01 3.513767873903022121e+01 3.504042758339739549e+01 3.504262799281880092e+01 3.505473773356710865e+01 3.475047015109106496e+01 3.398125837303040697e+01 3.311545205804139869e+01 3.219456623614784263e+01 3.121352506056445364e+01 3.188924239469292843e+01 3.200895955265257697e+01 3.362975841717287295e+01 3.497834355393329986e+01 3.599345326385262922e+01 3.635412187174232201e+01 3.591304524841012835e+01 3.495355423455596622e+01 3.369861676459376554e+01 3.236072564656708295e+01 3.105158940070840501e+01 2.982632378055932065e+01 2.870551865399635005e+01 2.769697363810435675e+01 2.674996075415922903e+01 2.586964248100169073e+01 2.504651166755621361e+01 2.426893440263860313e+01 2.353187832070818075e+01 2.284730569395141231e+01 2.222940369974848096e+01 2.232624377807074012e+01 2.165273914303170599e+01 2.089390111033213060e+01 2.012235134904359057e+01 1.930773886917129900e+01 2.056217446153625517e+01 2.153835062327944883e+01 2.208237761917642317e+01 2.193310993622420213e+01 2.115666538827435872e+01 2.001360953308770618e+01 2.112455614398047032e+01 2.238413288332903406e+01 2.352509747965691744e+01 2.419744403544721578e+01 2.412460511560528786e+01 2.335140647280212889e+01 2.224803556540161154e+01 2.107760456737965171e+01 2.001210353156841038e+01 1.890847648232070455e+01 2.027143293506593835e+01 2.114038633692447888e+01 2.243899190152729517e+01 2.373405079887129787e+01 2.504931543597278321e+01 2.637625637566562276e+01 2.767499936059061838e+01 2.885556403398133440e+01 2.973416172787402445e+01 2.997000765759187857e+01 2.940757634623331285e+01 2.838608583322434598e+01 2.707660226263300274e+01 2.571091659207192492e+01 2.439825857429799427e+01 2.319058641210828142e+01 2.210482065824103870e+01 2.113806391563576526e+01 2.027412207734270666e+01 1.947043849038648489e+01 1.846122360257727735e+01 1.923192983658726263e+01 2.010856632553448975e+01 2.106957789406201087e+01 2.207639492095381684e+01 2.310423955990688683e+01 2.413907570937184843e+01 2.518337234674368474e+01 2.624807387544788639e+01 2.734401985936073132e+01
2.522515456986563009e+01 2.636591533309184854e+01 2.739456451753353505e+01 2.812964143378130188e+01 2.827431484656864669e+01 2.773022210478589500e+01 2.668026122113274567e+01 2.540282310478770356e+01 2.402929074131987974e+01 2.260949704485565803e+01 2.107292819309155973e+01 2.161670424902530030e+01 2.214007879456398342e+01 2.209582581710773042e+01 2.193942403885728609e+01 2.183927792661822664e+01 2.174528678222981526e+01 2.180391568777644551e+01 2.178225173568163342e+01 2.134235809107395099e+01 2.205870979561291989e+01 2.279756772340946469e+01 2.360627485316116392e+01 2.448301964359339777e+01 2.543514816466809592e+01 2.646577526697484828e+01 2.758535107577011658e+01 2.878962083472907807e+01 3.008028645094903908e+01 3.142613526169343885e+01 3.279747007540225923e+01 3.409599992903772403e+01 3.521568837262243079e+01 3.593118620581471845e+01 3.604657782755841566e+01 3.561478763856074181e+01 3.492026211357894283e+01 3.401895019572990009e+01 3.386514548647679845e+01 3.379498102538865112e+01 3.380710457020084903e+01 3.384409144028983008e+01 3.366781126424870507e+01 3.302451609198148930e+01 3.222341265134259203e+01 3.146562439574244863e+01 3.060505766496234159e+01 3.097572886443017381e+01 3.232294165744946923e+01 3.367403194770842845e+01 3.489835912888295866e+01 3.577089168566183019e+01 3.589524586065918754e+01 3.522702885371901971e+01 3.414396749346052928e+01 3.285223064248506830e+01 3.147615039256272595e+01 3.014142465667347892e+01 2.890099724871929610e+01 2.777149904888168663e+01 2.675159286713570239e+01 2.583761222324557494e+01 2.498182237553051621e+01 2.418393803622009486e+01 2.343120852889376238e+01 2.270754208612834191e+01 2.200793410718592824e+01 2.133028092254558672e+01 2.169323979350971143e+01 2.130370944589866511e+01 2.040497457686655380e+01 1.962084558571319093e+01 1.880040414788829395e+01 2.001490628045048226e+01 2.092694896552034578e+01 2.138123120852036863e+01 2.121465256597048210e+01 2.045612650544576283e+01 1.932540945783901876e+01 2.076588710956940176e+01 2.196446743461880757e+01 2.290418228052216065e+01 2.353549924740640975e+01 2.343070669171285658e+01 2.261348706215359528e+01 2.144659733620780173e+01 2.018050031448314741e+01 1.912086131572602099e+01 1.842678191925257281e+01 1.953756757382709353e+01 2.095265183751060789e+01 2.231942894811016842e+01 2.367674157546196767e+01 2.503071175765728640e+01 2.636665114845781588e+01 2.763341344088668805e+01 2.874386295141784586e+01 2.949639107319810449e+01 2.964806721564464098e+01 2.895657625408583868e+01 2.775261366377494809e+01 2.635892816122749238e+01 2.493226003392507906e+01 2.357871280579728079e+01 2.234673002698542632e+01 2.124961897982562675e+01 2.028347124198046814e+01 1.943888005775687233e+01 1.870826911135268134e+01 1.810756025903722488e+01 1.906146160708988901e+01 2.003037297019503882e+01 2.104287244353904640e+01 2.208230627222035025e+01 2.313225748173850604e+01 2.418503470028692703e+01 2.524567582520379005e+01 2.632788663670102736e+01 2.744239615123014886e+01
2.442109372898299569e+01 2.558907974894099624e+01 2.666178478210954950e+01 2.747656555973329873e+01 2.777196732528470235e+01 2.737248491051319377e+01 2.643237292238283587e+01 2.522284445632900685e+01 2.390447600383953031e+01 2.257800939111474037e+01 2.132749749786208682e+01 2.026886649360395154e+01 2.111041623971328463e+01 2.113781751864965841e+01 2.099021113497774493e+01 2.095489797555987010e+01 2.082695905183256357e+01 2.097426838261040416e+01 2.078354231718726197e+01 2.211241745698290373e+01 2.310978847500709321e+01 2.396118560130523889e+01 2.477496792248491886e+01 2.564317770644633399e+01 2.657457513984830655e+01 2.761162934413773229e+01 2.869805986333743419e+01 2.988883279734219300e+01 3.109366885262219782e+01 3.235860020870227061e+01 3.353109321385561969e+01 3.461159894623487787e+01 3.535404598375475160e+01 3.564664973894410593e+01 3.542098278446183457e+01 3.475302124902192702e+01 3.383106361965850084e+01 3.280840767993965557e+01 3.260075052769814619e+01 3.259071722342330446e+01 3.260049574370157899e+01 3.262718966063672354e+01 3.249123427872086722e+01 3.190545770827034744e+01 3.119621377513654537e+01 3.052034113359912837e+01 3.002398920121258641e+01 3.128868500832242106e+01 3.254066070348403628e+01 3.378718095446418346e+01 3.489506334995544279e+01 3.561056547302115405e+01 3.550305012211389766e+01 3.460924050371332328e+01 3.335511836248318218e+01 3.199165325810314542e+01 3.059196371091812594e+01 2.923275251294712263e+01 2.798090793033876622e+01 2.684707243174379698e+01 2.582566827941837673e+01 2.490621424707702758e+01 2.408201886506957479e+01 2.331210077332785602e+01 2.259402151864097519e+01 2.191060498184239336e+01 2.123160563402699808e+01 2.052504265740652301e+01 2.104441900024174217e+01 2.087689901840916917e+01 2.020772299716002962e+01 1.915501065120063373e+01 1.833004245289710354e+01 1.948015870469421174e+01 2.031133882653326594e+01 2.056951800280239340e+01 2.043842494419121891e+01 1.974468478778457836e+01 1.866372832244746505e+01 2.004309583808601047e+01 2.118680996326932586e+01 2.224064008080818411e+01 2.289859824166111224e+01 2.278099108628559932e+01 2.192391575631829426e+01 2.069018526133874403e+01 1.930992463400804837e+01 1.774472283543136086e+01 1.873093857674566109e+01 1.983969431545336448e+01 2.107733221458211759e+01 2.236502310649714431e+01 2.367141365692950217e+01 2.497718360239540658e+01 2.625303360119153595e+01 2.739601107376318012e+01 2.834638615369271974e+01 2.912395588784999134e+01 2.938734267737931205e+01 2.892207607914882317e+01 2.789192492576001570e+01 2.662341350020964370e+01 2.529090474736857175e+01 2.399010296452230051e+01 2.276605992145886148e+01 2.163324925817912003e+01 2.058927195699627788e+01 1.962247966517473685e+01 1.871473132596359079e+01 1.778875033812154882e+01 1.896026384859594671e+01 2.009489040517443570e+01 2.122100682741806565e+01 2.231672224873241461e+01 2.336149704900108759e+01 2.436804958112827890e+01 2.536697999717947738e+01 2.641413278980020607e+01 2.751773010273447895e+01
2.361477968235558222e+01 2.479174695163342435e+01 2.588007992205908536e+01 2.671693326240337285e+01 2.721627986263784038e+01 2.707341593287156911e+01 2.629120513446218155e+01 2.516159152668681998e+01 2.387108991156850735e+01 2.252609786547144566e+01 2.117108813668853529e+01 1.973640735779979138e+01 2.014949340701905811e+01 2.023985039439121536e+01 2.004962891344026588e+01 2.013180042690310856e+01 1.984729086195446612e+01 2.021879885730517756e+01 2.172949382980988275e+01 2.296058992899613216e+01 2.405676998771094688e+01 2.503374125811755846e+01 2.594155824911720032e+01 2.680297436780867670e+01 2.772341652475196483e+01 2.870981119780026702e+01 2.980037122703506114e+01 3.090723587284247031e+01 3.207172012412141981e+01 3.315562358597969705e+01 3.416688989285987788e+01 3.489270270217186010e+01 3.524896512910340363e+01 3.514457490765849457e+01 3.462889886240513704e+01 3.387505313482988356e+01 3.287543298140258230e+01 3.164921940845542636e+01 3.132422427145173316e+01 3.145545335036723600e+01 3.144099646790898461e+01 3.143499078617064413e+01 3.121677323198220222e+01 3.065629740919687052e+01 2.995938119905744301e+01 2.928155304936175796e+01 3.038151993160710873e+01 3.152455123131755954e+01 3.273088514702543250e+01 3.392669210574614880e+01 3.496609136162886955e+01 3.553154575719258190e+01 3.519800764156850903e+01 3.405080819953235505e+01 3.257126592986509195e+01 3.116517430746295858e+01 2.968742381931700791e+01 2.830752211178797495e+01 2.705038540587430163e+01 2.591992002619198487e+01 2.490351207474001427e+01 2.398856983086267292e+01 2.316381519702885683e+01 2.242341657200394778e+01 2.173689549329283821e+01 2.110101624525949049e+01 2.049366685983724068e+01 1.980883112951770286e+01 2.033727098259651100e+01 2.023951208943882563e+01 1.969748965840666344e+01 1.895712982984958828e+01 1.788711988017271892e+01 1.895482582014107820e+01 1.956175710526448697e+01 1.963855844203798640e+01 1.955845634750772177e+01 1.900428019737216090e+01 1.802508510719190937e+01 1.918203803327629586e+01 2.046271720647776604e+01 2.164034636645030574e+01 2.231949884537918649e+01 2.219711548272904267e+01 2.131803459553867697e+01 1.999591558477865760e+01 1.858842736805675599e+01 1.725403765763672581e+01 1.859243698502983477e+01 1.983749504567678912e+01 2.107672876276715357e+01 2.226941578132920441e+01 2.344413367569619311e+01 2.459276607767513667e+01 2.565571641791719770e+01 2.669778790296664894e+01 2.775138097425492489e+01 2.858095249676271621e+01 2.904010130654807398e+01 2.879254887895957182e+01 2.792939333357085019e+01 2.677057772654610801e+01 2.549996486574348609e+01 2.421497101295884846e+01 2.296465976229449168e+01 2.176921518684007850e+01 2.063341802428198690e+01 1.955361974910451295e+01 1.852231051817076590e+01 1.747660603513581989e+01 1.881308751068010920e+01 2.006604919472566451e+01 2.123327663227663109e+01 2.228095629258118748e+01 2.314891118156746330e+01 2.386023128907459778e+01 2.475500168454217231e+01 2.579110747777028223e+01 2.690903182513139313e+01
2.280002568816353303e+01 2.396488958763527677e+01 2.502240345536261401e+01 2.596043535303053318e+01 2.659790575816031222e+01 2.666808254908982789e+01 2.611622520996379748e+01 2.511062559571722375e+01 2.387994425687162803e+01 2.256984727560234916e+01 2.127172527321787499e+01 2.005947377693354738e+01 1.900477955918623252e+01 1.945257068047930815e+01 1.903724548242511716e+01 1.937104504588849352e+01 2.069880383044009164e+01 2.162831195401746953e+01 2.271096361642333505e+01 2.386151879468884118e+01 2.496370320464090753e+01 2.600076505394594051e+01 2.698609289366133268e+01 2.793473139802364358e+01 2.883563165847252563e+01 2.979692429780469354e+01 3.080576095119702273e+01 3.188133101914459289e+01 3.288761520403844685e+01 3.383227984766056551e+01 3.451709505033862513e+01 3.487811003679694011e+01 3.482500214659822291e+01 3.440222492464205573e+01 3.377224581469621256e+01 3.293147729983870420e+01 3.199373678211322769e+01 3.094987764371612471e+01 2.994684796340371946e+01 3.045236990307338232e+01 3.033208388184699800e+01 3.039608494513296932e+01 2.976498664855995102e+01 2.932651169962679916e+01 2.850106273536968615e+01 2.975751407475745935e+01 3.095685706819654115e+01 3.212935038692867096e+01 3.328888994763065057e+01 3.437072515943309270e+01 3.522324549409615457e+01 3.556109116374171464e+01 3.500421693805173362e+01 3.378778230179415232e+01 3.221142682836430993e+01 3.039136152442976524e+01 2.878395106045768514e+01 2.729144857219274201e+01 2.604615793084442288e+01 2.493294641300382253e+01 2.393245700634831152e+01 2.303111153103063202e+01 2.221745004857740824e+01 2.148205210434879220e+01 2.081801384377448016e+01 2.021681086661434534e+01 1.967011926758861762e+01 1.915971480172131791e+01 1.950595122411668925e+01 1.937200788378034133e+01 1.891884545247688720e+01 1.833030118945350395e+01 1.747534773265112662e+01 1.836663314403313763e+01 1.863711738545393359e+01 1.857001976247304853e+01 1.849581641085135431e+01 1.821029707365515193e+01 1.742153592048990873e+01 1.878321071476035797e+01 2.006502959740118897e+01 2.116107031495182866e+01 2.180467743637267830e+01 2.167540871195588537e+01 2.084415031734775781e+01 1.972396939221552259e+01 1.836726599316890685e+01 1.680777984364315358e+01 1.826629822944167358e+01 1.944788267204761567e+01 2.048857973506814290e+01 2.155904711387811545e+01 2.263459026877635694e+01 2.367297192603225398e+01 2.474371799764087498e+01 2.591798036725323939e+01 2.702927965071157601e+01 2.801884550754426684e+01 2.863186507649384538e+01 2.856083332656611162e+01 2.788575456474304204e+01 2.684471107218356778e+01 2.564109948764672353e+01 2.437025374747875262e+01 2.309136100110961465e+01 2.183230423387518826e+01 2.060847329778333403e+01 1.942771879278568292e+01 1.829437903397933596e+01 1.715392626102144646e+01 1.862952340125371009e+01 1.992012219860887612e+01 2.097061410396077719e+01 2.176263338194951658e+01 2.238869895369551344e+01 2.269149073907689740e+01 2.370834200784244317e+01 2.479377659104751075e+01 2.595663201367230855e+01
2.197291662197638473e+01 2.308918627475754093e+01 2.418742600042723012e+01 2.516662939883254069e+01 2.588281466001593145e+01 2.611234469706252881e+01 2.573390077475579929e+01 2.494266408727880702e+01 2.380120651400632781e+01 2.251922122690303141e+01 2.119980569345231913e+01 1.989042724624525249e+01 1.857734652180594281e+01 1.859980859361602867e+01 1.971336130650084684e+01 2.053187597945500187e+01 2.150165106588104535e+01 2.248806772221027472e+01 2.351473362099869391e+01 2.458392830074470936e+01 2.565729650555176988e+01 2.671550748404806441e+01 2.776468704803161458e+01 2.880123050766749415e+01 2.981181686800413999e+01 3.074925333902317348e+01 3.171422849237942287e+01 3.265129142778416593e+01 3.354021894356237254e+01 3.418512049282782073e+01 3.452494931908562137e+01 3.448142981426749287e+01 3.409757252080404299e+01 3.353477624424855463e+01 3.279048711970563801e+01 3.197935001658205678e+01 3.105841648698260471e+01 3.007445164127883785e+01 2.898371129734422169e+01 2.932938788197856894e+01 2.922366752168571225e+01 2.934425475240623271e+01 2.882043314804424128e+01 2.773607532479085336e+01 2.871256532473771728e+01 2.981700868147016692e+01 3.099605507854609243e+01 3.220540821264245324e+01 3.340562108582422951e+01 3.451826012174927882e+01 3.537887455468511888e+01 3.562820231438712426e+01 3.496084307062076135e+01 3.376622264352553060e+01 3.231256049189903479e+01 3.079865503131626525e+01 2.937516998397960322e+01 2.830654413962898630e+01 2.712452392284138725e+01 2.602392823920008880e+01 2.500773211788290951e+01 2.406703043987490886e+01 2.318786550711507388e+01 2.235622230651249254e+01 2.157052415732037431e+01 2.089464857514523288e+01 2.024421182913446771e+01 1.950462024883076140e+01 1.854159146637395850e+01 1.816179716085166973e+01 1.778436556420760439e+01 1.742153160086297703e+01 1.707959992589771048e+01 1.763067289981977837e+01 1.759225865167262270e+01 1.739825334400416068e+01 1.727904309404046401e+01 1.719373049221971783e+01 1.683666707729893020e+01 1.838093615877582465e+01 1.968633244591046960e+01 2.072229419557374541e+01 2.131066489410933329e+01 2.116477112531172722e+01 2.032188583986405561e+01 1.906125078849388288e+01 1.771500598820723837e+01 1.636699056866291713e+01 1.759711385196213485e+01 1.856329819919987756e+01 1.953665276471305745e+01 2.054531356599490621e+01 2.156165133113658783e+01 2.263645289429872776e+01 2.384988458858989802e+01 2.509183319685660152e+01 2.635304394309567400e+01 2.746385777446224097e+01 2.817272289588678547e+01 2.816628840923291932e+01 2.754935046302873047e+01 2.670489655740890100e+01 2.564426466280187356e+01 2.443715607745944496e+01 2.317344902860820355e+01 2.187958608274657379e+01 2.058535691439954007e+01 1.931166673554055890e+01 1.807364867408714559e+01 1.682549571062278915e+01 1.831980312558809842e+01 1.943468996537799143e+01 2.029642054130451356e+01 2.095984702511967868e+01 2.119729798804134902e+01 2.244912780948037323e+01 2.364206441254393454e+01 2.483901402226068811e+01 2.605435750581852616e+01
2.111887134282930845e+01 2.224836910849682425e+01 2.333945835073178543e+01 2.430936526987427726e+01 2.502218399262428861e+01 2.542619698598328526e+01 2.524876003707415961e+01 2.448431733089481810e+01 2.353378483122445175e+01 2.233066222348525898e+01 2.104466623529898683e+01 1.969999252440624815e+01 1.817115339323937917e+01 1.917028262963541252e+01 1.993169738636790100e+01 2.081528687753830198e+01 2.173626573790891925e+01 2.268858499973122278e+01 2.367817408550855163e+01 2.470569598559809066e+01 2.575600215477190957e+01 2.681996918314791145e+01 2.793740296405754719e+01 2.908867356168862273e+01 3.024505691229668614e+01 3.136492898659352235e+01 3.235005014832000825e+01 3.319238933763453048e+01 3.382931532011959064e+01 3.416068502207184565e+01 3.411800551202765064e+01 3.374562458892727079e+01 3.320875781367100643e+01 3.250766636893214212e+01 3.176469772531059377e+01 3.094847692109774329e+01 3.013163410896918037e+01 2.924408353902025581e+01 2.811981161194272616e+01 2.821307337904960377e+01 2.812458910011091362e+01 2.830540267581805836e+01 2.785529932961039989e+01 2.725256719248428183e+01 2.854754151989913424e+01 2.976297103109918041e+01 3.099120328238445410e+01 3.223488810299404861e+01 3.346518220742505889e+01 3.460590330927027480e+01 3.549547548324417079e+01 3.578717631550987477e+01 3.521030751671921166e+01 3.405175050295600414e+01 3.264512803117254691e+01 3.120446319081403530e+01 2.984523946062705591e+01 2.860723467936615805e+01 2.743170606742404161e+01 2.632981064578016372e+01 2.529577237910823939e+01 2.431562917179363481e+01 2.336815213690073989e+01 2.242470543229961777e+01 2.141534193514671713e+01 2.073698143937903993e+01 2.007913435545748371e+01 1.942716202846452234e+01 1.965863901473479558e+01 1.952494338271749186e+01 1.918657837381105224e+01 1.857824411296422085e+01 1.783025385638918792e+01 1.668289169053909404e+01 1.639562068486206670e+01 1.613154473038727943e+01 1.586662853483403524e+01 1.598505143656401373e+01 1.712395906359325792e+01 1.834463226364499633e+01 1.946913453899682267e+01 2.028320700488983164e+01 2.078698012145791552e+01 2.064560026434866202e+01 1.988016180094196628e+01 1.881965254529081832e+01 1.745491571072789228e+01 1.595605604937581745e+01 1.664634441735712045e+01 1.747326071055313079e+01 1.838660392268063504e+01 1.938198956690433761e+01 2.046917778113715869e+01 2.166465765351519579e+01 2.296122962013626179e+01 2.434544778354953465e+01 2.573487679138497342e+01 2.695504228204637798e+01 2.770355552083726636e+01 2.764952599443759240e+01 2.699642242903397360e+01 2.609657937336629985e+01 2.517341885545435787e+01 2.419413611577504142e+01 2.307785633556322580e+01 2.183062202010520281e+01 2.052203729653180275e+01 1.918872775396713237e+01 1.785769691660509295e+01 1.649807927793727913e+01 1.778855819101399049e+01 1.878074659899353449e+01 1.954782538482819021e+01 1.979103022830139835e+01 2.111371155605388239e+01 2.238508312159157398e+01 2.363362407380904173e+01 2.485279361608256821e+01 2.605177102646063148e+01
2.030741249745814869e+01 2.141593439878976923e+01 2.246106244920396122e+01 2.335491741377927255e+01 2.412044719017254835e+01 2.462951060620751420e+01 2.463092374988005773e+01 2.401508424013452370e+01 2.289399525817895409e+01 2.164799971370352338e+01 2.035447841007493608e+01 1.909951809689002289e+01 1.791199924956560707e+01 1.911722746427415487e+01 2.012461887368967695e+01 2.104153354215798544e+01 2.193055505056752352e+01 2.282320283504418157e+01 2.376079846571787968e+01 2.474561361696636297e+01 2.573357651979674898e+01 2.667074185046430301e+01 2.784713729318347575e+01 2.907025658608992913e+01 3.029592519204644319e+01 3.146537924161220090e+01 3.249498866742408154e+01 3.329058842087436432e+01 3.371416420220697319e+01 3.371521284156147402e+01 3.336170326179181700e+01 3.283550987548368738e+01 3.214715099760056916e+01 3.142616008702889729e+01 3.064389616657285131e+01 2.988532655118851622e+01 2.911618520576997327e+01 2.840423655058047103e+01 2.778317590853546903e+01 2.698970747961977779e+01 2.703837944429118068e+01 2.729424415517267377e+01 2.662256350882788425e+01 2.755061230922964555e+01 2.861784312572566691e+01 2.977760501589122555e+01 3.099514130151606750e+01 3.224620034174748895e+01 3.349288713776527970e+01 3.465874641457902783e+01 3.559118784380841305e+01 3.597524705613034968e+01 3.552949051912720080e+01 3.436287655468130708e+01 3.291228237996088524e+01 3.143478003892564132e+01 3.004715003097981807e+01 2.876182439172240990e+01 2.756533029613200014e+01 2.644988360539719352e+01 2.540542044903796182e+01 2.443012575431069777e+01 2.351628948207569891e+01 2.263830515839539714e+01 2.271583582983801364e+01 2.212769102802570487e+01 2.136186180269793056e+01 2.045822774604416949e+01 2.077051022506536171e+01 2.071645002146782488e+01 2.021847967016013925e+01 1.948549095588560220e+01 1.875487905662742349e+01 1.796975725134640101e+01 1.742231620188456276e+01 1.694874718523045232e+01 1.634989843614558325e+01 1.548016692879730805e+01 1.691139960244419882e+01 1.803315427786208502e+01 1.889315106333669547e+01 1.967465145269726534e+01 2.016403665636485698e+01 2.005121577000583599e+01 1.933365761665162808e+01 1.826187079591840856e+01 1.698664001345816388e+01 1.555932322414895097e+01 1.654656897238498914e+01 1.751531538986019854e+01 1.853961652131384241e+01 1.962620025367824894e+01 2.077960791595332424e+01 2.200105808164180132e+01 2.327914333218781806e+01 2.457929615597201334e+01 2.581594643182024029e+01 2.682086475290842387e+01 2.726981999884845465e+01 2.703769272875267760e+01 2.630360527368807766e+01 2.534901275103172580e+01 2.434913948396588168e+01 2.342628155275098223e+01 2.249895507670158423e+01 2.150251890322198989e+01 2.029611424376331641e+01 1.899017712537363423e+01 1.761718905383637335e+01 1.617750514611182666e+01 1.728457406542623431e+01 1.817276629758276485e+01 1.847467744939815404e+01 1.982405967658106860e+01 2.110927201557750621e+01 2.234875339307074427e+01 2.353857188043092563e+01 2.462755684556534419e+01 2.565790413408362980e+01
1.952326950071770284e+01 2.058269683902322100e+01 2.152643272612073488e+01 2.237263415406085443e+01 2.311892894331066728e+01 2.369503529033626776e+01 2.387945859959973660e+01 2.363486418240305653e+01 2.278940085837435348e+01 2.164006832699144312e+01 2.035284249111603927e+01 1.902339617032240682e+01 1.765611973241055210e+01 1.883808877523392056e+01 1.973545932399775893e+01 2.059433578344833649e+01 2.142252819168603750e+01 2.222290172974353695e+01 2.313369277238839317e+01 2.414106630598652004e+01 2.499313227718381114e+01 2.635593650474679706e+01 2.769780921219977188e+01 2.902652559244605968e+01 3.030750176802003892e+01 3.147596116791611820e+01 3.243283705063889499e+01 3.304021161654945615e+01 3.322020039702724858e+01 3.294152108197292250e+01 3.243910261670588824e+01 3.175491353600603972e+01 3.103453093305941124e+01 3.025554033965091350e+01 2.950661446719704273e+01 2.874908261781174446e+01 2.804257201553511436e+01 2.736106184912326000e+01 2.678114949132068290e+01 2.659151375441822296e+01 2.596320000726406718e+01 2.648406513899385217e+01 2.621563643474203786e+01 2.738204326175017655e+01 2.854311960613238597e+01 2.973987465360405125e+01 3.097221605775247966e+01 3.223197221746907104e+01 3.348991476268796674e+01 3.467815303256553960e+01 3.566002388925653577e+01 3.618301232772619613e+01 3.588604481303210036e+01 3.492162431200110717e+01 3.368199390547678718e+01 3.242349801603374004e+01 3.118430736326020281e+01 2.999094612054360454e+01 2.884911109863797307e+01 2.773887640967836887e+01 2.674268578249539630e+01 2.580772930338958915e+01 2.491767216574310595e+01 2.402388488490595364e+01 2.400697899442294059e+01 2.335878928200720139e+01 2.244640285170260441e+01 2.160075045056611742e+01 2.189480096655744390e+01 2.172563079239951378e+01 2.105061135032988062e+01 2.030778291178580375e+01 1.944528280303220313e+01 1.860335300046049412e+01 1.783230877069689058e+01 1.709526094908974514e+01 1.629487485755655740e+01 1.523901006549400350e+01 1.641960048016002816e+01 1.730149553221662728e+01 1.815581868126870901e+01 1.892187197466077109e+01 1.942671598695362789e+01 1.936473866544683275e+01 1.871944973632471587e+01 1.775634523613661742e+01 1.666620411542727709e+01 1.518757793745289142e+01 1.628863028602011553e+01 1.737982181792981962e+01 1.851707489101018567e+01 1.969819324393708015e+01 2.091968295380070586e+01 2.217350053763519924e+01 2.343881821131683907e+01 2.467016115647574637e+01 2.576830327471772364e+01 2.656282662947370810e+01 2.674238237744720692e+01 2.627910160964517061e+01 2.549652443747121566e+01 2.449867798294845755e+01 2.345859955722183798e+01 2.246629454382331659e+01 2.158603244570103996e+01 2.072545592463902508e+01 1.983759841970336524e+01 1.871867939443220052e+01 1.737820715908090463e+01 1.586711785310440703e+01 1.684856912040977406e+01 1.727047191459561759e+01 1.856400352817426480e+01 1.978290495063049192e+01 2.094558753519371663e+01 2.198302577508841438e+01 2.290575894948742075e+01 2.383061636887373425e+01 2.470882532453635250e+01
1.876557068328875033e+01 1.973501107524261755e+01 2.060009424276777423e+01 2.125969874056588438e+01 2.196708447992020297e+01 2.254816223426895760e+01 2.306366560143083433e+01 2.311817672405674529e+01 2.260384510485971887e+01 2.160381457304436736e+01 2.035651552943099318e+01 1.896567403601090973e+01 1.737876773462522095e+01 1.814353287532290082e+01 1.897202935284163061e+01 1.977547102253268818e+01 2.054910926206378363e+01 2.108760527941780083e+01 2.212637109398311708e+01 2.326833423074895890e+01 2.476639007460680730e+01 2.621152377505853792e+01 2.762697480310498577e+01 2.899112512127325658e+01 3.025189478829078382e+01 3.131994298537283683e+01 3.204407429240256278e+01 3.246483724465159781e+01 3.248060425476012369e+01 3.203668050308930759e+01 3.136467756695484610e+01 3.063503053031046974e+01 2.984206900254527284e+01 2.908308852409899359e+01 2.831963034333436724e+01 2.760991695380190691e+01 2.691351472525152388e+01 2.626884765984794967e+01 2.563466291279140563e+01 2.578176391782816168e+01 2.530224457674868077e+01 2.566313787125023183e+01 2.645080493539791888e+01 2.731636484988115043e+01 2.857787643909741249e+01 2.979532201897220389e+01 3.103178304535678578e+01 3.229735663833007209e+01 3.356834872231957689e+01 3.478044389028212890e+01 3.580060115911339125e+01 3.639914896092390961e+01 3.623897237255649628e+01 3.546600637151878743e+01 3.447024105772419489e+01 3.337957478061971273e+01 3.226177639253031515e+01 3.114588678027228497e+01 3.002514176352727304e+01 2.902307285392735281e+01 2.808868729697069355e+01 2.719468346939775572e+01 2.630574020426087145e+01 2.550743627493493193e+01 2.528855404880226843e+01 2.445958193747737752e+01 2.366048536495862464e+01 2.285629016926444379e+01 2.301189482509303375e+01 2.254754433671294933e+01 2.162929684399377450e+01 2.051099890839577711e+01 1.942166581004113723e+01 1.840256555478169886e+01 1.745804046862439662e+01 1.657889087974351483e+01 1.576396030254019465e+01 1.499156960620726764e+01 1.570449701987940117e+01 1.645996429421970575e+01 1.727253733853130768e+01 1.803662279781987365e+01 1.857195882658633934e+01 1.857011096668824379e+01 1.800259306129787262e+01 1.712898018355911134e+01 1.607167795795807308e+01 1.481972392417202755e+01 1.604350616457213619e+01 1.726060829523673590e+01 1.850956971975538679e+01 1.977716797219617817e+01 2.105135711000149712e+01 2.231858519748188385e+01 2.354776589372000117e+01 2.469184871541745352e+01 2.561442539852565403e+01 2.617467749883247308e+01 2.613852920600080765e+01 2.550353004257255662e+01 2.457608107045620827e+01 2.357180993197055940e+01 2.251141137187151031e+01 2.149561555166977556e+01 2.056512786643761359e+01 1.974892572281543579e+01 1.894758615886196296e+01 1.809151498956016368e+01 1.701602583455834861e+01 1.557127795439684803e+01 1.620702180820187976e+01 1.736206527302712033e+01 1.844761037836366668e+01 1.941681716519958911e+01 2.026563570328728403e+01 2.107987784456945235e+01 2.191617172743112363e+01 2.273540489204863135e+01 2.360639643105439234e+01
1.802364506423166191e+01 1.893424580530655987e+01 1.967949903737568462e+01 1.991720972844658633e+01 2.063929869763172320e+01 2.145051730024887249e+01 2.206314667764278425e+01 2.242382563570832943e+01 2.224314867088705938e+01 2.148463532045926883e+01 2.040707799333948458e+01 1.920448912618211068e+01 1.810493175278820033e+01 1.697401266781115226e+01 1.813463495576777973e+01 1.868465208739760541e+01 1.960370281366133938e+01 2.092097785782486241e+01 2.218220087220386816e+01 2.347283494575278695e+01 2.484670648749627020e+01 2.624751730261706228e+01 2.762646580756857873e+01 2.892512380670931194e+01 3.005424746965154270e+01 3.084369968778464965e+01 3.141864083746647651e+01 3.159451937931438081e+01 3.155203988008003790e+01 3.102935599333344641e+01 3.027496545124246907e+01 2.944992869839567007e+01 2.866032521174095393e+01 2.787311525739914586e+01 2.714823183848418253e+01 2.644218155422359828e+01 2.579400306437957013e+01 2.516743765781006203e+01 2.448740389921402993e+01 2.483386208258899686e+01 2.594599329873429738e+01 2.675057169040790939e+01 2.749740646207587247e+01 2.843867152296152057e+01 2.884043069942502413e+01 2.994909866819558886e+01 3.113164900780045485e+01 3.239156489295971397e+01 3.367510008994658222e+01 3.491533932945125684e+01 3.595242855549275163e+01 3.658041572436206934e+01 3.649651025137023197e+01 3.590934589671129373e+01 3.507497244422059168e+01 3.412520712813793011e+01 3.312120939724172075e+01 3.205921265723035418e+01 3.110448419726931846e+01 3.022075341113654190e+01 2.937067544838314248e+01 2.850429598533918707e+01 2.773325748778531974e+01 2.703872265965562249e+01 2.644172003015236072e+01 2.571361939966349297e+01 2.495774320633609022e+01 2.419054653768129981e+01 2.406782994062642800e+01 2.328812749139955685e+01 2.232504169531610216e+01 2.129402532953870519e+01 2.026460704068766105e+01 1.926420057109009321e+01 1.834469798908859417e+01 1.748375789111324252e+01 1.674468238012264365e+01 1.583489061794626807e+01 1.461060063839464007e+01 1.545822312504917662e+01 1.625235636714363352e+01 1.703061859289083557e+01 1.760353506620459640e+01 1.765673380412757609e+01 1.717469961364778186e+01 1.638979810180842378e+01 1.551477218965736249e+01 1.446140942076754676e+01 1.584274052349051409e+01 1.719152386003012722e+01 1.852626054173310166e+01 1.982774705531772952e+01 2.107790132063480826e+01 2.227653822332451838e+01 2.335981358821626586e+01 2.429980773041261699e+01 2.512191385558346823e+01 2.562554078921922951e+01 2.545865819140065156e+01 2.469960145104510829e+01 2.367065890244002446e+01 2.256884380438983939e+01 2.151922896729816514e+01 2.049864904993177106e+01 1.956103520650989580e+01 1.871800698685602171e+01 1.797643038315205644e+01 1.723947919911847038e+01 1.641294417006372086e+01 1.528994849502746867e+01 1.622314321432394379e+01 1.704768580521446708e+01 1.779013479023343791e+01 1.850811282914443368e+01 1.922608288456155989e+01 1.998807457175437463e+01 2.075784848796455861e+01 2.159184015151858915e+01 2.244814648976711879e+01
1.734249709673769857e+01 1.820105823353210184e+01 1.853507325920922355e+01 1.851660666967055846e+01 1.940398946490774179e+01 2.024134511154271010e+01 2.103411901741537093e+01 2.160122164930321631e+01 2.171612065115977330e+01 2.128127754266509086e+01 2.037325468454826094e+01 1.923452475399811590e+01 1.801447386885805102e+01 1.672048251593748347e+01 1.746941135485118579e+01 1.864002842070647858e+01 1.979084564951680747e+01 2.102309867757496775e+01 2.230295003271483978e+01 2.361895499577197555e+01 2.496275434921787806e+01 2.630060184653590838e+01 2.757332466295220286e+01 2.870955439764696493e+01 2.952967483594565934e+01 3.022004553253754366e+01 3.048360424890066867e+01 3.052050102669988263e+01 3.047607593612513810e+01 2.995078633248676780e+01 2.915956569771842055e+01 2.829413934640432515e+01 2.745206378693401206e+01 2.668964457479649965e+01 2.595909172330675929e+01 2.529575734407677601e+01 2.466036433470135947e+01 2.397922039039774589e+01 2.506335408398228637e+01 2.588097337626172845e+01 2.671767933925396576e+01 2.761666638582452649e+01 2.849116303955355178e+01 2.935399652706544771e+01 3.018494575849775430e+01 3.110190679503808298e+01 3.220691149793952945e+01 3.333316935239737688e+01 3.449304887550286480e+01 3.550714449594702415e+01 3.632642446783386703e+01 3.668522953506290918e+01 3.648927264079754451e+01 3.591521101080609668e+01 3.515742972841539427e+01 3.432180980390617719e+01 3.345789401804378116e+01 3.262204962766252692e+01 3.185309376445691143e+01 3.114811103052972641e+01 3.040526844707803278e+01 2.972699846604346874e+01 2.906162915846175920e+01 2.837175907132057517e+01 2.771706953918979721e+01 2.700789985007892113e+01 2.624850514062318751e+01 2.557136223138799025e+01 2.499824556752765758e+01 2.413940532448786414e+01 2.317608718984074656e+01 2.215586697895815860e+01 2.111337702950793727e+01 2.013142707752963645e+01 1.920595592518669292e+01 1.843858843216304777e+01 1.754377252132898946e+01 1.658953548425486701e+01 1.542312588571028442e+01 1.418810036315226597e+01 1.512443829625350311e+01 1.592058024891173496e+01 1.653515132386491970e+01 1.661167456692595223e+01 1.626590346689765809e+01 1.547257772650405627e+01 1.472130182299063783e+01 1.408521095918375288e+01 1.574844183358421823e+01 1.719217040291445997e+01 1.851787160753873351e+01 1.972876908044006328e+01 2.077889974947018104e+01 2.171685916271134076e+01 2.264263776629968561e+01 2.362142494505464185e+01 2.452273278694052294e+01 2.499731597253620663e+01 2.472978848131260321e+01 2.387575568752350819e+01 2.276639177052874885e+01 2.159601284495056817e+01 2.047627615216880770e+01 1.947369903574356442e+01 1.854273460287219777e+01 1.770713342451785621e+01 1.696293356558139820e+01 1.630789544059778251e+01 1.568495836179579150e+01 1.502119205864486595e+01 1.554049357797435960e+01 1.609298017114665313e+01 1.669519914606851074e+01 1.734130768926580402e+01 1.803213036796976354e+01 1.877055813572974685e+01 1.956546857166444298e+01 2.042839253066297189e+01 2.138821362539052373e+01
1.672353426562001388e+01 1.726598487740159271e+01 1.734108891437665889e+01 1.717898318206889030e+01 1.811829614176580350e+01 1.907150641413222658e+01 1.995514697338554555e+01 2.061614733082309669e+01 2.100570264721750036e+01 2.085698760306181399e+01 2.018660950376511920e+01 1.912967115438358334e+01 1.787475469201433143e+01 1.648334165642827642e+01 1.757953386375141847e+01 1.871790642898381662e+01 1.991841221843709775e+01 2.117035316850931537e+01 2.245681719324892001e+01 2.375703733801332262e+01 2.503728006162559439e+01 2.625929416249601900e+01 2.731933231688829977e+01 2.812342333951943729e+01 2.894255860357796806e+01 2.929179261859116323e+01 2.936558111056890041e+01 2.931102257254357468e+01 2.925217602385706073e+01 2.886186941699371644e+01 2.802953043339400452e+01 2.714147815150925069e+01 2.628240006333248502e+01 2.549521032467637482e+01 2.479920868930658884e+01 2.414446402838560601e+01 2.344394544126389235e+01 2.461426030014837707e+01 2.565237710069794019e+01 2.663569304513939429e+01 2.755603320018531477e+01 2.849836626284205110e+01 2.942452131524124326e+01 3.036495055009448052e+01 3.127434070186601645e+01 3.223704355232467833e+01 3.322410437437561370e+01 3.426901984610353225e+01 3.521358399549500007e+01 3.603477987907635338e+01 3.650526345091718383e+01 3.652298172807403631e+01 3.611181896223380505e+01 3.539295492656403042e+01 3.460487356538005344e+01 3.380688304592092663e+01 3.305667674639561682e+01 3.243157174212815619e+01 3.188031939143230176e+01 3.150030789768381467e+01 3.110958940323289923e+01 3.067059559524384582e+01 3.011206296959438333e+01 2.954749294602632759e+01 2.892667142674387293e+01 2.820914357243690063e+01 2.750978353030512480e+01 2.680048197353847783e+01 2.599440160512697062e+01 2.509316112673642962e+01 2.409939913845689219e+01 2.303144764913129450e+01 2.198342772714977400e+01 2.094980936548681782e+01 2.006617352021589085e+01 1.905417492099854471e+01 1.801804626426969591e+01 1.695067267236144204e+01 1.594692236244820727e+01 1.491908908178930915e+01 1.376449603013398182e+01 1.473420701492341145e+01 1.540504241748588932e+01 1.553495145990029336e+01 1.519724673658856950e+01 1.438063223886870290e+01 1.349953348275382581e+01 1.485907285368748987e+01 1.602225984248607205e+01 1.721795314876235850e+01 1.829814402704825937e+01 1.916495046761378873e+01 1.990808137130041899e+01 2.077879350486488619e+01 2.170678654219836545e+01 2.292078439061291562e+01 2.394428354838247941e+01 2.434715129529153188e+01 2.397334856594312669e+01 2.304171892093784280e+01 2.186562329478236322e+01 2.063670742671185820e+01 1.946571855041312560e+01 1.841067846616044079e+01 1.750113082200887504e+01 1.668078226738067826e+01 1.595346474192617947e+01 1.531552681218471079e+01 1.463362107775848742e+01 1.581842155188882693e+01 1.660167710979993316e+01 1.725652133871589911e+01 1.787666631831874042e+01 1.853134728098229900e+01 1.922106996338576224e+01 1.995171693635158761e+01 2.073060113381127323e+01 2.156876581362628542e+01 2.248438754562901210e+01
1.592276201851739437e+01 1.616015184222276702e+01 1.612407657320930454e+01 1.591013412262013915e+01 1.692464998954006816e+01 1.791979573521959423e+01 1.881126127519801017e+01 1.961219974288022172e+01 2.016516952203199509e+01 2.022542907144866575e+01 1.974571573504729827e+01 1.889507854053450941e+01 1.768041689158043184e+01 1.623671901358204295e+01 1.749157368160724957e+01 1.872565863666402208e+01 1.998308538052529570e+01 2.124409130795693201e+01 2.249505765209812580e+01 2.371484840449218012e+01 2.482055698744008154e+01 2.577438397407546944e+01 2.660003446120938619e+01 2.752359361452494824e+01 2.810788326819803018e+01 2.820837663072555301e+01 2.814890505268691712e+01 2.803135338419236788e+01 2.796054681243540685e+01 2.768927221917993009e+01 2.691022033649576883e+01 2.598561440422429669e+01 2.511842848273331796e+01 2.433381070420444203e+01 2.363848396206243052e+01 2.291188161347887586e+01 2.410862104204949929e+01 2.520015831030084641e+01 2.629346817255828128e+01 2.734218522284620789e+01 2.837074764884458133e+01 2.935950915507449110e+01 3.036096245954126971e+01 3.132720080633271920e+01 3.230685146851725875e+01 3.324257456298179392e+01 3.419774734458280818e+01 3.505982802756590644e+01 3.582793745591813206e+01 3.629796952922811215e+01 3.638105733713422296e+01 3.605634210303242071e+01 3.538869423060793196e+01 3.458988381984102034e+01 3.368983563960085093e+01 3.285096090325524898e+01 3.209122070190620946e+01 3.145271577205728875e+01 3.099491034872241002e+01 3.109092841115757722e+01 3.115971039256418607e+01 3.109253311049226198e+01 3.084590174505667903e+01 3.045391288545829411e+01 2.989388623373504572e+01 2.929730016483577515e+01 2.863338082602088619e+01 2.785462150017240290e+01 2.702050795444328912e+01 2.607804878758105005e+01 2.501539592890084052e+01 2.393185632718494915e+01 2.279391436596793952e+01 2.160921430796542353e+01 2.027259857276931498e+01 1.900754552646545292e+01 1.783309818839212113e+01 1.676826849965552668e+01 1.581171040482660395e+01 1.495489132559275625e+01 1.442376621672092618e+01 1.335408427004661114e+01 1.424520477917411121e+01 1.454157740918542707e+01 1.408717962685137515e+01 1.292211419469902012e+01 1.397076850436767081e+01 1.505552842102019007e+01 1.608864554603476549e+01 1.697078872453136000e+01 1.760037828002374383e+01 1.825386571912173039e+01 1.862479626300716262e+01 1.984302779509126680e+01 2.130632100220347169e+01 2.257219700939677409e+01 2.350985194787767085e+01 2.373734341333333475e+01 2.317779566476364295e+01 2.220623652287540040e+01 2.097281086045338938e+01 1.969088916537610956e+01 1.847202559180742298e+01 1.737388582075571009e+01 1.642563376777506079e+01 1.562764333078258971e+01 1.492859118086485104e+01 1.419008583601764073e+01 1.555757017023046096e+01 1.665936260604277308e+01 1.755265140797687451e+01 1.830942149877965974e+01 1.901996071163549828e+01 1.968941248310595427e+01 2.039269266671227498e+01 2.112757522568752222e+01 2.190160673462922958e+01 2.272423248149821973e+01 2.360869036628855255e+01
1.481720172644478239e+01 1.495527834710244619e+01 1.491746577146651909e+01 1.474177104955640161e+01 1.579675102680335463e+01 1.676756402218355646e+01 1.770798321687739829e+01 1.855741257608387684e+01 1.919607599505443929e+01 1.941085316232815217e+01 1.919309961505799933e+01 1.841301451420871871e+01 1.740397373736515263e+01 1.598645825211020721e+01 1.737362339181984794e+01 1.866937111887354206e+01 1.993148530194824275e+01 2.110255759815843746e+01 2.219744024914701797e+01 2.317511919001637821e+01 2.409806840689311258e+01 2.495202347991508063e+01 2.597353149618141543e+01 2.679103286591008981e+01 2.708589849250896009e+01 2.703615146411166847e+01 2.689385303711841857e+01 2.673329101529158436e+01 2.664249738791777489e+01 2.645158241751417449e+01 2.572425280732089803e+01 2.483270393607327620e+01 2.394363276144557418e+01 2.317361184136894181e+01 2.238678856239789638e+01 2.359447726241210574e+01 2.470421119860194992e+01 2.583801910692215742e+01 2.695538273835856202e+01 2.807572763342970745e+01 2.915227575856772546e+01 3.022508557810711594e+01 3.124999488019939520e+01 3.227570429292032372e+01 3.323274367896073045e+01 3.416960346147930494e+01 3.498470554993620141e+01 3.569746218769942203e+01 3.613250853148169028e+01 3.621775676188378412e+01 3.592414176365605982e+01 3.529049949624849347e+01 3.450112076724181520e+01 3.356408250060475496e+01 3.263321167126287037e+01 3.169525777493333152e+01 3.086893520224683485e+01 3.015801426944215180e+01 2.959047869547366716e+01 3.003612048336971796e+01 3.058624073306835456e+01 3.090426999994094359e+01 3.101538005060867675e+01 3.087349438858922923e+01 3.055047870121801878e+01 3.011067881258648526e+01 2.950178324639507821e+01 2.881532898191093750e+01 2.799486066242556959e+01 2.700303083948579186e+01 2.595017654901216986e+01 2.479871885309313839e+01 2.362254446576901756e+01 2.236559648510842990e+01 2.112116825556284283e+01 1.990456574735201656e+01 1.879292831861112134e+01 1.775803398532312727e+01 1.684009363809513360e+01 1.602239844030118476e+01 1.517304630180591829e+01 1.417937088465463447e+01 1.294851646269476753e+01 1.358387060843261196e+01 1.347505164346664763e+01 1.256999243002874422e+01 1.385798915485312932e+01 1.486359725883897376e+01 1.563553357642165587e+01 1.624562013222122658e+01 1.655117611994377569e+01 1.688821336255010408e+01 1.828723554826609288e+01 1.963358999896344770e+01 2.098710176430202523e+01 2.220939961349877478e+01 2.307853194381820927e+01 2.319246399715765605e+01 2.249832185265589857e+01 2.136599467901804417e+01 2.009670770879537471e+01 1.876076179288078549e+01 1.749665354022698693e+01 1.635406828345584174e+01 1.535840268326660407e+01 1.455421326963178963e+01 1.374783642698242403e+01 1.507319070789329096e+01 1.626400220065892555e+01 1.738945475846566779e+01 1.840992799569864147e+01 1.927291240378168879e+01 2.005913079897928952e+01 2.082598390831495649e+01 2.154677209522930781e+01 2.230076021160694211e+01 2.308234800532913766e+01 2.390007461982561310e+01 2.476380608895179236e+01
1.358578424970000320e+01 1.370757702824478486e+01 1.374113029431501154e+01 1.368318754341875554e+01 1.473043583174004567e+01 1.568485435395774985e+01 1.658575730529647529e+01 1.743053559195636026e+01 1.805511643303956504e+01 1.854290437208086573e+01 1.848979740127777305e+01 1.791417296419029270e+01 1.689581425255392944e+01 1.574260906829908180e+01 1.712046692488832988e+01 1.830379313823557652e+01 1.937006300275789883e+01 2.042363749101222226e+01 2.138470570008493965e+01 2.230795985168722240e+01 2.319952791746275267e+01 2.430239120996044733e+01 2.528896039799904116e+01 2.590310814643493842e+01 2.598011223450145835e+01 2.583156522725971271e+01 2.564296751830879018e+01 2.545258565866298639e+01 2.532163084405100406e+01 2.517243717747511411e+01 2.447283827141118451e+01 2.360816210423353212e+01 2.275403470872710443e+01 2.186634712070944886e+01 2.307837372269058918e+01 2.419544758469638168e+01 2.534672875686494820e+01 2.649566812521269910e+01 2.766650873891037321e+01 2.880994627874584424e+01 2.995702957165992686e+01 3.105033536939863836e+01 3.213355892616083764e+01 3.313373452826592569e+01 3.409325019380027300e+01 3.490532690299733076e+01 3.559029921031747534e+01 3.599139393344518112e+01 3.605599896034277663e+01 3.577054418892245025e+01 3.516163253087910334e+01 3.439288890380639430e+01 3.345500964192790150e+01 3.248946772260167393e+01 3.147302963010493571e+01 3.051515010902928893e+01 2.958818225544180081e+01 2.877996112156124653e+01 2.804516291855328092e+01 2.890578062863993480e+01 2.962431358248705493e+01 3.020935436156001686e+01 3.062070208890530765e+01 3.069971162737542869e+01 3.060998550445130562e+01 3.042937674260848979e+01 3.008760983707802694e+01 2.956605142470537118e+01 2.879528967000149464e+01 2.789260888228134050e+01 2.682220228871705814e+01 2.569843622385089077e+01 2.447920881342532340e+01 2.326229888615005947e+01 2.202963627862698104e+01 2.087785082972007089e+01 1.978016612897266668e+01 1.879253242820447767e+01 1.787767533984332502e+01 1.699338160405985221e+01 1.602830324494789238e+01 1.497558114192201906e+01 1.386878704045610533e+01 1.255943324627897084e+01 1.285939707697826151e+01 1.226783080721131114e+01 1.339586217192421991e+01 1.422018705964753593e+01 1.486918006234525969e+01 1.516017756477503475e+01 1.527376860583791540e+01 1.662502182102259241e+01 1.796837516340292140e+01 1.933055524950508186e+01 2.066717096617206195e+01 2.186100127496250067e+01 2.268515145176873560e+01 2.273674412082754870e+01 2.194982923358899285e+01 2.065558776829998777e+01 1.922456006638521941e+01 1.782695897663818485e+01 1.652005575252230329e+01 1.534060334259119607e+01 1.429732682120862819e+01 1.333982209503788319e+01 1.437775965935261979e+01 1.534948082744090847e+01 1.647012612647888830e+01 1.763170611955204592e+01 1.879100664790151498e+01 1.991017879994605622e+01 2.090614779278320157e+01 2.177588962157986430e+01 2.262113024783964121e+01 2.339743323921520712e+01 2.420062824440865512e+01 2.502509689078788568e+01 2.587884282502759703e+01
1.223994318588235153e+01 1.239431151158039590e+01 1.254636182057136828e+01 1.269518236143280987e+01 1.382671488415281402e+01 1.453725343747674437e+01 1.541576039180047530e+01 1.620395416693792612e+01 1.699556484374356913e+01 1.755750486218360606e+01 1.760850001629766837e+01 1.737793934174066379e+01 1.669471976842110905e+01 1.550371462025304758e+01 1.643811060424933501e+01 1.743876751404758352e+01 1.851346765800832372e+01 1.949918704967288008e+01 2.044829678977731646e+01 2.138003897273889464e+01 2.254347642130350948e+01 2.366332083704476474e+01 2.455344682283510593e+01 2.488101677355285091e+01 2.482673417347483991e+01 2.462821551756286098e+01 2.442344307025824435e+01 2.421676488403526406e+01 2.401276934530413243e+01 2.386656156966616393e+01 2.316761641285423678e+01 2.231481390034235801e+01 2.134661041647696322e+01 2.254875293200375808e+01 2.367492851660774988e+01 2.483620209920855970e+01 2.600273154802849973e+01 2.720144869630877338e+01 2.838540394844536863e+01 2.958595246708460280e+01 3.074001508961730167e+01 3.188442961350821392e+01 3.293792088915661509e+01 3.393790456106010112e+01 3.477210686334230871e+01 3.545606047143810002e+01 3.583688336214893155e+01 3.587398489578965410e+01 3.558398399798782208e+01 3.499615048093352954e+01 3.426161183216049011e+01 3.335342784356871704e+01 3.239591882061505146e+01 3.135840802176950604e+01 3.034472913517793558e+01 2.932347421765016904e+01 2.837472870069986541e+01 2.746774823750843808e+01 2.662998871564197145e+01 2.764379974742529811e+01 2.854054769258409152e+01 2.935029919773586826e+01 2.986209890282437485e+01 2.995204345301366544e+01 2.997739212282113286e+01 3.012975751227217458e+01 3.014730663781148579e+01 2.992362982427557228e+01 2.941807679176898560e+01 2.861974749686348929e+01 2.767446916829312187e+01 2.656033369281586332e+01 2.540805799960610045e+01 2.419191821763349637e+01 2.302561450697629297e+01 2.188255210417249330e+01 2.084104420943279123e+01 1.986737788067150490e+01 1.894482456525049230e+01 1.797384558371772201e+01 1.694773680982422803e+01 1.586683262974080399e+01 1.473683154543219409e+01 1.357925556701354353e+01 1.219517048651723279e+01 1.197175949301863973e+01 1.273076911317905946e+01 1.346693602773367360e+01 1.378641557711737420e+01 1.382563755271923078e+01 1.508449837706206687e+01 1.635152874291039993e+01 1.767442691129492616e+01 1.902760069716621771e+01 2.035300853603435201e+01 2.153041194751403964e+01 2.233342923686678816e+01 2.237809858918396344e+01 2.160565683104920254e+01 2.046334357302718487e+01 1.916526774127187593e+01 1.784477318112767819e+01 1.656702032681155146e+01 1.535857256060175402e+01 1.422319629887031311e+01 1.309686870387342594e+01 1.419634159149990360e+01 1.527745215700814008e+01 1.640812191133932529e+01 1.758578066184107058e+01 1.879658702411988003e+01 2.001689543066241228e+01 2.121188492843458206e+01 2.235778254924830932e+01 2.338409462432052166e+01 2.431370717479710208e+01 2.513637890430682376e+01 2.597883606757428154e+01 2.683166525708787731e+01
1.352645473301251933e+01 1.361121677478746861e+01 1.368400447726343572e+01 1.373271082695470291e+01 1.293066728748613770e+01 1.310031845770510728e+01 1.429817420876271861e+01 1.502600408228308027e+01 1.585980512006162968e+01 1.647759838271475630e+01 1.657005267938978932e+01 1.655504955475369755e+01 1.633499697696750630e+01 1.582367390653583961e+01 1.515541260356115849e+01 1.653526834020480152e+01 1.759305201477474156e+01 1.857254676444511077e+01 1.954202479571209494e+01 2.073425852664196967e+01 2.195106255399188910e+01 2.303348752473884886e+01 2.370728166075602772e+01 2.379936624011111590e+01 2.365809610632894788e+01 2.344636254069805759e+01 2.325106800260672202e+01 2.304985508565147967e+01 2.272203584241249530e+01 2.254480881787398161e+01 2.182101685775469235e+01 2.082755049455592200e+01 2.203201889049630324e+01 2.315493218679982235e+01 2.429460101822762397e+01 2.548084124205210443e+01 2.669966655111328180e+01 2.791136358404584783e+01 2.914879080489299668e+01 3.034889092136761235e+01 3.154633536793002691e+01 3.265359078494803668e+01 3.370232861009881020e+01 3.457265007612276975e+01 3.527393465721047505e+01 3.564883547967796318e+01 3.565800979443834251e+01 3.534713359641005326e+01 3.476101785377884568e+01 3.406114586878594253e+01 3.320986283848091603e+01 3.230417096678227296e+01 3.129603596461037540e+01 3.028014000849371001e+01 2.922668393336492088e+01 2.821475523346135006e+01 2.721379000342517429e+01 2.628341919355109724e+01 2.535756833642124164e+01 2.646516089013837458e+01 2.752696701530617673e+01 2.846299926938078428e+01 2.885918221484765667e+01 2.887568073069656194e+01 2.886231949355928705e+01 2.927685904317307575e+01 2.966408804528138177e+01 2.982920033681237015e+01 2.968444792342928551e+01 2.919338380544123979e+01 2.838147478384024680e+01 2.741864654506680310e+01 2.630007870504316614e+01 2.517286339045690369e+01 2.401754850216489601e+01 2.294379056257852056e+01 2.192768048329141450e+01 2.097099484315107176e+01 1.997461270834603297e+01 1.894509690399369362e+01 1.788017795498193152e+01 1.678512105220101347e+01 1.567279436168926132e+01 1.456592520375553867e+01 1.358377062398461277e+01 1.282284433539314961e+01 1.168891487172686006e+01 1.247632341255411248e+01 1.252687573167042068e+01 1.366660048671038297e+01 1.483726986902606626e+01 1.606340496921952976e+01 1.737131971193590729e+01 1.872163345868651518e+01 2.004474310812748428e+01 2.121418039426042057e+01 2.200309596856287087e+01 2.208602139265515518e+01 2.147996040336764523e+01 2.044381013242867695e+01 1.921571852099946653e+01 1.791494744241912684e+01 1.661217224140318649e+01 1.533745146143968618e+01 1.410297923439564016e+01 1.286441160452897670e+01 1.398591293697047888e+01 1.509971124946828525e+01 1.622835998756756481e+01 1.740655973381955945e+01 1.863370909534220843e+01 1.989474671477992374e+01 2.116425876093239111e+01 2.240982145587195262e+01 2.359054336272444985e+01 2.468270738948194065e+01 2.568013658853262271e+01 2.656321245199589498e+01 2.741822371752433440e+01
1.479886094469192770e+01 1.482185991402492498e+01 1.482574365310114928e+01 1.481607426697722296e+01 1.411687425554368858e+01 1.417250330590706753e+01 1.335436554838175027e+01 1.353599765331185090e+01 1.476699403990300929e+01 1.531192783521057876e+01 1.540760835488232061e+01 1.550953860021584063e+01 1.553712032766978623e+01 1.542662775875755266e+01 1.491783279391688488e+01 1.576347124888752482e+01 1.668720912231928466e+01 1.772369223687043416e+01 1.889576313081006731e+01 2.016261476586747747e+01 2.142131593245371235e+01 2.239118473350898242e+01 2.275136777437466407e+01 2.266757942576575502e+01 2.249040090737321407e+01 2.229653384216128487e+01 2.212879681700555778e+01 2.212119418158494000e+01 2.143183748570450931e+01 2.121870373342964555e+01 2.031722915722674827e+01 2.152223411098930228e+01 2.264464328735963150e+01 2.377954152265006016e+01 2.495755809457173768e+01 2.615058822242366787e+01 2.739233725466489844e+01 2.866028014419019598e+01 2.989824144675164774e+01 3.114060867405830635e+01 3.229767390907938562e+01 3.339737199839227344e+01 3.431246790899544408e+01 3.504573977144445962e+01 3.543061672110453486e+01 3.542129976675627034e+01 3.507844352736154292e+01 3.446050980433219735e+01 3.375506953357768225e+01 3.294348726086076340e+01 3.212378018294440096e+01 3.120872594367240183e+01 3.025129095594583717e+01 2.921912514850564335e+01 2.819453732024428660e+01 2.715531582310490322e+01 2.616299207973935381e+01 2.518986438165281072e+01 2.423215576153979356e+01 2.543716339639139434e+01 2.660591443526332611e+01 2.749922543983010215e+01 2.778926259777769303e+01 2.765474897058513903e+01 2.751249600707692267e+01 2.817733990427782942e+01 2.877727819484910654e+01 2.930381788662271703e+01 2.955010501759426589e+01 2.944049808479400809e+01 2.895153538635076629e+01 2.813223934294558148e+01 2.717224781345217011e+01 2.608273217748082118e+01 2.501829353737188910e+01 2.397808564358173911e+01 2.298839241677825029e+01 2.194973313399315984e+01 2.088729180211153391e+01 1.980563475508983728e+01 1.870981329811102967e+01 1.760894955899607695e+01 1.651926836762437034e+01 1.547023675350998850e+01 1.449526302117755172e+01 1.355089282792482308e+01 1.254779208282740655e+01 1.137818340534898631e+01 1.230123350201651888e+01 1.336490657334039156e+01 1.455648605705056120e+01 1.567668176882158981e+01 1.703215223194674977e+01 1.841318911050889895e+01 1.975149326201105993e+01 2.091824594823324546e+01 2.163785404133052026e+01 2.170942652565112851e+01 2.112047609336353204e+01 2.025732603051854852e+01 1.915612648335966384e+01 1.790473487639913230e+01 1.661091296671993334e+01 1.529998722825713386e+01 1.398230136006831081e+01 1.262764663885545957e+01 1.389922525596991498e+01 1.509556131947414137e+01 1.610816156668866128e+01 1.729604351423603603e+01 1.855386693805300524e+01 1.985250041290882805e+01 2.115946716753032675e+01 2.243477814193106212e+01 2.363097172859401240e+01 2.470524827506990562e+01 2.565358267701740047e+01 2.649342550666951723e+01 2.732125751287779636e+01
1.609263212287098810e+01 1.607033716201514650e+01 1.601573820750838806e+01 1.596823695158099454e+01 1.529592690845259462e+01 1.519515169364223084e+01 1.493438838953827918e+01 1.474485219558589755e+01 1.379257874739895051e+01 1.396790185904556125e+01 1.412213322776331914e+01 1.427626065129440036e+01 1.442646868306297669e+01 1.462679860090669237e+01 1.557301537591589558e+01 1.639022595781110425e+01 1.725969149588296858e+01 1.814429357016343047e+01 1.914719178258957299e+01 2.013695067634302305e+01 2.100223760411828167e+01 2.166326906207688197e+01 2.175525599798885423e+01 2.149077783945751463e+01 2.133555377547637733e+01 2.118572255788526348e+01 2.100446073544183179e+01 2.108756262854240404e+01 2.059001607090492314e+01 1.982659938135812894e+01 2.102448263213915780e+01 2.214236449169716892e+01 2.327702254523459757e+01 2.445261860048874070e+01 2.563760076634246943e+01 2.686909495820274785e+01 2.810760695377880580e+01 2.938849633975254250e+01 3.067383235439471534e+01 3.188042608190590599e+01 3.303385323915038896e+01 3.400155400912076686e+01 3.478089695065595777e+01 3.519467593729104493e+01 3.518769926475300025e+01 3.481942963620894460e+01 3.415602313787067601e+01 3.340034118086755655e+01 3.254769254546625490e+01 3.174179637027780387e+01 3.094415245562327499e+01 3.014973239104254432e+01 2.922327596248923953e+01 2.824358739975878052e+01 2.720915981074325174e+01 2.619376210077718525e+01 2.517958810943509107e+01 2.421386637145886667e+01 2.322865935528003689e+01 2.452650733151815743e+01 2.567753294285221344e+01 2.653576127472800650e+01 2.674480460223737310e+01 2.641096811517344634e+01 2.609350249575429714e+01 2.690123238717593424e+01 2.773667670609384928e+01 2.845149209103874099e+01 2.904468882392022522e+01 2.932130077354451814e+01 2.920964742052239416e+01 2.870261752960515267e+01 2.786900815853094571e+01 2.691852150018917555e+01 2.589631530509649693e+01 2.487747882506908681e+01 2.377305634038016180e+01 2.263890312980319663e+01 2.149464581217165104e+01 2.035214381826802921e+01 1.921880465263544480e+01 1.810307389739145023e+01 1.701568707962161753e+01 1.596834963772863247e+01 1.496366168322822077e+01 1.398128215575248667e+01 1.299936838167092468e+01 1.203715479541907385e+01 1.108400276049631294e+01 1.237138803045422364e+01 1.367390309781844948e+01 1.515262308921043477e+01 1.658566975755688233e+01 1.798744518151583804e+01 1.931328643995402317e+01 2.044890596603583433e+01 2.119848274257160980e+01 2.124810878014357840e+01 2.060823355543956836e+01 1.964680872649993049e+01 1.863996802231453742e+01 1.758589806268164324e+01 1.642701236775530305e+01 1.519684318711176907e+01 1.385523693018136093e+01 1.239039040234599121e+01 1.342022071108683079e+01 1.451289791837956322e+01 1.587517701907326639e+01 1.721795134282074713e+01 1.856957708718724476e+01 1.992094337071215904e+01 2.124040920901896712e+01 2.247578031582342106e+01 2.356018642934726159e+01 2.440895982745264448e+01 2.503440288938935154e+01 2.576082438839997124e+01 2.655782684201316712e+01
1.737104971062398562e+01 1.733226241790616484e+01 1.722491338146324935e+01 1.704507615398699372e+01 1.665440923169045817e+01 1.647785476008555605e+01 1.634064682575011673e+01 1.594333845183508735e+01 1.497126009968691207e+01 1.512872199476272250e+01 1.524163685959303294e+01 1.535284914769422215e+01 1.544259276996491437e+01 1.471709915832240334e+01 1.559848647102557884e+01 1.627187323853708634e+01 1.710986686540244861e+01 1.793182773490018178e+01 1.872206876974288647e+01 1.952721967596866293e+01 2.031841085964306259e+01 2.082158318868729907e+01 2.079446920045615954e+01 2.023880531377984937e+01 2.020821868365413110e+01 2.013666589316508748e+01 1.987191327742741365e+01 2.001222127066479928e+01 1.936568093672934410e+01 2.055806690480541477e+01 2.164402495661927617e+01 2.278315708671213713e+01 2.395807857072581726e+01 2.514253004877405573e+01 2.637090498989574172e+01 2.760057037723588635e+01 2.887200010643122283e+01 3.012601000566943554e+01 3.139402860513697391e+01 3.260869915831049326e+01 3.364197422538519788e+01 3.448516407633038483e+01 3.495044425844632485e+01 3.497364951818980927e+01 3.460033925425042867e+01 3.390341469920524986e+01 3.309263970415744893e+01 3.216594876110504941e+01 3.127561827896605706e+01 3.039749737039713651e+01 2.965909179300339460e+01 2.908723427132730777e+01 2.827924973979284573e+01 2.731831662902460067e+01 2.631814260641343850e+01 2.528987033316716548e+01 2.429266701685223850e+01 2.330881712983290655e+01 2.232417267860483179e+01 2.363849610096556830e+01 2.477367670376201048e+01 2.559151898354563670e+01 2.577888794510997528e+01 2.529677030000332039e+01 2.465181155818316583e+01 2.565393561717562676e+01 2.657945530624099106e+01 2.748869489884939199e+01 2.824874090177011254e+01 2.886042790817409553e+01 2.912355333263560553e+01 2.895668616496637071e+01 2.837611018702761001e+01 2.750691780993404834e+01 2.644291187447284130e+01 2.522589495481586752e+01 2.396518986800051110e+01 2.269986269195713291e+01 2.145094353201556103e+01 2.022998710370422160e+01 1.904437159908917465e+01 1.789838048670973691e+01 1.679447462889374876e+01 1.573289948232029545e+01 1.471062364378224885e+01 1.372210498696882830e+01 1.276445370217893860e+01 1.184138011047418892e+01 1.090333635320779315e+01 1.224981920697350901e+01 1.357178982439215531e+01 1.497290724432293274e+01 1.633794639923375769e+01 1.768116926170976910e+01 1.894950441702397725e+01 1.998413288731313386e+01 2.073779856635975705e+01 2.075367813484915658e+01 2.003654744614984651e+01 1.897201256290928129e+01 1.781640059006819143e+01 1.674803038329753235e+01 1.570513281252420867e+01 1.462082817688393099e+01 1.351925074066360644e+01 1.215797195254690877e+01 1.335525190193120260e+01 1.457123337230969895e+01 1.589761331140071832e+01 1.726629783693252662e+01 1.864022075660161448e+01 1.998065053881490982e+01 2.122965152625328500e+01 2.230472721495100075e+01 2.307017897351881430e+01 2.361467647127976122e+01 2.388607621846509588e+01 2.463644554567440181e+01 2.544891911426019249e+01
1.857338316138861245e+01 1.857124552736013712e+01 1.845833770652122752e+01 1.828602912832077365e+01 1.798802766790700147e+01 1.780674430184913604e+01 1.770974930247700385e+01 1.711249108826109833e+01 1.617239909306462309e+01 1.629086973693312146e+01 1.635823492832246018e+01 1.642810921014966041e+01 1.649119917019038084e+01 1.592738068298187670e+01 1.503017456013832387e+01 1.525935988973059665e+01 1.640127825817939566e+01 1.708590962992925455e+01 1.786232095667762110e+01 1.872564391195701816e+01 1.951968506658266378e+01 1.984412601646707941e+01 1.971987727207458008e+01 1.904126229758834299e+01 1.913410262997677336e+01 1.927906049066902838e+01 1.866769569546508478e+01 1.893818198188153445e+01 2.014358652412368755e+01 2.121300908567710053e+01 2.233008781961615696e+01 2.346440718016691918e+01 2.465562072353096568e+01 2.588507856405734842e+01 2.711591678972233055e+01 2.838658109018846076e+01 2.963500510235227381e+01 3.089985312466199119e+01 3.208911196266824817e+01 3.321406159578627637e+01 3.414962122141074730e+01 3.469810497733200094e+01 3.478515381279748908e+01 3.443318032139595175e+01 3.372509802182539573e+01 3.287616438938762542e+01 3.188848879163252548e+01 3.091505012362075178e+01 2.992507927326414929e+01 2.902975358621772983e+01 2.819182353394385387e+01 2.811341747335326602e+01 2.740446229009323531e+01 2.649792107029845312e+01 2.548798449576245773e+01 2.447629448977863831e+01 2.346359441710833948e+01 2.249117496840272423e+01 2.149599293826955915e+01 2.279913294681476543e+01 2.389764506150251933e+01 2.465978115215892785e+01 2.477843892503245726e+01 2.424472912613268605e+01 2.337701965481307198e+01 2.443122243679453121e+01 2.545778172743866818e+01 2.641839443680428445e+01 2.735577863285637434e+01 2.813130502588833437e+01 2.871965745806672743e+01 2.888743100263065244e+01 2.851057000887799475e+01 2.764432578586504263e+01 2.650894908455344634e+01 2.523553526573121886e+01 2.391470879498758961e+01 2.259603142381688201e+01 2.130522673019031998e+01 2.005487869646095334e+01 1.885061086849953682e+01 1.769415139210995491e+01 1.658496320119179046e+01 1.552100577057043829e+01 1.449926755986871818e+01 1.351656532039152125e+01 1.257047510498199472e+01 1.165986684036808718e+01 1.073457083829429060e+01 1.183433904958185856e+01 1.298262993207302252e+01 1.421095370453853413e+01 1.552392685341487422e+01 1.688180930912332656e+01 1.822356402302064282e+01 1.946342030608157714e+01 2.030490317181540760e+01 2.028437636974869207e+01 1.947196254877895427e+01 1.829179736787789068e+01 1.701238938788371158e+01 1.578307460068960744e+01 1.470235850384347742e+01 1.370150110692955892e+01 1.277587461512108824e+01 1.190947062646546151e+01 1.321895481614362033e+01 1.452661183552104518e+01 1.598218940059242144e+01 1.737825480913318188e+01 1.872425772626874974e+01 1.997474078412676590e+01 2.104371874135322074e+01 2.176893851787930956e+01 2.226957981423372246e+01 2.244620409344303269e+01 2.254460465899138555e+01 2.336492270118782244e+01 2.421139556082588484e+01
1.960333154260100130e+01 1.971478522296377633e+01 1.965606734441918135e+01 1.953086375481441550e+01 1.929551172129936987e+01 1.912625564798077349e+01 1.899958383672376883e+01 1.835083427011078427e+01 1.744211948656268873e+01 1.751011040866410440e+01 1.752454499509091690e+01 1.754374706650094495e+01 1.755184674087886521e+01 1.696062673737068849e+01 1.611601128595595966e+01 1.632956914538572946e+01 1.559330163316104034e+01 1.583896044274782611e+01 1.701054092413284380e+01 1.779343142518838761e+01 1.857355796884120736e+01 1.884309183433228796e+01 1.861856354061771057e+01 1.778389409986415259e+01 1.803722566750537482e+01 1.828895779583932324e+01 1.923259393634816661e+01 2.005389252952820556e+01 2.090691645690119671e+01 2.196789190261661417e+01 2.306507029937730380e+01 2.422011603280121861e+01 2.539736780371290692e+01 2.663842683774150544e+01 2.791393588227205314e+01 2.916936337065074980e+01 3.044209662565552676e+01 3.163775529639751838e+01 3.277944019464636227e+01 3.372234307071416026e+01 3.441837679095820590e+01 3.462061568109764664e+01 3.432126016400965085e+01 3.362556684455921641e+01 3.275834749081794683e+01 3.173050392795187591e+01 3.069683695827886893e+01 2.962582621615985445e+01 2.862393150645602447e+01 2.765311251933826497e+01 2.676759279224740595e+01 2.699567144881584113e+01 2.671771518927782196e+01 2.576961869779092495e+01 2.475855176994767604e+01 2.372041568204870288e+01 2.271537586748220505e+01 2.172762006653456979e+01 2.073544131927484457e+01 2.200182347539819716e+01 2.304160846474001190e+01 2.373947324712522544e+01 2.379298765778721858e+01 2.319154476596196446e+01 2.222606530207471209e+01 2.330916264174743802e+01 2.432398183340523445e+01 2.536631174756498908e+01 2.635821301425357177e+01 2.732354899423817685e+01 2.808909698729640780e+01 2.856682130579484635e+01 2.842626195695869740e+01 2.765016135006543863e+01 2.652762389837161905e+01 2.523932276238501160e+01 2.389208189862565845e+01 2.254463811936521012e+01 2.122737870748171929e+01 1.995470609712590004e+01 1.873235745677870767e+01 1.756149186797759043e+01 1.644087969695140217e+01 1.536808048722396158e+01 1.434012200198108822e+01 1.335391385839176159e+01 1.240641176977208104e+01 1.149513052433791849e+01 1.056836929789663948e+01 1.173463147153637998e+01 1.291100067429144893e+01 1.415101483174570163e+01 1.545157011893949672e+01 1.678650114281414574e+01 1.809455419664913478e+01 1.925250369043749998e+01 2.000249951055739928e+01 1.990811899607290059e+01 1.896425418943362473e+01 1.764008464806952503e+01 1.623090622960749485e+01 1.488495814171182552e+01 1.366080703995957002e+01 1.257129182976503934e+01 1.154906980007463879e+01 1.267842832548532783e+01 1.387332675077396971e+01 1.512701015279896311e+01 1.629243995005731804e+01 1.754641289696709805e+01 1.875314647249164679e+01 1.980429415413260230e+01 2.051401674805546094e+01 2.102648970993169542e+01 2.113864651876037826e+01 2.106263595698411706e+01 2.121244911729541371e+01 2.211802114554872389e+01 2.296584591753451576e+01
2.029678882286833286e+01 2.064063412236188100e+01 2.071089798515381375e+01 2.068212690560158862e+01 2.052108596261699347e+01 2.038256359826990760e+01 2.022348816985267561e+01 1.959697147552131824e+01 1.876930928881026261e+01 1.878092712253089402e+01 1.873451750545549288e+01 1.868526154801975636e+01 1.858201479160843306e+01 1.778526817509274949e+01 1.745630434748559878e+01 1.753469147918115212e+01 1.691666412126294716e+01 1.700913684010037485e+01 1.619642509665633412e+01 1.644967920898993086e+01 1.761340670218453752e+01 1.793138822420754153e+01 1.739877009954419762e+01 1.845360574627998673e+01 1.918069116013651865e+01 1.981714139897830407e+01 2.055180252450817591e+01 2.079241514404503732e+01 2.177915110728696746e+01 2.279169297256838789e+01 2.389396233379139645e+01 2.502548707099698788e+01 2.622062857167140848e+01 2.743261398159869202e+01 2.870637722055029784e+01 2.999399425046058454e+01 3.121132169189247207e+01 3.238236595533733464e+01 3.336228837271429626e+01 3.412986032490096733e+01 3.447065687824720470e+01 3.427389467079059671e+01 3.360988575510547349e+01 3.273882200501176953e+01 3.168636197192677528e+01 3.061119847254748549e+01 2.948402869883116750e+01 2.840947358518919330e+01 2.734574803277804733e+01 2.636735381822994384e+01 2.541892295428754878e+01 2.589998792448543696e+01 2.594802390053665064e+01 2.524908022507632666e+01 2.410957780317974297e+01 2.304818630354655440e+01 2.201798940581423736e+01 2.103472373528318329e+01 2.003420054444926635e+01 2.122801183276641623e+01 2.218237806602074258e+01 2.281956740911560644e+01 2.282907416099213194e+01 2.218831915019834966e+01 2.116929577868962298e+01 2.221764039261961798e+01 2.324363348616307690e+01 2.427953454744825734e+01 2.538126134905561315e+01 2.643530937333193620e+01 2.742969886486597275e+01 2.814236618661916012e+01 2.823525474137345626e+01 2.760222665309752088e+01 2.654105442749412447e+01 2.527148576149348358e+01 2.392154834869670310e+01 2.256086792180689216e+01 2.122558309157562917e+01 1.993291886407637747e+01 1.868998285661094627e+01 1.749869276163373044e+01 1.635836669224077156e+01 1.526707902061868083e+01 1.422233823567815136e+01 1.322134447098697940e+01 1.226106376700175460e+01 1.133887933332470510e+01 1.040245272505569396e+01 1.158803099677006898e+01 1.278171315497460547e+01 1.403310155141491222e+01 1.533547592238594248e+01 1.666255799501995938e+01 1.795184577092938127e+01 1.907580289743558311e+01 1.978882542221079532e+01 1.968819099821461549e+01 1.881726767749817952e+01 1.759014525232560189e+01 1.625358196079632833e+01 1.493326671982337039e+01 1.367923315737791867e+01 1.249868953374195968e+01 1.131607651189369079e+01 1.258952200449489212e+01 1.385682020197094744e+01 1.513631610910446312e+01 1.637291217317583758e+01 1.753981085921286009e+01 1.856658913569790670e+01 1.927145259615540951e+01 1.984673037816782681e+01 1.998827625659386698e+01 1.986076207112998659e+01 1.944909592633306161e+01 2.015604992132211848e+01 2.093514092298061513e+01 2.174140624609622208e+01
2.064059167350000834e+01 2.115504186692044186e+01 2.144656716559546084e+01 2.158369845583056090e+01 2.155183528920248648e+01 2.148883232056328296e+01 2.133390395659157335e+01 2.080056129536052367e+01 2.012775062980330176e+01 2.008508346552458335e+01 1.997716273581758273e+01 1.984830500214439652e+01 1.954817975854297174e+01 1.907613275469361014e+01 1.877582205845590479e+01 1.882204373663849495e+01 1.825866511427178907e+01 1.829564784061485483e+01 1.771368761449672391e+01 1.753080975357826432e+01 1.677775907413020917e+01 1.701867160401235779e+01 1.820241877622768101e+01 1.916863887724716164e+01 2.005875764647992909e+01 2.094386946791393811e+01 2.178349936039326096e+01 2.224085454702000675e+01 2.251874411677752974e+01 2.369862468489524687e+01 2.478657957148924496e+01 2.592753249488361078e+01 2.708578386536121130e+01 2.830643068026824594e+01 2.952286227071730451e+01 3.077666099898467067e+01 3.198580983682166945e+01 3.301780488362405919e+01 3.385617615506706812e+01 3.429302736601695045e+01 3.423734186079314412e+01 3.371930893865047096e+01 3.282837100911319794e+01 3.175452518900180010e+01 3.064635981402292231e+01 2.947682402084413056e+01 2.835031352338517863e+01 2.722441856756682199e+01 2.616986370789071614e+01 2.514466529059273014e+01 2.415890974634583088e+01 2.496178733564093832e+01 2.519579101598531778e+01 2.470446933568429770e+01 2.363459535521602106e+01 2.240562677745610287e+01 2.139660079939408277e+01 2.038541270043016240e+01 1.939100344535509635e+01 2.042907635190803362e+01 2.127427261476977094e+01 2.188191478626500697e+01 2.187985129919795213e+01 2.123535601172783416e+01 2.019798975306375510e+01 2.117795929117851017e+01 2.213588870414810472e+01 2.323808093010296716e+01 2.438340415667369498e+01 2.559881029646922457e+01 2.676038435547315331e+01 2.766467588267825661e+01 2.797792308972262276e+01 2.756157198199133518e+01 2.660046011735327198e+01 2.537543535427669283e+01 2.404077229083008049e+01 2.267785084531641360e+01 2.132986060157196206e+01 2.001742489535108405e+01 1.874956944320613772e+01 1.752979123935045180e+01 1.635878481329561396e+01 1.523597492315567692e+01 1.416015442445015893e+01 1.312963683621551425e+01 1.214217927502246397e+01 1.119554595709988476e+01 1.023670562102199000e+01 1.143267858914220447e+01 1.263793813559336421e+01 1.389985501893383280e+01 1.520880124185262083e+01 1.653630371174647706e+01 1.781815686586089953e+01 1.892647268344908085e+01 1.962291154031117202e+01 1.952589436768445808e+01 1.868726880586456218e+01 1.749527853012103762e+01 1.617606276149205868e+01 1.484601093286282492e+01 1.355650167816374640e+01 1.232346000909097050e+01 1.108841552527323060e+01 1.249186656708249821e+01 1.383405902741715110e+01 1.512061948220424590e+01 1.630130832446251787e+01 1.728031897582583198e+01 1.797538027332629440e+01 1.867410754236047765e+01 1.888291781472888076e+01 1.882354732981375989e+01 1.860621418854902842e+01 1.821642688756043427e+01 1.901700572468988426e+01 1.981865086295201195e+01 2.042825225709814063e+01
2.049644870773702010e+01 2.110454707979191014e+01 2.158764505932744271e+01 2.196407809768482622e+01 2.219162334529494629e+01 2.229393519818843217e+01 2.222794060585377451e+01 2.188368077746331153e+01 2.146164149123475084e+01 2.137775959298583928e+01 2.123185317126572258e+01 2.106605486042743536e+01 2.076032059212538883e+01 2.036709943292058256e+01 2.008756283831436917e+01 2.002609027240563222e+01 1.978457417854851741e+01 1.963088070971662447e+01 1.903121006761067591e+01 1.836210942855689865e+01 1.741124828641602562e+01 1.818427564838057009e+01 1.901717424278570334e+01 1.999938118312949697e+01 2.094209766979261644e+01 2.185317124365245078e+01 2.282058674877011129e+01 2.352787100799037745e+01 2.375292280505160392e+01 2.475458046920907762e+01 2.580622552639916734e+01 2.688867999391798236e+01 2.804159314597163188e+01 2.919802326024438344e+01 3.039894108700780961e+01 3.154233266891634457e+01 3.264808044451966396e+01 3.357092716708060465e+01 3.410607644760506219e+01 3.416660544914128650e+01 3.375627040270481416e+01 3.295308032332778936e+01 3.196221615200897403e+01 3.080143591631798472e+01 2.959183579477710424e+01 2.842122435171357253e+01 2.724680970289478310e+01 2.613807158904028327e+01 2.505203763080891477e+01 2.403821902341532990e+01 2.302643340009204920e+01 2.393996236710342629e+01 2.444978080181079250e+01 2.428527692804168225e+01 2.345768909915965850e+01 2.228028772547150993e+01 2.085408223546899720e+01 1.974832514022207874e+01 1.879133331444191768e+01 1.943181227528761212e+01 2.027620751046305614e+01 2.092146047767135286e+01 2.093016548401599408e+01 2.032078742784914738e+01 1.932087012235719925e+01 1.999380868360499974e+01 2.104886387013737448e+01 2.218928020751087260e+01 2.344830560696244959e+01 2.478329644123687459e+01 2.608548862152828818e+01 2.714479240326682685e+01 2.764274317865418951e+01 2.737787639711839560e+01 2.656485183773193626e+01 2.542686924242121904e+01 2.414985113297530361e+01 2.281700382714150166e+01 2.148177394289529829e+01 2.016755199666860676e+01 1.888486742139762953e+01 1.763979700205355527e+01 1.643510396533706697e+01 1.527249730259940819e+01 1.415341713817554670e+01 1.307879642892545036e+01 1.204885530923809434e+01 1.106349581291922490e+01 1.007072217241547030e+01 1.127719192208287780e+01 1.249458024726807004e+01 1.376886476195311815e+01 1.508774737587968673e+01 1.642012579375444403e+01 1.769948918947709515e+01 1.879713058885619148e+01 1.947956426299270305e+01 1.938221391351648748e+01 1.855884344256149276e+01 1.737835296027927257e+01 1.605732252910091162e+01 1.470996912233808729e+01 1.339108420348189377e+01 1.212384115228231352e+01 1.085720773958383667e+01 1.235456839756078118e+01 1.370419293465070254e+01 1.487067126383893445e+01 1.581047546497420697e+01 1.656658819550854744e+01 1.738639667771846220e+01 1.781017011675836059e+01 1.776955414618403140e+01 1.759129323225072028e+01 1.736623818084623494e+01 1.712245630233318039e+01 1.795225765049478994e+01 1.887277348794422949e+01 2.015864138040593545e+01
