ncols 119
nrows 32
xllcorner 1390
yllcorner 0
cellsize 10.0
7.841600000000000000e+04 7.841800000000000000e+04 7.842000000000000000e+04 1.871100000000000000e+04 1.871200000000000000e+04 1.871300000000000000e+04 1.871400000000000000e+04 1.871500000000000000e+04 1.871600000000000000e+04 1.871700000000000000e+04 1.871800000000000000e+04 1.841900000000000000e+04 1.871900000000000000e+04 7.844100000000000000e+04 1.872100000000000000e+04 1.872200000000000000e+04 1.872300000000000000e+04 7.785000000000000000e+04 7.785200000000000000e+04 7.785400000000000000e+04 7.785900000000000000e+04 7.786100000000000000e+04 1.843000000000000000e+04 7.786200000000000000e+04 7.786400000000000000e+04 7.786600000000000000e+04 7.786800000000000000e+04 7.787000000000000000e+04 7.787500000000000000e+04 7.787700000000000000e+04 7.787900000000000000e+04 1.843900000000000000e+04 7.788000000000000000e+04 7.788200000000000000e+04 1.844200000000000000e+04 1.844300000000000000e+04 1.844400000000000000e+04 1.844500000000000000e+04 7.789500000000000000e+04 1.844700000000000000e+04 7.789600000000000000e+04 7.789800000000000000e+04 7.790000000000000000e+04 7.790200000000000000e+04 7.790400000000000000e+04 7.790600000000000000e+04 7.790800000000000000e+04 7.791000000000000000e+04 1.875600000000000000e+04 1.875700000000000000e+04 1.875800000000000000e+04 1.875900000000000000e+04 1.876000000000000000e+04 1.876100000000000000e+04 7.792700000000000000e+04 7.792900000000000000e+04 1.846400000000000000e+04 1.846500000000000000e+04 7.793200000000000000e+04 1.846700000000000000e+04 1.846800000000000000e+04 1.846900000000000000e+04 7.794300000000000000e+04 1.877100000000000000e+04 1.847200000000000000e+04 1.877200000000000000e+04 1.877300000000000000e+04 1.877400000000000000e+04 1.877500000000000000e+04 1.877600000000000000e+04 1.877700000000000000e+04 1.877800000000000000e+04 1.877900000000000000e+04 1.878000000000000000e+04 1.878100000000000000e+04 1.878300000000000000e+04 1.878400000000000000e+04 1.878500000000000000e+04 1.878600000000000000e+04 1.878700000000000000e+04 1.878800000000000000e+04 1.878900000000000000e+04 1.879000000000000000e+04 1.879100000000000000e+04 1.879200000000000000e+04 1.879300000000000000e+04 1.879400000000000000e+04 1.879500000000000000e+04 7.799500000000000000e+04 1.879700000000000000e+04 1.849800000000000000e+04 1.879800000000000000e+04 7.800000000000000000e+04 7.800200000000000000e+04 7.800400000000000000e+04 7.800600000000000000e+04 7.800800000000000000e+04 7.801000000000000000e+04 7.801200000000000000e+04 1.880600000000000000e+04 1.880700000000000000e+04 1.880800000000000000e+04 1.880900000000000000e+04 1.851100000000000000e+04 1.851200000000000000e+04 1.851300000000000000e+04 7.802800000000000000e+04 7.803000000000000000e+04 7.803200000000000000e+04 7.803400000000000000e+04 7.803600000000000000e+04 1.881900000000000000e+04 1.882000000000000000e+04 1.882100000000000000e+04 1.882200000000000000e+04 7.864600000000000000e+04 7.864800000000000000e+04 7.865000000000000000e+04 7.865200000000000000e+04
1.810900000000000000e+04 1.811000000000000000e+04 1.811100000000000000e+04 1.811200000000000000e+04 1.811300000000000000e+04 1.811400000000000000e+04 1.811500000000000000e+04 1.811600000000000000e+04 1.811700000000000000e+04 1.811800000000000000e+04 1.811900000000000000e+04 7.724300000000000000e+04 1.782100000000000000e+04 7.724400000000000000e+04 7.724600000000000000e+04 7.724800000000000000e+04 7.725000000000000000e+04 7.725200000000000000e+04 7.725400000000000000e+04 7.725900000000000000e+04 7.726100000000000000e+04 7.726300000000000000e+04 1.783100000000000000e+04 7.726400000000000000e+04 7.726600000000000000e+04 7.726800000000000000e+04 7.727000000000000000e+04 7.727200000000000000e+04 7.727700000000000000e+04 7.727900000000000000e+04 7.728100000000000000e+04 1.784000000000000000e+04 7.728200000000000000e+04 7.728400000000000000e+04 1.784300000000000000e+04 1.784400000000000000e+04 1.784500000000000000e+04 1.784600000000000000e+04 7.729700000000000000e+04 1.784800000000000000e+04 7.729800000000000000e+04 7.730000000000000000e+04 7.730200000000000000e+04 7.730400000000000000e+04 7.730600000000000000e+04 7.730800000000000000e+04 7.731000000000000000e+04 7.731200000000000000e+04 1.815700000000000000e+04 1.815800000000000000e+04 1.815900000000000000e+04 1.816000000000000000e+04 1.816100000000000000e+04 7.792400000000000000e+04 1.816300000000000000e+04 1.816400000000000000e+04 7.733300000000000000e+04 1.786600000000000000e+04 7.733400000000000000e+04 1.786800000000000000e+04 1.786900000000000000e+04 1.787000000000000000e+04 7.734500000000000000e+04 1.787200000000000000e+04 7.734600000000000000e+04 1.817300000000000000e+04 1.817400000000000000e+04 1.817500000000000000e+04 1.817600000000000000e+04 1.817700000000000000e+04 1.817800000000000000e+04 1.817900000000000000e+04 1.818000000000000000e+04 1.818100000000000000e+04 7.736600000000000000e+04 1.818400000000000000e+04 1.818500000000000000e+04 1.818600000000000000e+04 1.818700000000000000e+04 1.818800000000000000e+04 1.818900000000000000e+04 1.819000000000000000e+04 1.819100000000000000e+04 1.819200000000000000e+04 1.819300000000000000e+04 1.819400000000000000e+04 1.819500000000000000e+04 1.819600000000000000e+04 1.819700000000000000e+04 1.819800000000000000e+04 7.740100000000000000e+04 1.790000000000000000e+04 7.740200000000000000e+04 7.740400000000000000e+04 7.740600000000000000e+04 7.740800000000000000e+04 7.741000000000000000e+04 7.741200000000000000e+04 1.820600000000000000e+04 1.820700000000000000e+04 1.820800000000000000e+04 1.820900000000000000e+04 1.791100000000000000e+04 1.791200000000000000e+04 1.791300000000000000e+04 1.791400000000000000e+04 7.743000000000000000e+04 7.743200000000000000e+04 7.743400000000000000e+04 7.743600000000000000e+04 7.743800000000000000e+04 7.804000000000000000e+04 7.804200000000000000e+04 7.804400000000000000e+04 7.804600000000000000e+04 7.804800000000000000e+04 7.805000000000000000e+04 7.805200000000000000e+04 7.805400000000000000e+04
1.721000000000000000e+04 7.662500000000000000e+04 1.751200000000000000e+04 7.722600000000000000e+04 7.722800000000000000e+04 7.723000000000000000e+04 7.723200000000000000e+04 7.723400000000000000e+04 7.723600000000000000e+04 7.723800000000000000e+04 7.724000000000000000e+04 1.752100000000000000e+04 7.664700000000000000e+04 1.722300000000000000e+04 7.664800000000000000e+04 7.665000000000000000e+04 7.665200000000000000e+04 7.665400000000000000e+04 7.665600000000000000e+04 7.666100000000000000e+04 7.666300000000000000e+04 7.666500000000000000e+04 1.723200000000000000e+04 7.666600000000000000e+04 7.666800000000000000e+04 7.667000000000000000e+04 7.667200000000000000e+04 7.667400000000000000e+04 7.667900000000000000e+04 7.668100000000000000e+04 7.668300000000000000e+04 1.724100000000000000e+04 7.668400000000000000e+04 1.724300000000000000e+04 1.724400000000000000e+04 1.724500000000000000e+04 1.724600000000000000e+04 1.724700000000000000e+04 1.724800000000000000e+04 1.724900000000000000e+04 7.670000000000000000e+04 7.670200000000000000e+04 7.670400000000000000e+04 7.670600000000000000e+04 7.670800000000000000e+04 1.755400000000000000e+04 1.755500000000000000e+04 1.755600000000000000e+04 1.755800000000000000e+04 1.755900000000000000e+04 1.756000000000000000e+04 7.732200000000000000e+04 7.732400000000000000e+04 7.732600000000000000e+04 7.732800000000000000e+04 7.733000000000000000e+04 1.756600000000000000e+04 7.673700000000000000e+04 1.726800000000000000e+04 7.673800000000000000e+04 1.727000000000000000e+04 1.727100000000000000e+04 1.727200000000000000e+04 7.674600000000000000e+04 1.757300000000000000e+04 1.757400000000000000e+04 1.757500000000000000e+04 1.757600000000000000e+04 1.757700000000000000e+04 1.757800000000000000e+04 1.757900000000000000e+04 1.758000000000000000e+04 1.758100000000000000e+04 1.758200000000000000e+04 1.728400000000000000e+04 7.677300000000000000e+04 1.758600000000000000e+04 1.758700000000000000e+04 1.758800000000000000e+04 1.758900000000000000e+04 1.759000000000000000e+04 1.759100000000000000e+04 1.759200000000000000e+04 1.759300000000000000e+04 1.759400000000000000e+04 1.759500000000000000e+04 1.759600000000000000e+04 1.759700000000000000e+04 7.739600000000000000e+04 7.739800000000000000e+04 1.760000000000000000e+04 1.730100000000000000e+04 1.760100000000000000e+04 1.760200000000000000e+04 1.760300000000000000e+04 1.760400000000000000e+04 1.760500000000000000e+04 1.760600000000000000e+04 1.760700000000000000e+04 1.760800000000000000e+04 1.760900000000000000e+04 1.731100000000000000e+04 1.731200000000000000e+04 1.731300000000000000e+04 1.731400000000000000e+04 1.731500000000000000e+04 7.683200000000000000e+04 7.683400000000000000e+04 7.683600000000000000e+04 7.683800000000000000e+04 7.684000000000000000e+04 7.684200000000000000e+04 7.744400000000000000e+04 7.744600000000000000e+04 7.744800000000000000e+04 7.745000000000000000e+04 7.745200000000000000e+04 7.745400000000000000e+04 7.745600000000000000e+04
1.661100000000000000e+04 1.661200000000000000e+04 1.661300000000000000e+04 1.691400000000000000e+04 7.663000000000000000e+04 7.663200000000000000e+04 7.663400000000000000e+04 7.663600000000000000e+04 7.663800000000000000e+04 7.664000000000000000e+04 7.664200000000000000e+04 7.664400000000000000e+04 1.692300000000000000e+04 1.662400000000000000e+04 1.692400000000000000e+04 7.605200000000000000e+04 7.605400000000000000e+04 7.605600000000000000e+04 7.605800000000000000e+04 1.663000000000000000e+04 7.606500000000000000e+04 7.606700000000000000e+04 1.663300000000000000e+04 7.606800000000000000e+04 7.607000000000000000e+04 7.607200000000000000e+04 7.607400000000000000e+04 7.607600000000000000e+04 7.608100000000000000e+04 7.608300000000000000e+04 7.608500000000000000e+04 1.664200000000000000e+04 7.608600000000000000e+04 1.664400000000000000e+04 1.664500000000000000e+04 1.664600000000000000e+04 1.664700000000000000e+04 1.664800000000000000e+04 1.664900000000000000e+04 7.610000000000000000e+04 1.695000000000000000e+04 1.695100000000000000e+04 1.695200000000000000e+04 1.695300000000000000e+04 1.695400000000000000e+04 1.695500000000000000e+04 1.695600000000000000e+04 1.695700000000000000e+04 7.612100000000000000e+04 7.612300000000000000e+04 1.696100000000000000e+04 1.696200000000000000e+04 7.672600000000000000e+04 7.672800000000000000e+04 7.673000000000000000e+04 1.696600000000000000e+04 1.696700000000000000e+04 1.696800000000000000e+04 7.614100000000000000e+04 1.667000000000000000e+04 1.667100000000000000e+04 1.667200000000000000e+04 7.614600000000000000e+04 1.697300000000000000e+04 7.674900000000000000e+04 7.675100000000000000e+04 7.675300000000000000e+04 7.675500000000000000e+04 7.675700000000000000e+04 7.675900000000000000e+04 7.676100000000000000e+04 1.698100000000000000e+04 1.698200000000000000e+04 1.668400000000000000e+04 1.668500000000000000e+04 1.668600000000000000e+04 1.698700000000000000e+04 1.698800000000000000e+04 1.698900000000000000e+04 1.699000000000000000e+04 1.699100000000000000e+04 1.699200000000000000e+04 1.699300000000000000e+04 1.699400000000000000e+04 1.699500000000000000e+04 1.699600000000000000e+04 1.699700000000000000e+04 7.679600000000000000e+04 1.729800000000000000e+04 1.700000000000000000e+04 1.700100000000000000e+04 1.670200000000000000e+04 1.700200000000000000e+04 1.700300000000000000e+04 1.700400000000000000e+04 1.700500000000000000e+04 1.700600000000000000e+04 7.681500000000000000e+04 1.700800000000000000e+04 1.700900000000000000e+04 1.701000000000000000e+04 7.622700000000000000e+04 7.622900000000000000e+04 1.671400000000000000e+04 1.671500000000000000e+04 1.671600000000000000e+04 7.623400000000000000e+04 7.623600000000000000e+04 7.623800000000000000e+04 7.624000000000000000e+04 7.624200000000000000e+04 7.624400000000000000e+04 7.624600000000000000e+04 7.684800000000000000e+04 7.685000000000000000e+04 7.685200000000000000e+04 7.685400000000000000e+04 7.685600000000000000e+04 7.685800000000000000e+04
1.601200000000000000e+04 1.601300000000000000e+04 1.601400000000000000e+04 1.601500000000000000e+04 1.631600000000000000e+04 1.631700000000000000e+04 1.631800000000000000e+04 1.631900000000000000e+04 1.632000000000000000e+04 1.632100000000000000e+04 1.632200000000000000e+04 1.632300000000000000e+04 1.632400000000000000e+04 7.545300000000000000e+04 1.602600000000000000e+04 7.545400000000000000e+04 7.545600000000000000e+04 7.545800000000000000e+04 1.603000000000000000e+04 1.603100000000000000e+04 7.546700000000000000e+04 7.546900000000000000e+04 1.603400000000000000e+04 7.547000000000000000e+04 7.547200000000000000e+04 7.547400000000000000e+04 7.547600000000000000e+04 1.603900000000000000e+04 7.548300000000000000e+04 7.548500000000000000e+04 7.548700000000000000e+04 1.604300000000000000e+04 7.548800000000000000e+04 1.604500000000000000e+04 1.604600000000000000e+04 7.549400000000000000e+04 1.604800000000000000e+04 7.549800000000000000e+04 7.550000000000000000e+04 1.635000000000000000e+04 1.635100000000000000e+04 1.635200000000000000e+04 1.635300000000000000e+04 1.635400000000000000e+04 1.635500000000000000e+04 1.635600000000000000e+04 1.635700000000000000e+04 7.552100000000000000e+04 7.552300000000000000e+04 7.552500000000000000e+04 7.552700000000000000e+04 7.552900000000000000e+04 7.553100000000000000e+04 7.553300000000000000e+04 7.553500000000000000e+04 7.553700000000000000e+04 1.636800000000000000e+04 7.554100000000000000e+04 7.554300000000000000e+04 1.607100000000000000e+04 7.554400000000000000e+04 1.637200000000000000e+04 1.637300000000000000e+04 7.614900000000000000e+04 7.615100000000000000e+04 7.615300000000000000e+04 7.615500000000000000e+04 7.615700000000000000e+04 1.637900000000000000e+04 1.638000000000000000e+04 1.638100000000000000e+04 1.638200000000000000e+04 1.608400000000000000e+04 1.608500000000000000e+04 1.608600000000000000e+04 1.608700000000000000e+04 7.557600000000000000e+04 1.638900000000000000e+04 1.639000000000000000e+04 1.639100000000000000e+04 7.618400000000000000e+04 7.618600000000000000e+04 7.618800000000000000e+04 7.619000000000000000e+04 7.619200000000000000e+04 7.619400000000000000e+04 7.619600000000000000e+04 1.669800000000000000e+04 1.640000000000000000e+04 1.640100000000000000e+04 1.640200000000000000e+04 7.560900000000000000e+04 1.610400000000000000e+04 7.561000000000000000e+04 7.561200000000000000e+04 7.561400000000000000e+04 1.640700000000000000e+04 1.640800000000000000e+04 1.640900000000000000e+04 1.641000000000000000e+04 7.562700000000000000e+04 7.562900000000000000e+04 7.563100000000000000e+04 1.611500000000000000e+04 1.611600000000000000e+04 1.611700000000000000e+04 7.563600000000000000e+04 7.563800000000000000e+04 7.564000000000000000e+04 7.564200000000000000e+04 7.564400000000000000e+04 7.564600000000000000e+04 7.564800000000000000e+04 7.625000000000000000e+04 7.625200000000000000e+04 7.625400000000000000e+04 1.642800000000000000e+04 1.642900000000000000e+04 1.643000000000000000e+04
7.482900000000000000e+04 1.541400000000000000e+04 1.541500000000000000e+04 1.541600000000000000e+04 1.541700000000000000e+04 1.571800000000000000e+04 1.571900000000000000e+04 1.572000000000000000e+04 1.572100000000000000e+04 1.572200000000000000e+04 1.572300000000000000e+04 1.572400000000000000e+04 7.545000000000000000e+04 1.572600000000000000e+04 1.542700000000000000e+04 1.572700000000000000e+04 1.572800000000000000e+04 1.572900000000000000e+04 1.543100000000000000e+04 1.543200000000000000e+04 7.486900000000000000e+04 7.487100000000000000e+04 1.543500000000000000e+04 7.487200000000000000e+04 7.487400000000000000e+04 7.487600000000000000e+04 7.487800000000000000e+04 1.544000000000000000e+04 7.488500000000000000e+04 7.488700000000000000e+04 7.488900000000000000e+04 1.544400000000000000e+04 1.544500000000000000e+04 1.544600000000000000e+04 7.489400000000000000e+04 7.489600000000000000e+04 7.489800000000000000e+04 1.574900000000000000e+04 1.575000000000000000e+04 7.550300000000000000e+04 7.550500000000000000e+04 7.550700000000000000e+04 7.550900000000000000e+04 7.551100000000000000e+04 7.551300000000000000e+04 7.551500000000000000e+04 1.575800000000000000e+04 7.492300000000000000e+04 7.492500000000000000e+04 7.492700000000000000e+04 7.492900000000000000e+04 7.493100000000000000e+04 7.493300000000000000e+04 7.493500000000000000e+04 7.493700000000000000e+04 7.493900000000000000e+04 7.494100000000000000e+04 7.494300000000000000e+04 1.547100000000000000e+04 7.494400000000000000e+04 1.577200000000000000e+04 1.607300000000000000e+04 7.554900000000000000e+04 7.555100000000000000e+04 7.555300000000000000e+04 7.555500000000000000e+04 7.555700000000000000e+04 7.555900000000000000e+04 7.556100000000000000e+04 7.556300000000000000e+04 7.556500000000000000e+04 7.497100000000000000e+04 1.548500000000000000e+04 1.548600000000000000e+04 1.548700000000000000e+04 1.548800000000000000e+04 7.497800000000000000e+04 7.498000000000000000e+04 1.579100000000000000e+04 7.558400000000000000e+04 1.579300000000000000e+04 1.579400000000000000e+04 7.559000000000000000e+04 7.559200000000000000e+04 7.559400000000000000e+04 7.559600000000000000e+04 7.559800000000000000e+04 1.580000000000000000e+04 1.580100000000000000e+04 1.580200000000000000e+04 7.560600000000000000e+04 1.580400000000000000e+04 1.550500000000000000e+04 1.580500000000000000e+04 1.580600000000000000e+04 1.580700000000000000e+04 1.580800000000000000e+04 1.580900000000000000e+04 1.581000000000000000e+04 1.581100000000000000e+04 7.502900000000000000e+04 7.503100000000000000e+04 7.503300000000000000e+04 1.551600000000000000e+04 1.551700000000000000e+04 7.503600000000000000e+04 1.581800000000000000e+04 7.504000000000000000e+04 7.504200000000000000e+04 7.504400000000000000e+04 7.504600000000000000e+04 7.504800000000000000e+04 7.505000000000000000e+04 7.505200000000000000e+04 1.582700000000000000e+04 1.582800000000000000e+04 1.582900000000000000e+04 1.583000000000000000e+04 1.583100000000000000e+04
1.511400000000000000e+04 1.511500000000000000e+04 7.423500000000000000e+04 1.481700000000000000e+04 1.481800000000000000e+04 7.423800000000000000e+04 1.512000000000000000e+04 1.512100000000000000e+04 1.512200000000000000e+04 1.512300000000000000e+04 1.512400000000000000e+04 7.425300000000000000e+04 7.425500000000000000e+04 1.482700000000000000e+04 7.425600000000000000e+04 1.512800000000000000e+04 1.512900000000000000e+04 1.483100000000000000e+04 1.483200000000000000e+04 1.483300000000000000e+04 1.483400000000000000e+04 7.427300000000000000e+04 1.483600000000000000e+04 7.427400000000000000e+04 7.427600000000000000e+04 7.427800000000000000e+04 7.428000000000000000e+04 1.484100000000000000e+04 1.484200000000000000e+04 7.428900000000000000e+04 7.429100000000000000e+04 1.484500000000000000e+04 1.484600000000000000e+04 7.429400000000000000e+04 1.514700000000000000e+04 1.514800000000000000e+04 1.514900000000000000e+04 7.490100000000000000e+04 7.490300000000000000e+04 7.490500000000000000e+04 7.490700000000000000e+04 7.490900000000000000e+04 7.491100000000000000e+04 7.491300000000000000e+04 7.491500000000000000e+04 7.491700000000000000e+04 7.432300000000000000e+04 7.432500000000000000e+04 7.432700000000000000e+04 7.432900000000000000e+04 7.433100000000000000e+04 7.433300000000000000e+04 7.433500000000000000e+04 7.433700000000000000e+04 7.433900000000000000e+04 7.434100000000000000e+04 7.434300000000000000e+04 1.517100000000000000e+04 1.487200000000000000e+04 1.517200000000000000e+04 7.494700000000000000e+04 7.494900000000000000e+04 7.495100000000000000e+04 7.495300000000000000e+04 1.517700000000000000e+04 1.517800000000000000e+04 7.495900000000000000e+04 7.496100000000000000e+04 7.496300000000000000e+04 7.496500000000000000e+04 7.437100000000000000e+04 7.437300000000000000e+04 1.488600000000000000e+04 1.488700000000000000e+04 1.488800000000000000e+04 7.437800000000000000e+04 7.438000000000000000e+04 7.438200000000000000e+04 1.519200000000000000e+04 1.519300000000000000e+04 1.519400000000000000e+04 1.519500000000000000e+04 1.519600000000000000e+04 1.519700000000000000e+04 7.439900000000000000e+04 7.440100000000000000e+04 7.440300000000000000e+04 7.440500000000000000e+04 7.440700000000000000e+04 7.440900000000000000e+04 7.441100000000000000e+04 1.520500000000000000e+04 1.490600000000000000e+04 1.520600000000000000e+04 1.520700000000000000e+04 1.520800000000000000e+04 1.520900000000000000e+04 1.521000000000000000e+04 1.521100000000000000e+04 7.442900000000000000e+04 7.443100000000000000e+04 7.443300000000000000e+04 7.443500000000000000e+04 1.491700000000000000e+04 1.491800000000000000e+04 7.443800000000000000e+04 7.444000000000000000e+04 7.444200000000000000e+04 7.444400000000000000e+04 7.444600000000000000e+04 7.444800000000000000e+04 7.445000000000000000e+04 7.445200000000000000e+04 7.445400000000000000e+04 7.445600000000000000e+04 1.522900000000000000e+04 1.523000000000000000e+04 1.523100000000000000e+04 7.446700000000000000e+04
7.423000000000000000e+04 1.451600000000000000e+04 1.451700000000000000e+04 7.363900000000000000e+04 1.421900000000000000e+04 7.364000000000000000e+04 7.364500000000000000e+04 1.452200000000000000e+04 1.452300000000000000e+04 1.452400000000000000e+04 1.452500000000000000e+04 1.452600000000000000e+04 1.452700000000000000e+04 1.422800000000000000e+04 1.452800000000000000e+04 7.425900000000000000e+04 7.366500000000000000e+04 1.423200000000000000e+04 1.423300000000000000e+04 1.423400000000000000e+04 1.423500000000000000e+04 7.367500000000000000e+04 1.423700000000000000e+04 7.367600000000000000e+04 7.367800000000000000e+04 7.368000000000000000e+04 7.368200000000000000e+04 1.424200000000000000e+04 1.424300000000000000e+04 7.369100000000000000e+04 7.369300000000000000e+04 1.424600000000000000e+04 7.369400000000000000e+04 1.454700000000000000e+04 1.484800000000000000e+04 1.484900000000000000e+04 7.430100000000000000e+04 7.430300000000000000e+04 7.430500000000000000e+04 7.430700000000000000e+04 7.430900000000000000e+04 7.431100000000000000e+04 7.431300000000000000e+04 7.431500000000000000e+04 7.431700000000000000e+04 7.372300000000000000e+04 7.372500000000000000e+04 1.426200000000000000e+04 7.372900000000000000e+04 7.373100000000000000e+04 7.373300000000000000e+04 7.373500000000000000e+04 7.373700000000000000e+04 7.373900000000000000e+04 7.374100000000000000e+04 1.427000000000000000e+04 7.374500000000000000e+04 1.457200000000000000e+04 1.427300000000000000e+04 1.457300000000000000e+04 1.457400000000000000e+04 1.457500000000000000e+04 1.457600000000000000e+04 1.457700000000000000e+04 1.457800000000000000e+04 1.457900000000000000e+04 1.458000000000000000e+04 1.458100000000000000e+04 1.458200000000000000e+04 7.377100000000000000e+04 7.377300000000000000e+04 7.377500000000000000e+04 1.428700000000000000e+04 1.428800000000000000e+04 1.428900000000000000e+04 7.378000000000000000e+04 7.378200000000000000e+04 7.378400000000000000e+04 7.378600000000000000e+04 1.459400000000000000e+04 1.459500000000000000e+04 1.459600000000000000e+04 1.459700000000000000e+04 7.379900000000000000e+04 7.380100000000000000e+04 7.380300000000000000e+04 7.380500000000000000e+04 7.380700000000000000e+04 7.380900000000000000e+04 7.381100000000000000e+04 7.381300000000000000e+04 1.430600000000000000e+04 7.381400000000000000e+04 1.460700000000000000e+04 1.460800000000000000e+04 1.460900000000000000e+04 1.461000000000000000e+04 1.461100000000000000e+04 7.382600000000000000e+04 7.383100000000000000e+04 7.383300000000000000e+04 7.383500000000000000e+04 7.383700000000000000e+04 1.431800000000000000e+04 7.383800000000000000e+04 1.461900000000000000e+04 7.384200000000000000e+04 7.384400000000000000e+04 7.384600000000000000e+04 7.384800000000000000e+04 7.385000000000000000e+04 7.385200000000000000e+04 7.385400000000000000e+04 7.385600000000000000e+04 7.385800000000000000e+04 1.463000000000000000e+04 1.463100000000000000e+04 1.463200000000000000e+04 1.463300000000000000e+04
1.391600000000000000e+04 1.391700000000000000e+04 1.391800000000000000e+04 1.391900000000000000e+04 7.304300000000000000e+04 1.362100000000000000e+04 7.304400000000000000e+04 7.304900000000000000e+04 1.392400000000000000e+04 1.392500000000000000e+04 1.392600000000000000e+04 1.392700000000000000e+04 1.392800000000000000e+04 1.362900000000000000e+04 1.392900000000000000e+04 1.363100000000000000e+04 7.306700000000000000e+04 1.363300000000000000e+04 1.363400000000000000e+04 1.363500000000000000e+04 1.363600000000000000e+04 1.363700000000000000e+04 1.363800000000000000e+04 7.307800000000000000e+04 1.364000000000000000e+04 7.308200000000000000e+04 7.308400000000000000e+04 1.364300000000000000e+04 1.364400000000000000e+04 7.309300000000000000e+04 1.364600000000000000e+04 7.309400000000000000e+04 1.394700000000000000e+04 7.369700000000000000e+04 7.369900000000000000e+04 7.370100000000000000e+04 7.370300000000000000e+04 7.370500000000000000e+04 7.370700000000000000e+04 7.370900000000000000e+04 7.371100000000000000e+04 7.371300000000000000e+04 7.371500000000000000e+04 7.371700000000000000e+04 7.312300000000000000e+04 7.312500000000000000e+04 7.312700000000000000e+04 1.366300000000000000e+04 7.313100000000000000e+04 7.313300000000000000e+04 7.313500000000000000e+04 7.313700000000000000e+04 7.313900000000000000e+04 7.314100000000000000e+04 7.314300000000000000e+04 1.367100000000000000e+04 7.314700000000000000e+04 1.397300000000000000e+04 1.367400000000000000e+04 1.397400000000000000e+04 1.397500000000000000e+04 1.397600000000000000e+04 1.397700000000000000e+04 1.397800000000000000e+04 1.397900000000000000e+04 1.398000000000000000e+04 1.398100000000000000e+04 1.398200000000000000e+04 7.317100000000000000e+04 7.317300000000000000e+04 7.317500000000000000e+04 7.317700000000000000e+04 1.368800000000000000e+04 1.368900000000000000e+04 1.369000000000000000e+04 7.318200000000000000e+04 7.318400000000000000e+04 7.318600000000000000e+04 7.318800000000000000e+04 1.399500000000000000e+04 1.399600000000000000e+04 1.399700000000000000e+04 1.399800000000000000e+04 1.399900000000000000e+04 1.400000000000000000e+04 7.320500000000000000e+04 7.320700000000000000e+04 7.320900000000000000e+04 7.321100000000000000e+04 7.321300000000000000e+04 1.370600000000000000e+04 7.321400000000000000e+04 1.400700000000000000e+04 7.381700000000000000e+04 7.381900000000000000e+04 1.401000000000000000e+04 1.401100000000000000e+04 7.322600000000000000e+04 7.322800000000000000e+04 7.323300000000000000e+04 7.323500000000000000e+04 7.323700000000000000e+04 7.323900000000000000e+04 1.371900000000000000e+04 7.324000000000000000e+04 7.324200000000000000e+04 7.324400000000000000e+04 7.324600000000000000e+04 7.324800000000000000e+04 7.325000000000000000e+04 7.325200000000000000e+04 7.325400000000000000e+04 7.325600000000000000e+04 7.325800000000000000e+04 7.326000000000000000e+04 7.326200000000000000e+04 1.403200000000000000e+04 1.403300000000000000e+04 1.403400000000000000e+04
1.331700000000000000e+04 7.243900000000000000e+04 7.244100000000000000e+04 7.244300000000000000e+04 1.302100000000000000e+04 7.244400000000000000e+04 1.302300000000000000e+04 1.302400000000000000e+04 7.245300000000000000e+04 1.332600000000000000e+04 1.332700000000000000e+04 1.332800000000000000e+04 1.332900000000000000e+04 7.246300000000000000e+04 1.303100000000000000e+04 1.303200000000000000e+04 1.333300000000000000e+04 1.333400000000000000e+04 1.333500000000000000e+04 1.333600000000000000e+04 1.333700000000000000e+04 1.333800000000000000e+04 7.248100000000000000e+04 1.304000000000000000e+04 1.304100000000000000e+04 7.248400000000000000e+04 1.304300000000000000e+04 1.304400000000000000e+04 1.304500000000000000e+04 1.304600000000000000e+04 7.249400000000000000e+04 1.334700000000000000e+04 7.309700000000000000e+04 7.309900000000000000e+04 7.310100000000000000e+04 7.310300000000000000e+04 7.310500000000000000e+04 7.310700000000000000e+04 7.310900000000000000e+04 7.311100000000000000e+04 7.311300000000000000e+04 7.311500000000000000e+04 7.311700000000000000e+04 7.252300000000000000e+04 7.252500000000000000e+04 7.252700000000000000e+04 7.252900000000000000e+04 1.306400000000000000e+04 1.306500000000000000e+04 7.253500000000000000e+04 7.253700000000000000e+04 7.253900000000000000e+04 7.254100000000000000e+04 7.254300000000000000e+04 7.254500000000000000e+04 1.307200000000000000e+04 7.254900000000000000e+04 1.307400000000000000e+04 7.255000000000000000e+04 1.337500000000000000e+04 1.337600000000000000e+04 1.337700000000000000e+04 1.337800000000000000e+04 1.337900000000000000e+04 1.338000000000000000e+04 1.338100000000000000e+04 1.338200000000000000e+04 1.338300000000000000e+04 7.257300000000000000e+04 7.257500000000000000e+04 7.257700000000000000e+04 7.257900000000000000e+04 7.258100000000000000e+04 1.309000000000000000e+04 7.258200000000000000e+04 7.258400000000000000e+04 7.258600000000000000e+04 7.258800000000000000e+04 7.259000000000000000e+04 1.339600000000000000e+04 1.339700000000000000e+04 1.339800000000000000e+04 1.339900000000000000e+04 1.340000000000000000e+04 1.340100000000000000e+04 1.340200000000000000e+04 1.340300000000000000e+04 1.340400000000000000e+04 1.340500000000000000e+04 1.340600000000000000e+04 7.261700000000000000e+04 1.310800000000000000e+04 7.261800000000000000e+04 7.262000000000000000e+04 1.341000000000000000e+04 7.262400000000000000e+04 7.262600000000000000e+04 7.262800000000000000e+04 1.311500000000000000e+04 7.263500000000000000e+04 7.263700000000000000e+04 7.263900000000000000e+04 7.264100000000000000e+04 1.312000000000000000e+04 7.264200000000000000e+04 7.264400000000000000e+04 7.264600000000000000e+04 7.264800000000000000e+04 7.265000000000000000e+04 7.265200000000000000e+04 7.265400000000000000e+04 7.265600000000000000e+04 7.265800000000000000e+04 7.266000000000000000e+04 7.266200000000000000e+04 7.266400000000000000e+04 1.343300000000000000e+04 1.343400000000000000e+04 1.343500000000000000e+04
7.183900000000000000e+04 1.271900000000000000e+04 7.184300000000000000e+04 1.272100000000000000e+04 1.242200000000000000e+04 1.242300000000000000e+04 7.185100000000000000e+04 1.242500000000000000e+04 7.185500000000000000e+04 7.185700000000000000e+04 1.272800000000000000e+04 1.272900000000000000e+04 7.246000000000000000e+04 1.273100000000000000e+04 1.273200000000000000e+04 1.273300000000000000e+04 7.246800000000000000e+04 1.303400000000000000e+04 1.303500000000000000e+04 1.303600000000000000e+04 1.303700000000000000e+04 1.303800000000000000e+04 1.274000000000000000e+04 1.274100000000000000e+04 7.188700000000000000e+04 1.244300000000000000e+04 1.244400000000000000e+04 1.244500000000000000e+04 7.189200000000000000e+04 7.189400000000000000e+04 1.274700000000000000e+04 7.249700000000000000e+04 7.249900000000000000e+04 7.250100000000000000e+04 7.250300000000000000e+04 7.250500000000000000e+04 7.250700000000000000e+04 7.250900000000000000e+04 7.251100000000000000e+04 7.251300000000000000e+04 7.251500000000000000e+04 7.251700000000000000e+04 7.192300000000000000e+04 7.192500000000000000e+04 7.192700000000000000e+04 7.192900000000000000e+04 7.193100000000000000e+04 1.246500000000000000e+04 1.246600000000000000e+04 7.193700000000000000e+04 7.193900000000000000e+04 7.194100000000000000e+04 7.194300000000000000e+04 7.194500000000000000e+04 7.194700000000000000e+04 1.247300000000000000e+04 1.247400000000000000e+04 7.195000000000000000e+04 1.277500000000000000e+04 7.255300000000000000e+04 1.277700000000000000e+04 1.277800000000000000e+04 1.277900000000000000e+04 1.278000000000000000e+04 1.278100000000000000e+04 1.278200000000000000e+04 1.278300000000000000e+04 7.197300000000000000e+04 7.197500000000000000e+04 7.197700000000000000e+04 7.197900000000000000e+04 7.198100000000000000e+04 7.198300000000000000e+04 1.249100000000000000e+04 7.198400000000000000e+04 7.198600000000000000e+04 7.198800000000000000e+04 7.199000000000000000e+04 7.199200000000000000e+04 7.199400000000000000e+04 1.279800000000000000e+04 1.279900000000000000e+04 1.280000000000000000e+04 1.280100000000000000e+04 1.280200000000000000e+04 1.280300000000000000e+04 1.280400000000000000e+04 1.280500000000000000e+04 1.280600000000000000e+04 7.261400000000000000e+04 1.280800000000000000e+04 1.250900000000000000e+04 1.280900000000000000e+04 1.281000000000000000e+04 7.202400000000000000e+04 7.202600000000000000e+04 7.202800000000000000e+04 7.203000000000000000e+04 1.251600000000000000e+04 7.203700000000000000e+04 7.203900000000000000e+04 1.251900000000000000e+04 7.204300000000000000e+04 1.252100000000000000e+04 7.204400000000000000e+04 7.204600000000000000e+04 7.204800000000000000e+04 1.282400000000000000e+04 1.282500000000000000e+04 1.282600000000000000e+04 1.252800000000000000e+04 7.205800000000000000e+04 7.206000000000000000e+04 7.206200000000000000e+04 7.206400000000000000e+04 7.206600000000000000e+04 7.206800000000000000e+04 7.267000000000000000e+04 7.267200000000000000e+04
1.211900000000000000e+04 1.212000000000000000e+04 1.212100000000000000e+04 1.212200000000000000e+04 7.124900000000000000e+04 1.182400000000000000e+04 7.125300000000000000e+04 1.182600000000000000e+04 1.182700000000000000e+04 7.125900000000000000e+04 7.126100000000000000e+04 7.126300000000000000e+04 1.213100000000000000e+04 7.186400000000000000e+04 1.243200000000000000e+04 1.243300000000000000e+04 1.243400000000000000e+04 7.187100000000000000e+04 1.243600000000000000e+04 1.243700000000000000e+04 1.243800000000000000e+04 7.188000000000000000e+04 7.188200000000000000e+04 1.244100000000000000e+04 1.214300000000000000e+04 1.184400000000000000e+04 1.214400000000000000e+04 1.214500000000000000e+04 1.214600000000000000e+04 1.214700000000000000e+04 7.189700000000000000e+04 7.189900000000000000e+04 7.190100000000000000e+04 7.190300000000000000e+04 7.190500000000000000e+04 7.190700000000000000e+04 7.190900000000000000e+04 7.191100000000000000e+04 7.191300000000000000e+04 7.191500000000000000e+04 7.191700000000000000e+04 7.132300000000000000e+04 7.132500000000000000e+04 7.132700000000000000e+04 7.132900000000000000e+04 7.133100000000000000e+04 7.133300000000000000e+04 1.186600000000000000e+04 7.133400000000000000e+04 7.133900000000000000e+04 7.134100000000000000e+04 7.134300000000000000e+04 7.134500000000000000e+04 7.134700000000000000e+04 1.187300000000000000e+04 7.134800000000000000e+04 1.217400000000000000e+04 1.217500000000000000e+04 7.195300000000000000e+04 7.195500000000000000e+04 7.195700000000000000e+04 7.195900000000000000e+04 7.196100000000000000e+04 7.196300000000000000e+04 7.196500000000000000e+04 7.196700000000000000e+04 7.196900000000000000e+04 7.137500000000000000e+04 7.137700000000000000e+04 7.137900000000000000e+04 7.138100000000000000e+04 7.138300000000000000e+04 7.138500000000000000e+04 1.189200000000000000e+04 7.138600000000000000e+04 7.138800000000000000e+04 7.139000000000000000e+04 7.139200000000000000e+04 7.139400000000000000e+04 7.139600000000000000e+04 1.219900000000000000e+04 1.220000000000000000e+04 1.220100000000000000e+04 1.220200000000000000e+04 1.220300000000000000e+04 1.220400000000000000e+04 1.220500000000000000e+04 1.220600000000000000e+04 1.220700000000000000e+04 1.220800000000000000e+04 1.220900000000000000e+04 1.191000000000000000e+04 1.221000000000000000e+04 7.142400000000000000e+04 1.191300000000000000e+04 7.142800000000000000e+04 7.143000000000000000e+04 7.143200000000000000e+04 1.191700000000000000e+04 7.143900000000000000e+04 7.144100000000000000e+04 1.192000000000000000e+04 1.192100000000000000e+04 7.144400000000000000e+04 1.222200000000000000e+04 1.222300000000000000e+04 1.222400000000000000e+04 1.222500000000000000e+04 1.222600000000000000e+04 1.192800000000000000e+04 1.192900000000000000e+04 7.146000000000000000e+04 7.146200000000000000e+04 7.146400000000000000e+04 7.146600000000000000e+04 7.146800000000000000e+04 7.147000000000000000e+04 7.207200000000000000e+04 7.207400000000000000e+04
1.152000000000000000e+04 1.152100000000000000e+04 1.152200000000000000e+04 1.152300000000000000e+04 1.152400000000000000e+04 7.065300000000000000e+04 1.152600000000000000e+04 7.065700000000000000e+04 7.065900000000000000e+04 1.122900000000000000e+04 1.123000000000000000e+04 1.153100000000000000e+04 1.153200000000000000e+04 7.126600000000000000e+04 1.183300000000000000e+04 7.126900000000000000e+04 1.183500000000000000e+04 7.127300000000000000e+04 1.183700000000000000e+04 1.183800000000000000e+04 1.183900000000000000e+04 7.128200000000000000e+04 7.128400000000000000e+04 1.154300000000000000e+04 1.154400000000000000e+04 1.124500000000000000e+04 1.154500000000000000e+04 1.184600000000000000e+04 1.184700000000000000e+04 7.129700000000000000e+04 7.129900000000000000e+04 7.130100000000000000e+04 7.130300000000000000e+04 7.130500000000000000e+04 1.155300000000000000e+04 1.155400000000000000e+04 7.071200000000000000e+04 7.071400000000000000e+04 7.071600000000000000e+04 7.071800000000000000e+04 7.072000000000000000e+04 7.072500000000000000e+04 7.072700000000000000e+04 7.072900000000000000e+04 7.073100000000000000e+04 7.073300000000000000e+04 7.073500000000000000e+04 1.126700000000000000e+04 7.073600000000000000e+04 1.126900000000000000e+04 1.157000000000000000e+04 1.157100000000000000e+04 1.157200000000000000e+04 1.157300000000000000e+04 1.127400000000000000e+04 1.157400000000000000e+04 1.187500000000000000e+04 7.135300000000000000e+04 7.135500000000000000e+04 7.135700000000000000e+04 7.135900000000000000e+04 7.136100000000000000e+04 7.136300000000000000e+04 7.136500000000000000e+04 7.136700000000000000e+04 7.136900000000000000e+04 7.077500000000000000e+04 7.077700000000000000e+04 7.077900000000000000e+04 7.078100000000000000e+04 7.078300000000000000e+04 7.078500000000000000e+04 7.078700000000000000e+04 1.129300000000000000e+04 7.078800000000000000e+04 7.079000000000000000e+04 7.079200000000000000e+04 7.079400000000000000e+04 7.079600000000000000e+04 7.079800000000000000e+04 1.160000000000000000e+04 1.160100000000000000e+04 1.160200000000000000e+04 1.160300000000000000e+04 1.160400000000000000e+04 1.160500000000000000e+04 1.160600000000000000e+04 1.160700000000000000e+04 1.160800000000000000e+04 1.160900000000000000e+04 1.161000000000000000e+04 1.131100000000000000e+04 1.161100000000000000e+04 1.131300000000000000e+04 1.131400000000000000e+04 7.083000000000000000e+04 7.083200000000000000e+04 7.083400000000000000e+04 1.131800000000000000e+04 7.084100000000000000e+04 7.084300000000000000e+04 1.132100000000000000e+04 7.084400000000000000e+04 1.162200000000000000e+04 1.162300000000000000e+04 7.144900000000000000e+04 7.145100000000000000e+04 1.162600000000000000e+04 1.162700000000000000e+04 7.086100000000000000e+04 1.133000000000000000e+04 7.086200000000000000e+04 7.086400000000000000e+04 7.086600000000000000e+04 7.086800000000000000e+04 7.087000000000000000e+04 7.087200000000000000e+04 7.087400000000000000e+04 7.147600000000000000e+04
7.064200000000000000e+04 7.064400000000000000e+04 7.064600000000000000e+04 7.064800000000000000e+04 7.065000000000000000e+04 1.092600000000000000e+04 7.065400000000000000e+04 1.092800000000000000e+04 1.092900000000000000e+04 1.093000000000000000e+04 1.093100000000000000e+04 7.066400000000000000e+04 1.123200000000000000e+04 1.123300000000000000e+04 7.066900000000000000e+04 7.067100000000000000e+04 1.123600000000000000e+04 1.123700000000000000e+04 1.123800000000000000e+04 1.123900000000000000e+04 7.068200000000000000e+04 7.068400000000000000e+04 1.094300000000000000e+04 1.094400000000000000e+04 1.094500000000000000e+04 1.064600000000000000e+04 1.094600000000000000e+04 1.094700000000000000e+04 1.094800000000000000e+04 7.069900000000000000e+04 1.095000000000000000e+04 1.095100000000000000e+04 1.095200000000000000e+04 1.095300000000000000e+04 1.095400000000000000e+04 1.065600000000000000e+04 7.011400000000000000e+04 7.011600000000000000e+04 7.011800000000000000e+04 7.012000000000000000e+04 7.012200000000000000e+04 7.012700000000000000e+04 7.012900000000000000e+04 7.013100000000000000e+04 7.013300000000000000e+04 7.013500000000000000e+04 7.013700000000000000e+04 1.066800000000000000e+04 1.066900000000000000e+04 7.014000000000000000e+04 1.067100000000000000e+04 1.097200000000000000e+04 1.097300000000000000e+04 1.097400000000000000e+04 1.067500000000000000e+04 1.097500000000000000e+04 1.097600000000000000e+04 1.097700000000000000e+04 1.097800000000000000e+04 1.097900000000000000e+04 1.098000000000000000e+04 1.098100000000000000e+04 1.098200000000000000e+04 1.098300000000000000e+04 1.098400000000000000e+04 7.017200000000000000e+04 7.017700000000000000e+04 7.017900000000000000e+04 7.018100000000000000e+04 7.018300000000000000e+04 7.018500000000000000e+04 7.018700000000000000e+04 7.018900000000000000e+04 1.069400000000000000e+04 7.019000000000000000e+04 7.019200000000000000e+04 7.019400000000000000e+04 7.019600000000000000e+04 7.019800000000000000e+04 7.020000000000000000e+04 7.020200000000000000e+04 1.100200000000000000e+04 1.100300000000000000e+04 1.100400000000000000e+04 1.100500000000000000e+04 1.100600000000000000e+04 1.100700000000000000e+04 1.100800000000000000e+04 1.100900000000000000e+04 1.101000000000000000e+04 1.101100000000000000e+04 7.022700000000000000e+04 1.071300000000000000e+04 1.071400000000000000e+04 1.071500000000000000e+04 7.023200000000000000e+04 7.023400000000000000e+04 7.023600000000000000e+04 7.023800000000000000e+04 7.024300000000000000e+04 7.024500000000000000e+04 1.072200000000000000e+04 7.024600000000000000e+04 1.102300000000000000e+04 1.102400000000000000e+04 1.102500000000000000e+04 1.102600000000000000e+04 1.102700000000000000e+04 7.026100000000000000e+04 7.026300000000000000e+04 1.073100000000000000e+04 7.026400000000000000e+04 7.026600000000000000e+04 7.026800000000000000e+04 7.027000000000000000e+04 7.027200000000000000e+04 7.027400000000000000e+04 7.027600000000000000e+04 7.027800000000000000e+04
7.004400000000000000e+04 7.004600000000000000e+04 7.004800000000000000e+04 7.005000000000000000e+04 7.005200000000000000e+04 7.005400000000000000e+04 1.062700000000000000e+04 7.005800000000000000e+04 1.062900000000000000e+04 1.063000000000000000e+04 1.063100000000000000e+04 1.063200000000000000e+04 7.006700000000000000e+04 1.063400000000000000e+04 7.007100000000000000e+04 7.007300000000000000e+04 1.063700000000000000e+04 1.063800000000000000e+04 1.063900000000000000e+04 1.064000000000000000e+04 7.008400000000000000e+04 7.008600000000000000e+04 1.034400000000000000e+04 1.034500000000000000e+04 1.034600000000000000e+04 6.949700000000000000e+04 1.004800000000000000e+04 6.949800000000000000e+04 6.950000000000000000e+04 6.950200000000000000e+04 1.035100000000000000e+04 1.035200000000000000e+04 1.035300000000000000e+04 1.035400000000000000e+04 1.005600000000000000e+04 1.005700000000000000e+04 6.951600000000000000e+04 6.951800000000000000e+04 6.952000000000000000e+04 6.952200000000000000e+04 6.952400000000000000e+04 6.952900000000000000e+04 6.953100000000000000e+04 6.953300000000000000e+04 6.953500000000000000e+04 6.953700000000000000e+04 6.953900000000000000e+04 1.006900000000000000e+04 1.007000000000000000e+04 6.954200000000000000e+04 1.007200000000000000e+04 6.954900000000000000e+04 1.037400000000000000e+04 1.037500000000000000e+04 1.007600000000000000e+04 1.037600000000000000e+04 6.955600000000000000e+04 6.955800000000000000e+04 6.956000000000000000e+04 6.956200000000000000e+04 6.956400000000000000e+04 6.956600000000000000e+04 6.956800000000000000e+04 6.957000000000000000e+04 6.957200000000000000e+04 6.957400000000000000e+04 6.957900000000000000e+04 6.958100000000000000e+04 6.958300000000000000e+04 6.958500000000000000e+04 6.958700000000000000e+04 6.958900000000000000e+04 6.959100000000000000e+04 1.009500000000000000e+04 6.959200000000000000e+04 6.959400000000000000e+04 6.959600000000000000e+04 6.959800000000000000e+04 6.960000000000000000e+04 6.960200000000000000e+04 6.960400000000000000e+04 1.040300000000000000e+04 1.040400000000000000e+04 1.040500000000000000e+04 1.040600000000000000e+04 1.040700000000000000e+04 1.040800000000000000e+04 1.040900000000000000e+04 1.041000000000000000e+04 7.022200000000000000e+04 7.022400000000000000e+04 1.041300000000000000e+04 1.041400000000000000e+04 1.041500000000000000e+04 6.963500000000000000e+04 1.011700000000000000e+04 6.963600000000000000e+04 6.963800000000000000e+04 6.964000000000000000e+04 6.964500000000000000e+04 6.964700000000000000e+04 1.012300000000000000e+04 6.964800000000000000e+04 1.042400000000000000e+04 1.042500000000000000e+04 1.042600000000000000e+04 6.965600000000000000e+04 6.965800000000000000e+04 6.966300000000000000e+04 6.966500000000000000e+04 1.013200000000000000e+04 6.966600000000000000e+04 6.966800000000000000e+04 6.967000000000000000e+04 6.967200000000000000e+04 6.967400000000000000e+04 6.967600000000000000e+04 6.967800000000000000e+04 6.968000000000000000e+04
6.944600000000000000e+04 6.944800000000000000e+04 6.945000000000000000e+04 6.945200000000000000e+04 6.945400000000000000e+04 6.945600000000000000e+04 6.945800000000000000e+04 6.946000000000000000e+04 1.003000000000000000e+04 1.003100000000000000e+04 1.003200000000000000e+04 1.003300000000000000e+04 6.946900000000000000e+04 1.003500000000000000e+04 6.947300000000000000e+04 6.947500000000000000e+04 1.003800000000000000e+04 1.003900000000000000e+04 1.004000000000000000e+04 6.948400000000000000e+04 6.948600000000000000e+04 6.948800000000000000e+04 6.949000000000000000e+04 6.949200000000000000e+04 6.949400000000000000e+04 9.748000000000000000e+03 9.449000000000000000e+03 9.749000000000000000e+03 9.750000000000000000e+03 9.751000000000000000e+03 9.752000000000000000e+03 9.753000000000000000e+03 9.754000000000000000e+03 9.456000000000000000e+03 9.457000000000000000e+03 9.458000000000000000e+03 6.891800000000000000e+04 6.892000000000000000e+04 6.892200000000000000e+04 6.892400000000000000e+04 6.892600000000000000e+04 6.893100000000000000e+04 6.893300000000000000e+04 6.893500000000000000e+04 6.893700000000000000e+04 6.893900000000000000e+04 9.769000000000000000e+03 6.894300000000000000e+04 9.471000000000000000e+03 6.894400000000000000e+04 9.473000000000000000e+03 6.894800000000000000e+04 9.775000000000000000e+03 9.776000000000000000e+03 6.895700000000000000e+04 9.478000000000000000e+03 6.895800000000000000e+04 6.896000000000000000e+04 6.896200000000000000e+04 6.896400000000000000e+04 6.896600000000000000e+04 6.896800000000000000e+04 6.897000000000000000e+04 6.897200000000000000e+04 6.897400000000000000e+04 6.897600000000000000e+04 6.898100000000000000e+04 6.898300000000000000e+04 6.898500000000000000e+04 6.898700000000000000e+04 6.898900000000000000e+04 6.899100000000000000e+04 6.899300000000000000e+04 9.496000000000000000e+03 6.899400000000000000e+04 6.899600000000000000e+04 6.899800000000000000e+04 6.900000000000000000e+04 6.900200000000000000e+04 6.900400000000000000e+04 6.900600000000000000e+04 6.900800000000000000e+04 6.961000000000000000e+04 6.961200000000000000e+04 6.961400000000000000e+04 6.961600000000000000e+04 6.961800000000000000e+04 6.962000000000000000e+04 6.962200000000000000e+04 6.962400000000000000e+04 6.962600000000000000e+04 6.962800000000000000e+04 1.011400000000000000e+04 1.011500000000000000e+04 9.817000000000000000e+03 6.903900000000000000e+04 9.519000000000000000e+03 6.904000000000000000e+04 6.904200000000000000e+04 6.904700000000000000e+04 6.904900000000000000e+04 9.524000000000000000e+03 9.824000000000000000e+03 6.905200000000000000e+04 6.905400000000000000e+04 6.905600000000000000e+04 6.905800000000000000e+04 9.530000000000000000e+03 6.906500000000000000e+04 6.906700000000000000e+04 9.533000000000000000e+03 6.906800000000000000e+04 6.907000000000000000e+04 6.907200000000000000e+04 6.907400000000000000e+04 6.907600000000000000e+04 6.907800000000000000e+04 6.908000000000000000e+04 6.908200000000000000e+04
6.884800000000000000e+04 6.885000000000000000e+04 6.885200000000000000e+04 6.885400000000000000e+04 6.885600000000000000e+04 6.885800000000000000e+04 6.886000000000000000e+04 6.886200000000000000e+04 9.431000000000000000e+03 9.432000000000000000e+03 9.433000000000000000e+03 9.434000000000000000e+03 9.435000000000000000e+03 6.887300000000000000e+04 6.887500000000000000e+04 6.887700000000000000e+04 9.439000000000000000e+03 9.440000000000000000e+03 6.888400000000000000e+04 6.888600000000000000e+04 9.144000000000000000e+03 9.145000000000000000e+03 9.146000000000000000e+03 9.147000000000000000e+03 9.148000000000000000e+03 9.149000000000000000e+03 8.850000000000000000e+03 9.150000000000000000e+03 9.151000000000000000e+03 9.152000000000000000e+03 9.153000000000000000e+03 9.154000000000000000e+03 6.831200000000000000e+04 6.831700000000000000e+04 8.858000000000000000e+03 8.859000000000000000e+03 6.832000000000000000e+04 6.832200000000000000e+04 6.832400000000000000e+04 6.832600000000000000e+04 6.832800000000000000e+04 6.833300000000000000e+04 6.833500000000000000e+04 6.833700000000000000e+04 6.833900000000000000e+04 6.834100000000000000e+04 6.834300000000000000e+04 6.834500000000000000e+04 8.872000000000000000e+03 6.834600000000000000e+04 8.874000000000000000e+03 6.835000000000000000e+04 6.835200000000000000e+04 6.895400000000000000e+04 9.178000000000000000e+03 6.836100000000000000e+04 8.880000000000000000e+03 6.836200000000000000e+04 6.836400000000000000e+04 6.836600000000000000e+04 6.836800000000000000e+04 6.837000000000000000e+04 6.837200000000000000e+04 6.837400000000000000e+04 6.837600000000000000e+04 6.837800000000000000e+04 6.838300000000000000e+04 6.838500000000000000e+04 6.838700000000000000e+04 6.838900000000000000e+04 6.839100000000000000e+04 6.839300000000000000e+04 6.839500000000000000e+04 8.897000000000000000e+03 6.839600000000000000e+04 6.839800000000000000e+04 6.840000000000000000e+04 6.840200000000000000e+04 6.840400000000000000e+04 6.840600000000000000e+04 6.840800000000000000e+04 8.905000000000000000e+03 6.841200000000000000e+04 6.901400000000000000e+04 6.901600000000000000e+04 6.901800000000000000e+04 6.902000000000000000e+04 6.902200000000000000e+04 6.902400000000000000e+04 6.902600000000000000e+04 6.902800000000000000e+04 6.903000000000000000e+04 9.515000000000000000e+03 6.903400000000000000e+04 6.903600000000000000e+04 9.219000000000000000e+03 6.844300000000000000e+04 8.921000000000000000e+03 6.844400000000000000e+04 6.844600000000000000e+04 6.845100000000000000e+04 8.925000000000000000e+03 9.225000000000000000e+03 6.845400000000000000e+04 6.845600000000000000e+04 6.845800000000000000e+04 6.846000000000000000e+04 6.846500000000000000e+04 6.846700000000000000e+04 8.933000000000000000e+03 8.934000000000000000e+03 6.847000000000000000e+04 6.847200000000000000e+04 6.847400000000000000e+04 6.847600000000000000e+04 6.847800000000000000e+04 6.848000000000000000e+04 6.848200000000000000e+04 6.848400000000000000e+04
8.225000000000000000e+03 6.825200000000000000e+04 6.825400000000000000e+04 6.825600000000000000e+04 6.825800000000000000e+04 6.826000000000000000e+04 6.826200000000000000e+04 6.826400000000000000e+04 8.832000000000000000e+03 8.833000000000000000e+03 8.834000000000000000e+03 8.835000000000000000e+03 8.836000000000000000e+03 6.827500000000000000e+04 6.827700000000000000e+04 6.827900000000000000e+04 8.840000000000000000e+03 8.841000000000000000e+03 8.543000000000000000e+03 8.544000000000000000e+03 8.545000000000000000e+03 8.546000000000000000e+03 8.547000000000000000e+03 8.548000000000000000e+03 8.549000000000000000e+03 8.550000000000000000e+03 8.251000000000000000e+03 8.551000000000000000e+03 8.552000000000000000e+03 8.553000000000000000e+03 8.554000000000000000e+03 8.555000000000000000e+03 6.771700000000000000e+04 6.771900000000000000e+04 8.259000000000000000e+03 8.260000000000000000e+03 6.772200000000000000e+04 6.772400000000000000e+04 6.772600000000000000e+04 6.772800000000000000e+04 6.773000000000000000e+04 6.773500000000000000e+04 6.773700000000000000e+04 6.773900000000000000e+04 6.774100000000000000e+04 6.774300000000000000e+04 6.774500000000000000e+04 6.774700000000000000e+04 8.273000000000000000e+03 8.274000000000000000e+03 8.275000000000000000e+03 6.775200000000000000e+04 6.775400000000000000e+04 8.278000000000000000e+03 6.835800000000000000e+04 8.580000000000000000e+03 8.281000000000000000e+03 8.581000000000000000e+03 8.582000000000000000e+03 8.583000000000000000e+03 8.584000000000000000e+03 8.585000000000000000e+03 8.586000000000000000e+03 8.587000000000000000e+03 8.588000000000000000e+03 6.778300000000000000e+04 6.778500000000000000e+04 6.778700000000000000e+04 6.778900000000000000e+04 6.779100000000000000e+04 6.779300000000000000e+04 6.779500000000000000e+04 6.779700000000000000e+04 8.298000000000000000e+03 6.779800000000000000e+04 6.780000000000000000e+04 6.780200000000000000e+04 6.780400000000000000e+04 6.780600000000000000e+04 6.780800000000000000e+04 6.781000000000000000e+04 8.306000000000000000e+03 6.781400000000000000e+04 6.781600000000000000e+04 6.841800000000000000e+04 6.842000000000000000e+04 6.842200000000000000e+04 6.842400000000000000e+04 6.842600000000000000e+04 6.842800000000000000e+04 6.843000000000000000e+04 6.843200000000000000e+04 6.843400000000000000e+04 6.843600000000000000e+04 6.843800000000000000e+04 6.844000000000000000e+04 8.621000000000000000e+03 6.784700000000000000e+04 8.323000000000000000e+03 6.784800000000000000e+04 6.785300000000000000e+04 8.326000000000000000e+03 8.626000000000000000e+03 6.785600000000000000e+04 6.785800000000000000e+04 6.786000000000000000e+04 6.786200000000000000e+04 6.786700000000000000e+04 6.786900000000000000e+04 8.334000000000000000e+03 6.787000000000000000e+04 8.635000000000000000e+03 8.636000000000000000e+03 8.637000000000000000e+03 8.638000000000000000e+03 8.639000000000000000e+03 8.640000000000000000e+03 8.641000000000000000e+03 6.788900000000000000e+04
7.626000000000000000e+03 7.627000000000000000e+03 7.628000000000000000e+03 7.629000000000000000e+03 6.766000000000000000e+04 6.766200000000000000e+04 6.766400000000000000e+04 6.766600000000000000e+04 8.233000000000000000e+03 8.234000000000000000e+03 8.235000000000000000e+03 8.236000000000000000e+03 8.237000000000000000e+03 8.238000000000000000e+03 6.767900000000000000e+04 6.768100000000000000e+04 8.241000000000000000e+03 7.943000000000000000e+03 7.944000000000000000e+03 7.945000000000000000e+03 7.946000000000000000e+03 7.947000000000000000e+03 7.948000000000000000e+03 7.949000000000000000e+03 7.950000000000000000e+03 7.951000000000000000e+03 7.652000000000000000e+03 7.952000000000000000e+03 7.953000000000000000e+03 7.954000000000000000e+03 7.955000000000000000e+03 6.711400000000000000e+04 6.711900000000000000e+04 6.712100000000000000e+04 7.660000000000000000e+03 6.712200000000000000e+04 6.712400000000000000e+04 6.712600000000000000e+04 6.712800000000000000e+04 6.713000000000000000e+04 6.713200000000000000e+04 6.713700000000000000e+04 6.713900000000000000e+04 6.714100000000000000e+04 6.714300000000000000e+04 6.714500000000000000e+04 6.714700000000000000e+04 7.973000000000000000e+03 6.715100000000000000e+04 7.675000000000000000e+03 7.676000000000000000e+03 6.715400000000000000e+04 6.715600000000000000e+04 7.679000000000000000e+03 7.680000000000000000e+03 7.981000000000000000e+03 7.682000000000000000e+03 7.982000000000000000e+03 7.983000000000000000e+03 7.984000000000000000e+03 7.985000000000000000e+03 7.986000000000000000e+03 7.987000000000000000e+03 7.988000000000000000e+03 7.989000000000000000e+03 6.718500000000000000e+04 6.718700000000000000e+04 6.718900000000000000e+04 6.719100000000000000e+04 6.719300000000000000e+04 6.719500000000000000e+04 6.719700000000000000e+04 6.719900000000000000e+04 7.699000000000000000e+03 6.720000000000000000e+04 6.720200000000000000e+04 6.720400000000000000e+04 6.720600000000000000e+04 6.720800000000000000e+04 6.721000000000000000e+04 7.706000000000000000e+03 7.707000000000000000e+03 6.721600000000000000e+04 6.721800000000000000e+04 6.722000000000000000e+04 6.782200000000000000e+04 6.782400000000000000e+04 6.782600000000000000e+04 6.782800000000000000e+04 6.783000000000000000e+04 6.783200000000000000e+04 6.783400000000000000e+04 6.783600000000000000e+04 6.783800000000000000e+04 6.784000000000000000e+04 6.784200000000000000e+04 6.784400000000000000e+04 8.023000000000000000e+03 7.724000000000000000e+03 8.024000000000000000e+03 6.725500000000000000e+04 7.727000000000000000e+03 8.027000000000000000e+03 6.725800000000000000e+04 6.726000000000000000e+04 6.726200000000000000e+04 6.726400000000000000e+04 6.726900000000000000e+04 6.727100000000000000e+04 7.735000000000000000e+03 6.727200000000000000e+04 6.727400000000000000e+04 6.727600000000000000e+04 6.727800000000000000e+04 8.039000000000000000e+03 8.040000000000000000e+03 8.041000000000000000e+03 6.728600000000000000e+04 6.729100000000000000e+04
7.027000000000000000e+03 7.028000000000000000e+03 7.029000000000000000e+03 7.030000000000000000e+03 7.031000000000000000e+03 7.032000000000000000e+03 7.033000000000000000e+03 6.706800000000000000e+04 7.634000000000000000e+03 7.635000000000000000e+03 7.636000000000000000e+03 7.637000000000000000e+03 7.638000000000000000e+03 7.639000000000000000e+03 6.708100000000000000e+04 6.708300000000000000e+04 6.648900000000000000e+04 7.344000000000000000e+03 7.345000000000000000e+03 7.346000000000000000e+03 7.347000000000000000e+03 7.348000000000000000e+03 7.349000000000000000e+03 7.350000000000000000e+03 7.351000000000000000e+03 7.352000000000000000e+03 7.053000000000000000e+03 7.353000000000000000e+03 7.354000000000000000e+03 6.651200000000000000e+04 6.651400000000000000e+04 6.651900000000000000e+04 6.652100000000000000e+04 6.652300000000000000e+04 7.061000000000000000e+03 6.652400000000000000e+04 6.652600000000000000e+04 6.652800000000000000e+04 6.653000000000000000e+04 6.653200000000000000e+04 6.653400000000000000e+04 6.653900000000000000e+04 6.654100000000000000e+04 6.654300000000000000e+04 6.654500000000000000e+04 6.654700000000000000e+04 6.654900000000000000e+04 6.655100000000000000e+04 6.655300000000000000e+04 7.076000000000000000e+03 6.655400000000000000e+04 7.377000000000000000e+03 7.079000000000000000e+03 7.080000000000000000e+03 7.081000000000000000e+03 7.082000000000000000e+03 6.656600000000000000e+04 7.383000000000000000e+03 7.384000000000000000e+03 7.385000000000000000e+03 7.386000000000000000e+03 7.387000000000000000e+03 7.388000000000000000e+03 7.389000000000000000e+03 7.091000000000000000e+03 6.658700000000000000e+04 6.658900000000000000e+04 6.659100000000000000e+04 6.659300000000000000e+04 6.659500000000000000e+04 6.659700000000000000e+04 6.659900000000000000e+04 6.660100000000000000e+04 7.100000000000000000e+03 6.660200000000000000e+04 6.660400000000000000e+04 6.660600000000000000e+04 6.660800000000000000e+04 6.661000000000000000e+04 6.661200000000000000e+04 7.107000000000000000e+03 7.108000000000000000e+03 6.661800000000000000e+04 6.662000000000000000e+04 6.662200000000000000e+04 7.112000000000000000e+03 7.113000000000000000e+03 6.722800000000000000e+04 6.723000000000000000e+04 6.723200000000000000e+04 6.723400000000000000e+04 6.723600000000000000e+04 6.723800000000000000e+04 7.420000000000000000e+03 7.421000000000000000e+03 7.422000000000000000e+03 7.423000000000000000e+03 7.424000000000000000e+03 7.125000000000000000e+03 7.425000000000000000e+03 6.665700000000000000e+04 7.128000000000000000e+03 7.428000000000000000e+03 6.666000000000000000e+04 6.666200000000000000e+04 6.666400000000000000e+04 6.666600000000000000e+04 6.667100000000000000e+04 6.667300000000000000e+04 7.136000000000000000e+03 6.667400000000000000e+04 6.667600000000000000e+04 6.667800000000000000e+04 6.668000000000000000e+04 6.668200000000000000e+04 6.668400000000000000e+04 6.668600000000000000e+04 6.668800000000000000e+04 6.669300000000000000e+04
6.428000000000000000e+03 6.429000000000000000e+03 6.430000000000000000e+03 6.431000000000000000e+03 6.432000000000000000e+03 6.433000000000000000e+03 6.434000000000000000e+03 6.435000000000000000e+03 6.436000000000000000e+03 6.437000000000000000e+03 6.438000000000000000e+03 6.439000000000000000e+03 6.440000000000000000e+03 6.441000000000000000e+03 6.442000000000000000e+03 6.443000000000000000e+03 6.589100000000000000e+04 6.589300000000000000e+04 6.746000000000000000e+03 6.747000000000000000e+03 6.748000000000000000e+03 6.749000000000000000e+03 6.750000000000000000e+03 6.751000000000000000e+03 6.752000000000000000e+03 6.753000000000000000e+03 6.591100000000000000e+04 6.455000000000000000e+03 6.591200000000000000e+04 6.591400000000000000e+04 6.591600000000000000e+04 6.592100000000000000e+04 6.592300000000000000e+04 6.592500000000000000e+04 6.462000000000000000e+03 6.592600000000000000e+04 6.592800000000000000e+04 6.593000000000000000e+04 6.593200000000000000e+04 6.593400000000000000e+04 6.593600000000000000e+04 6.594100000000000000e+04 6.594300000000000000e+04 6.594500000000000000e+04 6.594700000000000000e+04 6.594900000000000000e+04 6.595100000000000000e+04 6.595300000000000000e+04 6.476000000000000000e+03 6.595400000000000000e+04 6.777000000000000000e+03 6.655700000000000000e+04 6.779000000000000000e+03 6.780000000000000000e+03 6.781000000000000000e+03 6.782000000000000000e+03 6.783000000000000000e+03 6.656900000000000000e+04 6.657100000000000000e+04 6.657300000000000000e+04 6.657500000000000000e+04 6.657700000000000000e+04 6.789000000000000000e+03 6.491000000000000000e+03 6.492000000000000000e+03 6.493000000000000000e+03 6.599100000000000000e+04 6.599300000000000000e+04 6.599500000000000000e+04 6.599700000000000000e+04 6.599900000000000000e+04 6.600100000000000000e+04 6.500000000000000000e+03 6.501000000000000000e+03 6.600400000000000000e+04 6.802000000000000000e+03 6.803000000000000000e+03 6.804000000000000000e+03 6.805000000000000000e+03 6.601400000000000000e+04 6.508000000000000000e+03 6.509000000000000000e+03 6.602000000000000000e+04 6.602200000000000000e+04 6.602400000000000000e+04 6.513000000000000000e+03 6.514000000000000000e+03 6.515000000000000000e+03 6.516000000000000000e+03 6.663400000000000000e+04 6.663600000000000000e+04 6.819000000000000000e+03 6.820000000000000000e+03 6.821000000000000000e+03 6.822000000000000000e+03 6.823000000000000000e+03 6.824000000000000000e+03 6.825000000000000000e+03 6.605500000000000000e+04 6.527000000000000000e+03 6.828000000000000000e+03 6.606100000000000000e+04 6.530000000000000000e+03 6.606200000000000000e+04 6.606400000000000000e+04 6.606600000000000000e+04 6.606800000000000000e+04 6.607300000000000000e+04 6.536000000000000000e+03 6.607400000000000000e+04 6.837000000000000000e+03 6.838000000000000000e+03 6.839000000000000000e+03 6.840000000000000000e+03 6.841000000000000000e+03 6.842000000000000000e+03 6.843000000000000000e+03 6.545000000000000000e+03 6.609500000000000000e+04
5.829000000000000000e+03 5.830000000000000000e+03 5.831000000000000000e+03 5.832000000000000000e+03 5.833000000000000000e+03 5.834000000000000000e+03 5.835000000000000000e+03 5.836000000000000000e+03 5.837000000000000000e+03 5.838000000000000000e+03 5.839000000000000000e+03 5.840000000000000000e+03 5.841000000000000000e+03 5.842000000000000000e+03 5.843000000000000000e+03 5.844000000000000000e+03 5.845000000000000000e+03 6.529500000000000000e+04 6.529700000000000000e+04 6.148000000000000000e+03 6.149000000000000000e+03 6.150000000000000000e+03 6.151000000000000000e+03 6.152000000000000000e+03 6.530900000000000000e+04 6.531100000000000000e+04 5.855000000000000000e+03 6.531200000000000000e+04 6.156000000000000000e+03 6.157000000000000000e+03 6.158000000000000000e+03 6.532300000000000000e+04 6.532500000000000000e+04 6.532700000000000000e+04 5.863000000000000000e+03 6.532800000000000000e+04 6.533000000000000000e+04 6.533200000000000000e+04 6.533400000000000000e+04 6.533600000000000000e+04 6.533800000000000000e+04 6.534000000000000000e+04 6.171000000000000000e+03 6.172000000000000000e+03 6.173000000000000000e+03 6.174000000000000000e+03 6.175000000000000000e+03 6.176000000000000000e+03 5.877000000000000000e+03 6.177000000000000000e+03 6.595700000000000000e+04 6.479000000000000000e+03 6.480000000000000000e+03 6.481000000000000000e+03 6.482000000000000000e+03 6.483000000000000000e+03 6.596900000000000000e+04 6.597100000000000000e+04 6.597300000000000000e+04 6.597500000000000000e+04 6.597700000000000000e+04 6.597900000000000000e+04 5.891000000000000000e+03 5.892000000000000000e+03 5.893000000000000000e+03 5.894000000000000000e+03 6.539300000000000000e+04 6.539500000000000000e+04 6.539700000000000000e+04 6.539900000000000000e+04 6.540100000000000000e+04 6.540300000000000000e+04 5.901000000000000000e+03 6.540400000000000000e+04 6.202000000000000000e+03 6.203000000000000000e+03 6.204000000000000000e+03 6.205000000000000000e+03 6.206000000000000000e+03 6.541900000000000000e+04 6.542100000000000000e+04 5.910000000000000000e+03 6.542200000000000000e+04 6.542400000000000000e+04 5.913000000000000000e+03 5.914000000000000000e+03 5.915000000000000000e+03 5.916000000000000000e+03 5.917000000000000000e+03 5.918000000000000000e+03 5.919000000000000000e+03 6.220000000000000000e+03 6.221000000000000000e+03 6.604400000000000000e+04 6.604600000000000000e+04 6.604800000000000000e+04 6.605000000000000000e+04 6.605200000000000000e+04 6.227000000000000000e+03 6.228000000000000000e+03 6.605800000000000000e+04 6.230000000000000000e+03 6.546500000000000000e+04 5.932000000000000000e+03 6.546600000000000000e+04 6.546800000000000000e+04 5.935000000000000000e+03 5.936000000000000000e+03 5.937000000000000000e+03 6.547600000000000000e+04 6.238000000000000000e+03 6.239000000000000000e+03 6.240000000000000000e+03 6.241000000000000000e+03 6.242000000000000000e+03 6.243000000000000000e+03 5.945000000000000000e+03 5.946000000000000000e+03 5.947000000000000000e+03
5.230000000000000000e+03 5.231000000000000000e+03 5.232000000000000000e+03 5.233000000000000000e+03 5.234000000000000000e+03 5.235000000000000000e+03 5.236000000000000000e+03 5.237000000000000000e+03 5.238000000000000000e+03 5.239000000000000000e+03 5.240000000000000000e+03 5.241000000000000000e+03 5.242000000000000000e+03 5.243000000000000000e+03 5.244000000000000000e+03 5.245000000000000000e+03 5.246000000000000000e+03 5.247000000000000000e+03 6.469900000000000000e+04 5.249000000000000000e+03 5.550000000000000000e+03 5.551000000000000000e+03 5.552000000000000000e+03 5.553000000000000000e+03 5.554000000000000000e+03 5.555000000000000000e+03 5.256000000000000000e+03 5.556000000000000000e+03 6.531500000000000000e+04 5.558000000000000000e+03 6.472300000000000000e+04 6.472500000000000000e+04 6.472700000000000000e+04 6.472900000000000000e+04 5.264000000000000000e+03 6.473000000000000000e+04 6.473200000000000000e+04 6.473400000000000000e+04 6.473600000000000000e+04 6.473800000000000000e+04 6.474000000000000000e+04 6.474200000000000000e+04 5.572000000000000000e+03 5.573000000000000000e+03 5.574000000000000000e+03 5.575000000000000000e+03 5.576000000000000000e+03 5.577000000000000000e+03 6.475900000000000000e+04 5.279000000000000000e+03 6.476000000000000000e+04 6.476200000000000000e+04 6.536300000000000000e+04 5.882000000000000000e+03 5.883000000000000000e+03 5.884000000000000000e+03 6.537100000000000000e+04 6.537300000000000000e+04 6.537500000000000000e+04 6.537700000000000000e+04 5.290000000000000000e+03 5.291000000000000000e+03 5.292000000000000000e+03 5.293000000000000000e+03 5.294000000000000000e+03 5.295000000000000000e+03 5.296000000000000000e+03 6.479700000000000000e+04 6.479900000000000000e+04 6.480100000000000000e+04 6.480300000000000000e+04 5.601000000000000000e+03 5.302000000000000000e+03 6.480600000000000000e+04 5.603000000000000000e+03 5.604000000000000000e+03 5.605000000000000000e+03 5.606000000000000000e+03 5.308000000000000000e+03 6.482100000000000000e+04 6.482300000000000000e+04 5.311000000000000000e+03 6.482400000000000000e+04 6.482600000000000000e+04 5.314000000000000000e+03 5.315000000000000000e+03 5.316000000000000000e+03 5.317000000000000000e+03 5.318000000000000000e+03 5.319000000000000000e+03 5.320000000000000000e+03 5.321000000000000000e+03 5.322000000000000000e+03 6.544600000000000000e+04 6.544800000000000000e+04 6.545000000000000000e+04 6.545200000000000000e+04 6.545400000000000000e+04 6.545600000000000000e+04 5.928000000000000000e+03 5.929000000000000000e+03 6.546200000000000000e+04 5.632000000000000000e+03 5.333000000000000000e+03 5.633000000000000000e+03 6.487000000000000000e+04 5.336000000000000000e+03 5.337000000000000000e+03 6.487600000000000000e+04 5.638000000000000000e+03 5.639000000000000000e+03 5.640000000000000000e+03 5.641000000000000000e+03 5.642000000000000000e+03 6.488800000000000000e+04 5.345000000000000000e+03 5.346000000000000000e+03 5.347000000000000000e+03 5.348000000000000000e+03
4.631000000000000000e+03 4.632000000000000000e+03 4.633000000000000000e+03 4.634000000000000000e+03 4.635000000000000000e+03 4.636000000000000000e+03 4.637000000000000000e+03 4.638000000000000000e+03 4.639000000000000000e+03 4.640000000000000000e+03 4.641000000000000000e+03 4.642000000000000000e+03 4.643000000000000000e+03 4.644000000000000000e+03 4.645000000000000000e+03 4.646000000000000000e+03 4.647000000000000000e+03 4.648000000000000000e+03 6.410100000000000000e+04 4.650000000000000000e+03 4.651000000000000000e+03 4.952000000000000000e+03 4.953000000000000000e+03 4.954000000000000000e+03 4.955000000000000000e+03 4.956000000000000000e+03 6.411700000000000000e+04 4.658000000000000000e+03 6.411800000000000000e+04 6.412000000000000000e+04 6.412500000000000000e+04 6.412700000000000000e+04 6.412900000000000000e+04 4.664000000000000000e+03 4.665000000000000000e+03 6.413200000000000000e+04 6.413400000000000000e+04 6.413600000000000000e+04 6.413800000000000000e+04 6.414000000000000000e+04 6.414200000000000000e+04 6.414400000000000000e+04 6.414600000000000000e+04 4.974000000000000000e+03 4.975000000000000000e+03 4.976000000000000000e+03 4.977000000000000000e+03 6.475600000000000000e+04 4.979000000000000000e+03 4.680000000000000000e+03 4.980000000000000000e+03 4.981000000000000000e+03 4.982000000000000000e+03 4.983000000000000000e+03 6.476900000000000000e+04 6.477100000000000000e+04 6.477300000000000000e+04 6.477500000000000000e+04 4.689000000000000000e+03 4.690000000000000000e+03 4.691000000000000000e+03 4.692000000000000000e+03 4.693000000000000000e+03 4.694000000000000000e+03 4.695000000000000000e+03 4.696000000000000000e+03 4.697000000000000000e+03 6.419900000000000000e+04 4.999000000000000000e+03 5.000000000000000000e+03 5.001000000000000000e+03 6.420700000000000000e+04 4.703000000000000000e+03 5.003000000000000000e+03 5.004000000000000000e+03 5.005000000000000000e+03 6.421400000000000000e+04 6.421600000000000000e+04 6.422100000000000000e+04 6.422300000000000000e+04 6.422500000000000000e+04 4.712000000000000000e+03 6.422600000000000000e+04 6.422800000000000000e+04 4.715000000000000000e+03 4.716000000000000000e+03 4.717000000000000000e+03 4.718000000000000000e+03 4.719000000000000000e+03 4.720000000000000000e+03 4.721000000000000000e+03 4.722000000000000000e+03 4.723000000000000000e+03 4.724000000000000000e+03 6.485000000000000000e+04 6.485200000000000000e+04 6.485400000000000000e+04 6.485600000000000000e+04 6.485800000000000000e+04 5.329000000000000000e+03 5.330000000000000000e+03 5.032000000000000000e+03 5.033000000000000000e+03 6.427100000000000000e+04 4.735000000000000000e+03 6.427200000000000000e+04 4.737000000000000000e+03 6.427600000000000000e+04 5.038000000000000000e+03 5.039000000000000000e+03 5.040000000000000000e+03 5.041000000000000000e+03 5.042000000000000000e+03 6.428800000000000000e+04 4.745000000000000000e+03 4.746000000000000000e+03 4.747000000000000000e+03 4.748000000000000000e+03 4.749000000000000000e+03
4.032000000000000000e+03 4.033000000000000000e+03 4.034000000000000000e+03 4.035000000000000000e+03 4.036000000000000000e+03 4.037000000000000000e+03 4.038000000000000000e+03 4.039000000000000000e+03 4.040000000000000000e+03 4.041000000000000000e+03 4.042000000000000000e+03 4.043000000000000000e+03 4.044000000000000000e+03 4.045000000000000000e+03 4.046000000000000000e+03 4.047000000000000000e+03 4.048000000000000000e+03 4.049000000000000000e+03 6.350300000000000000e+04 4.051000000000000000e+03 6.350400000000000000e+04 4.353000000000000000e+03 6.410800000000000000e+04 6.411000000000000000e+04 6.411200000000000000e+04 6.411400000000000000e+04 4.358000000000000000e+03 6.352100000000000000e+04 4.060000000000000000e+03 6.352200000000000000e+04 6.352700000000000000e+04 6.352900000000000000e+04 4.364000000000000000e+03 4.365000000000000000e+03 6.353500000000000000e+04 4.067000000000000000e+03 6.353600000000000000e+04 6.353800000000000000e+04 6.354000000000000000e+04 6.354200000000000000e+04 6.354400000000000000e+04 6.354600000000000000e+04 6.354800000000000000e+04 6.355300000000000000e+04 6.355500000000000000e+04 6.355700000000000000e+04 6.355900000000000000e+04 6.356100000000000000e+04 4.080000000000000000e+03 6.356200000000000000e+04 4.381000000000000000e+03 4.382000000000000000e+03 4.383000000000000000e+03 6.357000000000000000e+04 6.357200000000000000e+04 6.357400000000000000e+04 6.357600000000000000e+04 4.089000000000000000e+03 4.090000000000000000e+03 4.091000000000000000e+03 4.092000000000000000e+03 4.093000000000000000e+03 4.094000000000000000e+03 4.095000000000000000e+03 4.096000000000000000e+03 4.097000000000000000e+03 4.098000000000000000e+03 4.099000000000000000e+03 6.360300000000000000e+04 4.401000000000000000e+03 4.402000000000000000e+03 4.403000000000000000e+03 4.104000000000000000e+03 4.404000000000000000e+03 6.361200000000000000e+04 6.361400000000000000e+04 6.361600000000000000e+04 4.109000000000000000e+03 6.362300000000000000e+04 6.362500000000000000e+04 4.112000000000000000e+03 4.113000000000000000e+03 6.362800000000000000e+04 6.363000000000000000e+04 4.116000000000000000e+03 4.117000000000000000e+03 4.118000000000000000e+03 4.119000000000000000e+03 4.120000000000000000e+03 4.121000000000000000e+03 4.122000000000000000e+03 4.123000000000000000e+03 4.124000000000000000e+03 4.125000000000000000e+03 4.126000000000000000e+03 4.127000000000000000e+03 6.425600000000000000e+04 6.425800000000000000e+04 6.426000000000000000e+04 6.426200000000000000e+04 6.426400000000000000e+04 6.426600000000000000e+04 6.426800000000000000e+04 4.435000000000000000e+03 6.367500000000000000e+04 4.137000000000000000e+03 6.367600000000000000e+04 4.438000000000000000e+03 4.439000000000000000e+03 4.440000000000000000e+03 4.441000000000000000e+03 4.442000000000000000e+03 6.368800000000000000e+04 6.369000000000000000e+04 4.146000000000000000e+03 4.147000000000000000e+03 4.148000000000000000e+03 4.149000000000000000e+03 4.150000000000000000e+03
3.433000000000000000e+03 3.434000000000000000e+03 3.435000000000000000e+03 3.436000000000000000e+03 3.437000000000000000e+03 3.438000000000000000e+03 3.439000000000000000e+03 3.440000000000000000e+03 3.441000000000000000e+03 3.442000000000000000e+03 3.443000000000000000e+03 3.444000000000000000e+03 3.445000000000000000e+03 3.446000000000000000e+03 3.447000000000000000e+03 3.448000000000000000e+03 3.449000000000000000e+03 3.450000000000000000e+03 6.290500000000000000e+04 3.452000000000000000e+03 6.290600000000000000e+04 3.454000000000000000e+03 3.455000000000000000e+03 6.351200000000000000e+04 6.351400000000000000e+04 6.351600000000000000e+04 6.351800000000000000e+04 3.760000000000000000e+03 6.292500000000000000e+04 3.462000000000000000e+03 6.292900000000000000e+04 3.764000000000000000e+03 6.353000000000000000e+04 4.065000000000000000e+03 3.767000000000000000e+03 6.293900000000000000e+04 3.469000000000000000e+03 6.294000000000000000e+04 6.294200000000000000e+04 6.294400000000000000e+04 6.294600000000000000e+04 6.294800000000000000e+04 6.295000000000000000e+04 6.295500000000000000e+04 6.295700000000000000e+04 3.778000000000000000e+03 3.779000000000000000e+03 3.780000000000000000e+03 3.481000000000000000e+03 3.781000000000000000e+03 6.356500000000000000e+04 6.296800000000000000e+04 6.297000000000000000e+04 6.297200000000000000e+04 6.297400000000000000e+04 6.297600000000000000e+04 3.489000000000000000e+03 3.490000000000000000e+03 3.491000000000000000e+03 3.492000000000000000e+03 3.493000000000000000e+03 6.299100000000000000e+04 3.495000000000000000e+03 3.496000000000000000e+03 3.497000000000000000e+03 3.498000000000000000e+03 3.499000000000000000e+03 3.500000000000000000e+03 6.300500000000000000e+04 6.300700000000000000e+04 3.803000000000000000e+03 3.804000000000000000e+03 3.505000000000000000e+03 3.805000000000000000e+03 6.301400000000000000e+04 6.301600000000000000e+04 6.301800000000000000e+04 3.510000000000000000e+03 6.302500000000000000e+04 6.302700000000000000e+04 3.513000000000000000e+03 6.302800000000000000e+04 6.303000000000000000e+04 3.516000000000000000e+03 3.517000000000000000e+03 3.518000000000000000e+03 3.519000000000000000e+03 3.520000000000000000e+03 3.521000000000000000e+03 3.522000000000000000e+03 3.523000000000000000e+03 3.524000000000000000e+03 3.525000000000000000e+03 3.526000000000000000e+03 3.527000000000000000e+03 3.528000000000000000e+03 3.529000000000000000e+03 3.530000000000000000e+03 3.531000000000000000e+03 6.366400000000000000e+04 6.366600000000000000e+04 6.366800000000000000e+04 6.367000000000000000e+04 6.367200000000000000e+04 3.837000000000000000e+03 3.538000000000000000e+03 3.838000000000000000e+03 3.839000000000000000e+03 3.840000000000000000e+03 3.841000000000000000e+03 6.308600000000000000e+04 3.544000000000000000e+03 6.309000000000000000e+04 3.546000000000000000e+03 3.547000000000000000e+03 3.548000000000000000e+03 3.549000000000000000e+03 3.550000000000000000e+03 3.551000000000000000e+03
2.834000000000000000e+03 2.835000000000000000e+03 2.836000000000000000e+03 2.837000000000000000e+03 2.838000000000000000e+03 2.839000000000000000e+03 2.840000000000000000e+03 2.841000000000000000e+03 2.842000000000000000e+03 2.843000000000000000e+03 2.844000000000000000e+03 2.845000000000000000e+03 2.846000000000000000e+03 2.847000000000000000e+03 2.848000000000000000e+03 2.849000000000000000e+03 2.850000000000000000e+03 2.851000000000000000e+03 6.230700000000000000e+04 2.853000000000000000e+03 6.230800000000000000e+04 2.855000000000000000e+03 2.856000000000000000e+03 2.857000000000000000e+03 6.291600000000000000e+04 6.291800000000000000e+04 6.292000000000000000e+04 6.292200000000000000e+04 3.162000000000000000e+03 6.232900000000000000e+04 3.164000000000000000e+03 6.293000000000000000e+04 3.465000000000000000e+03 6.293300000000000000e+04 6.293600000000000000e+04 3.169000000000000000e+03 6.234300000000000000e+04 2.871000000000000000e+03 6.234400000000000000e+04 6.234600000000000000e+04 6.234800000000000000e+04 6.235000000000000000e+04 2.876000000000000000e+03 2.877000000000000000e+03 6.235900000000000000e+04 3.179000000000000000e+03 3.180000000000000000e+03 3.181000000000000000e+03 6.236700000000000000e+04 2.883000000000000000e+03 6.236800000000000000e+04 6.237000000000000000e+04 6.237200000000000000e+04 6.237400000000000000e+04 6.237600000000000000e+04 2.889000000000000000e+03 2.890000000000000000e+03 2.891000000000000000e+03 2.892000000000000000e+03 2.893000000000000000e+03 2.894000000000000000e+03 2.895000000000000000e+03 6.239500000000000000e+04 2.897000000000000000e+03 2.898000000000000000e+03 2.899000000000000000e+03 2.900000000000000000e+03 2.901000000000000000e+03 2.902000000000000000e+03 6.240900000000000000e+04 6.241100000000000000e+04 3.205000000000000000e+03 2.906000000000000000e+03 3.206000000000000000e+03 3.207000000000000000e+03 6.241800000000000000e+04 2.910000000000000000e+03 2.911000000000000000e+03 6.242700000000000000e+04 6.242900000000000000e+04 2.914000000000000000e+03 6.243000000000000000e+04 6.243200000000000000e+04 2.917000000000000000e+03 2.918000000000000000e+03 2.919000000000000000e+03 2.920000000000000000e+03 2.921000000000000000e+03 6.244700000000000000e+04 2.923000000000000000e+03 2.924000000000000000e+03 2.925000000000000000e+03 2.926000000000000000e+03 2.927000000000000000e+03 2.928000000000000000e+03 2.929000000000000000e+03 2.930000000000000000e+03 2.931000000000000000e+03 2.932000000000000000e+03 2.933000000000000000e+03 6.247100000000000000e+04 3.235000000000000000e+03 3.236000000000000000e+03 3.237000000000000000e+03 3.238000000000000000e+03 2.939000000000000000e+03 3.239000000000000000e+03 6.248200000000000000e+04 6.248400000000000000e+04 6.248600000000000000e+04 2.944000000000000000e+03 2.945000000000000000e+03 6.249200000000000000e+04 2.947000000000000000e+03 2.948000000000000000e+03 2.949000000000000000e+03 2.950000000000000000e+03 2.951000000000000000e+03 2.952000000000000000e+03
2.235000000000000000e+03 2.236000000000000000e+03 2.237000000000000000e+03 2.238000000000000000e+03 2.239000000000000000e+03 2.240000000000000000e+03 2.241000000000000000e+03 2.242000000000000000e+03 2.243000000000000000e+03 2.244000000000000000e+03 2.245000000000000000e+03 2.246000000000000000e+03 2.247000000000000000e+03 2.248000000000000000e+03 2.249000000000000000e+03 2.250000000000000000e+03 2.251000000000000000e+03 2.252000000000000000e+03 6.170900000000000000e+04 2.254000000000000000e+03 6.171000000000000000e+04 2.256000000000000000e+03 2.257000000000000000e+03 2.258000000000000000e+03 2.259000000000000000e+03 2.260000000000000000e+03 6.232200000000000000e+04 6.232400000000000000e+04 6.232600000000000000e+04 2.564000000000000000e+03 6.233000000000000000e+04 2.865000000000000000e+03 6.233300000000000000e+04 6.233500000000000000e+04 6.233800000000000000e+04 6.234000000000000000e+04 2.571000000000000000e+03 2.272000000000000000e+03 2.572000000000000000e+03 2.573000000000000000e+03 2.574000000000000000e+03 6.175200000000000000e+04 2.277000000000000000e+03 2.278000000000000000e+03 2.279000000000000000e+03 6.176300000000000000e+04 2.581000000000000000e+03 6.236400000000000000e+04 2.583000000000000000e+03 6.177100000000000000e+04 2.285000000000000000e+03 6.177200000000000000e+04 6.177400000000000000e+04 6.177600000000000000e+04 6.177800000000000000e+04 2.290000000000000000e+03 2.291000000000000000e+03 2.292000000000000000e+03 2.293000000000000000e+03 2.294000000000000000e+03 2.295000000000000000e+03 2.296000000000000000e+03 6.179700000000000000e+04 2.298000000000000000e+03 6.179800000000000000e+04 2.300000000000000000e+03 2.301000000000000000e+03 2.302000000000000000e+03 2.303000000000000000e+03 6.181100000000000000e+04 6.181300000000000000e+04 2.606000000000000000e+03 2.307000000000000000e+03 2.607000000000000000e+03 6.181800000000000000e+04 6.182000000000000000e+04 2.311000000000000000e+03 2.312000000000000000e+03 6.182900000000000000e+04 6.183100000000000000e+04 2.315000000000000000e+03 2.316000000000000000e+03 6.183400000000000000e+04 2.318000000000000000e+03 2.319000000000000000e+03 2.320000000000000000e+03 2.321000000000000000e+03 2.322000000000000000e+03 6.184900000000000000e+04 2.324000000000000000e+03 6.185000000000000000e+04 2.326000000000000000e+03 2.327000000000000000e+03 2.328000000000000000e+03 2.329000000000000000e+03 2.330000000000000000e+03 2.331000000000000000e+03 2.332000000000000000e+03 2.333000000000000000e+03 2.334000000000000000e+03 2.335000000000000000e+03 2.336000000000000000e+03 2.637000000000000000e+03 2.638000000000000000e+03 2.639000000000000000e+03 6.188300000000000000e+04 2.341000000000000000e+03 6.188400000000000000e+04 6.188600000000000000e+04 6.188800000000000000e+04 2.345000000000000000e+03 2.346000000000000000e+03 6.189400000000000000e+04 2.348000000000000000e+03 2.349000000000000000e+03 2.350000000000000000e+03 2.351000000000000000e+03 2.352000000000000000e+03 2.353000000000000000e+03
1.636000000000000000e+03 1.637000000000000000e+03 1.638000000000000000e+03 1.639000000000000000e+03 1.640000000000000000e+03 1.641000000000000000e+03 1.642000000000000000e+03 1.643000000000000000e+03 1.644000000000000000e+03 1.645000000000000000e+03 1.646000000000000000e+03 1.647000000000000000e+03 1.648000000000000000e+03 1.649000000000000000e+03 1.650000000000000000e+03 1.651000000000000000e+03 1.652000000000000000e+03 1.653000000000000000e+03 6.111100000000000000e+04 1.655000000000000000e+03 6.111200000000000000e+04 1.657000000000000000e+03 1.658000000000000000e+03 1.659000000000000000e+03 1.660000000000000000e+03 1.661000000000000000e+03 1.662000000000000000e+03 1.663000000000000000e+03 6.172800000000000000e+04 6.173000000000000000e+04 2.265000000000000000e+03 6.173300000000000000e+04 6.173500000000000000e+04 1.669000000000000000e+03 6.114300000000000000e+04 1.971000000000000000e+03 1.972000000000000000e+03 1.673000000000000000e+03 1.973000000000000000e+03 1.974000000000000000e+03 6.115200000000000000e+04 1.677000000000000000e+03 1.678000000000000000e+03 1.679000000000000000e+03 1.680000000000000000e+03 1.681000000000000000e+03 1.682000000000000000e+03 6.176600000000000000e+04 6.176800000000000000e+04 1.985000000000000000e+03 6.117500000000000000e+04 1.687000000000000000e+03 6.117600000000000000e+04 6.117800000000000000e+04 6.118000000000000000e+04 1.691000000000000000e+03 1.692000000000000000e+03 1.693000000000000000e+03 1.694000000000000000e+03 1.695000000000000000e+03 1.696000000000000000e+03 1.697000000000000000e+03 6.119900000000000000e+04 1.699000000000000000e+03 6.120000000000000000e+04 1.701000000000000000e+03 1.702000000000000000e+03 1.703000000000000000e+03 1.704000000000000000e+03 1.705000000000000000e+03 6.121500000000000000e+04 2.007000000000000000e+03 1.708000000000000000e+03 2.008000000000000000e+03 6.122000000000000000e+04 1.711000000000000000e+03 1.712000000000000000e+03 1.713000000000000000e+03 1.714000000000000000e+03 6.123300000000000000e+04 6.123500000000000000e+04 1.717000000000000000e+03 6.123600000000000000e+04 1.719000000000000000e+03 1.720000000000000000e+03 1.721000000000000000e+03 1.722000000000000000e+03 1.723000000000000000e+03 6.125100000000000000e+04 1.725000000000000000e+03 6.125200000000000000e+04 1.727000000000000000e+03 1.728000000000000000e+03 1.729000000000000000e+03 1.730000000000000000e+03 1.731000000000000000e+03 1.732000000000000000e+03 1.733000000000000000e+03 1.734000000000000000e+03 1.735000000000000000e+03 1.736000000000000000e+03 1.737000000000000000e+03 1.738000000000000000e+03 2.039000000000000000e+03 6.188000000000000000e+04 2.041000000000000000e+03 1.742000000000000000e+03 2.042000000000000000e+03 2.043000000000000000e+03 1.745000000000000000e+03 1.746000000000000000e+03 1.747000000000000000e+03 6.129600000000000000e+04 1.749000000000000000e+03 1.750000000000000000e+03 1.751000000000000000e+03 1.752000000000000000e+03 1.753000000000000000e+03 1.754000000000000000e+03
1.037000000000000000e+03 1.038000000000000000e+03 1.039000000000000000e+03 1.040000000000000000e+03 1.041000000000000000e+03 1.042000000000000000e+03 1.043000000000000000e+03 1.044000000000000000e+03 1.045000000000000000e+03 1.046000000000000000e+03 1.047000000000000000e+03 1.048000000000000000e+03 1.049000000000000000e+03 1.050000000000000000e+03 1.051000000000000000e+03 1.052000000000000000e+03 1.053000000000000000e+03 1.054000000000000000e+03 6.051300000000000000e+04 1.056000000000000000e+03 6.051400000000000000e+04 1.058000000000000000e+03 1.059000000000000000e+03 1.060000000000000000e+03 1.061000000000000000e+03 1.062000000000000000e+03 1.063000000000000000e+03 1.064000000000000000e+03 1.065000000000000000e+03 1.066000000000000000e+03 1.067000000000000000e+03 1.068000000000000000e+03 1.069000000000000000e+03 1.070000000000000000e+03 1.071000000000000000e+03 6.054700000000000000e+04 1.073000000000000000e+03 6.054800000000000000e+04 1.374000000000000000e+03 1.375000000000000000e+03 1.077000000000000000e+03 1.078000000000000000e+03 1.079000000000000000e+03 1.080000000000000000e+03 1.081000000000000000e+03 1.082000000000000000e+03 1.083000000000000000e+03 1.084000000000000000e+03 1.085000000000000000e+03 6.117200000000000000e+04 1.387000000000000000e+03 1.088000000000000000e+03 1.388000000000000000e+03 1.090000000000000000e+03 6.058200000000000000e+04 1.092000000000000000e+03 1.093000000000000000e+03 1.094000000000000000e+03 1.095000000000000000e+03 1.096000000000000000e+03 1.097000000000000000e+03 1.098000000000000000e+03 6.060100000000000000e+04 1.100000000000000000e+03 6.060200000000000000e+04 1.102000000000000000e+03 6.060600000000000000e+04 1.104000000000000000e+03 1.105000000000000000e+03 1.106000000000000000e+03 1.107000000000000000e+03 1.408000000000000000e+03 1.109000000000000000e+03 1.409000000000000000e+03 6.062200000000000000e+04 1.112000000000000000e+03 1.113000000000000000e+03 1.114000000000000000e+03 1.115000000000000000e+03 1.116000000000000000e+03 6.063700000000000000e+04 1.118000000000000000e+03 6.063800000000000000e+04 1.120000000000000000e+03 1.121000000000000000e+03 1.122000000000000000e+03 1.123000000000000000e+03 1.124000000000000000e+03 6.065300000000000000e+04 1.126000000000000000e+03 6.065400000000000000e+04 1.128000000000000000e+03 1.129000000000000000e+03 1.130000000000000000e+03 1.131000000000000000e+03 1.132000000000000000e+03 1.133000000000000000e+03 1.134000000000000000e+03 1.135000000000000000e+03 1.136000000000000000e+03 1.137000000000000000e+03 1.138000000000000000e+03 1.139000000000000000e+03 6.068300000000000000e+04 1.141000000000000000e+03 1.442000000000000000e+03 1.143000000000000000e+03 1.443000000000000000e+03 1.145000000000000000e+03 1.146000000000000000e+03 1.147000000000000000e+03 1.148000000000000000e+03 6.069800000000000000e+04 1.150000000000000000e+03 1.151000000000000000e+03 1.152000000000000000e+03 1.153000000000000000e+03 1.154000000000000000e+03 1.155000000000000000e+03
4.380000000000000000e+02 4.390000000000000000e+02 5.988300000000000000e+04 4.410000000000000000e+02 4.420000000000000000e+02 4.430000000000000000e+02 4.440000000000000000e+02 5.989000000000000000e+04 4.460000000000000000e+02 4.470000000000000000e+02 4.480000000000000000e+02 4.490000000000000000e+02 5.990000000000000000e+04 4.510000000000000000e+02 4.520000000000000000e+02 4.530000000000000000e+02 4.540000000000000000e+02 4.550000000000000000e+02 5.991500000000000000e+04 4.570000000000000000e+02 5.991600000000000000e+04 5.992100000000000000e+04 4.600000000000000000e+02 4.610000000000000000e+02 4.620000000000000000e+02 5.992900000000000000e+04 4.640000000000000000e+02 4.650000000000000000e+02 4.660000000000000000e+02 5.993400000000000000e+04 4.680000000000000000e+02 4.690000000000000000e+02 4.700000000000000000e+02 4.710000000000000000e+02 4.720000000000000000e+02 7.730000000000000000e+02 5.995100000000000000e+04 4.750000000000000000e+02 4.760000000000000000e+02 5.995400000000000000e+04 4.780000000000000000e+02 4.790000000000000000e+02 4.800000000000000000e+02 4.810000000000000000e+02 4.820000000000000000e+02 4.830000000000000000e+02 4.840000000000000000e+02 4.850000000000000000e+02 4.860000000000000000e+02 4.870000000000000000e+02 7.880000000000000000e+02 4.890000000000000000e+02 7.890000000000000000e+02 4.910000000000000000e+02 5.998400000000000000e+04 5.998900000000000000e+04 4.940000000000000000e+02 5.999000000000000000e+04 4.960000000000000000e+02 4.970000000000000000e+02 4.980000000000000000e+02 4.990000000000000000e+02 5.000000000000000000e+02 5.010000000000000000e+02 6.000700000000000000e+04 5.030000000000000000e+02 6.000800000000000000e+04 5.050000000000000000e+02 5.060000000000000000e+02 5.070000000000000000e+02 5.080000000000000000e+02 8.090000000000000000e+02 6.002300000000000000e+04 5.110000000000000000e+02 6.002400000000000000e+04 6.002900000000000000e+04 5.140000000000000000e+02 6.003000000000000000e+04 5.160000000000000000e+02 5.170000000000000000e+02 5.180000000000000000e+02 5.190000000000000000e+02 6.004000000000000000e+04 5.210000000000000000e+02 5.220000000000000000e+02 5.230000000000000000e+02 5.240000000000000000e+02 5.250000000000000000e+02 5.260000000000000000e+02 5.270000000000000000e+02 6.005600000000000000e+04 5.290000000000000000e+02 5.300000000000000000e+02 5.310000000000000000e+02 5.320000000000000000e+02 5.330000000000000000e+02 5.340000000000000000e+02 5.350000000000000000e+02 5.360000000000000000e+02 6.007700000000000000e+04 5.380000000000000000e+02 5.390000000000000000e+02 5.400000000000000000e+02 6.008500000000000000e+04 5.420000000000000000e+02 8.430000000000000000e+02 6.009100000000000000e+04 5.450000000000000000e+02 5.460000000000000000e+02 5.470000000000000000e+02 5.480000000000000000e+02 5.490000000000000000e+02 6.010000000000000000e+04 5.510000000000000000e+02 5.520000000000000000e+02 5.530000000000000000e+02 5.540000000000000000e+02 5.550000000000000000e+02 6.011500000000000000e+04
-1.000000000000000000e+00 -1.000000000000000000e+00 -1.000000000000000000e+00 -1.000000000000000000e+00 -1.000000000000000000e+00 -1.000000000000000000e+00 -1.000000000000000000e+00 -1.000000000000000000e+00 -1.000000000000000000e+00 -1.000000000000000000e+00 -1.000000000000000000e+00 -1.000000000000000000e+00 -1.000000000000000000e+00 -1.000000000000000000e+00 -1.000000000000000000e+00 -1.000000000000000000e+00 -1.000000000000000000e+00 -1.000000000000000000e+00 -1.000000000000000000e+00 -1.000000000000000000e+00 -1.000000000000000000e+00 -1.000000000000000000e+00 -1.000000000000000000e+00 -1.000000000000000000e+00 -1.000000000000000000e+00 -1.000000000000000000e+00 -1.000000000000000000e+00 -1.000000000000000000e+00 -1.000000000000000000e+00 -1.000000000000000000e+00 -1.000000000000000000e+00 -1.000000000000000000e+00 -1.000000000000000000e+00 -1.000000000000000000e+00 -1.000000000000000000e+00 -1.000000000000000000e+00 -1.000000000000000000e+00 -1.000000000000000000e+00 -1.000000000000000000e+00 -1.000000000000000000e+00 -1.000000000000000000e+00 -1.000000000000000000e+00 -1.000000000000000000e+00 -1.000000000000000000e+00 -1.000000000000000000e+00 -1.000000000000000000e+00 -1.000000000000000000e+00 -1.000000000000000000e+00 -1.000000000000000000e+00 -1.000000000000000000e+00 -1.000000000000000000e+00 -1.000000000000000000e+00 -1.000000000000000000e+00 -1.000000000000000000e+00 -1.000000000000000000e+00 -1.000000000000000000e+00 -1.000000000000000000e+00 -1.000000000000000000e+00 -1.000000000000000000e+00 -1.000000000000000000e+00 -1.000000000000000000e+00 -1.000000000000000000e+00 -1.000000000000000000e+00 -1.000000000000000000e+00 -1.000000000000000000e+00 -1.000000000000000000e+00 -1.000000000000000000e+00 -1.000000000000000000e+00 -1.000000000000000000e+00 -1.000000000000000000e+00 -1.000000000000000000e+00 -1.000000000000000000e+00 -1.000000000000000000e+00 -1.000000000000000000e+00 -1.000000000000000000e+00 -1.000000000000000000e+00 -1.000000000000000000e+00 -1.000000000000000000e+00 -1.000000000000000000e+00 -1.000000000000000000e+00 -1.000000000000000000e+00 -1.000000000000000000e+00 -1.000000000000000000e+00 -1.000000000000000000e+00 -1.000000000000000000e+00 -1.000000000000000000e+00 -1.000000000000000000e+00 -1.000000000000000000e+00 -1.000000000000000000e+00 -1.000000000000000000e+00 -1.000000000000000000e+00 -1.000000000000000000e+00 -1.000000000000000000e+00 -1.000000000000000000e+00 -1.000000000000000000e+00 -1.000000000000000000e+00 -1.000000000000000000e+00 -1.000000000000000000e+00 -1.000000000000000000e+00 -1.000000000000000000e+00 -1.000000000000000000e+00 -1.000000000000000000e+00 -1.000000000000000000e+00 -1.000000000000000000e+00 -1.000000000000000000e+00 -1.000000000000000000e+00 -1.000000000000000000e+00 -1.000000000000000000e+00 -1.000000000000000000e+00 -1.000000000000000000e+00 -1.000000000000000000e+00 -1.000000000000000000e+00 -1.000000000000000000e+00 -1.000000000000000000e+00 -1.000000000000000000e+00 -1.000000000000000000e+00 -1.000000000000000000e+00 -1.000000000000000000e+00 -1.000000000000000000e+00
