ncols 119
nrows 32
xllcorner 1740
yllcorner 590
cellsize 10.0
1.680810048662583256e+02 1.691687405357015734e+02 1.702932701724035098e+02 1.714182449077880790e+02 1.725345545149140776e+02 1.736366557167489759e+02 1.747174869110580744e+02 1.757698406399312034e+02 1.767624778703012680e+02 1.776556989497597101e+02 1.784312655360797919e+02 1.790716175508623564e+02 1.795569438251621648e+02 1.798653750662748791e+02 1.800064387283355529e+02 1.800363709008952071e+02 1.799898042434691376e+02 1.797675477743349290e+02 1.794134223672705843e+02 1.789410438909458207e+02 1.783744276172494665e+02 1.777326684398040868e+02 1.770325678721235079e+02 1.763016841295880681e+02 1.755502104046998113e+02 1.747478685311239133e+02 1.743493186018600341e+02 1.741176452708480156e+02 1.739506147522045012e+02 1.738027956405026089e+02 1.736844952801544935e+02 1.736290327202672472e+02 1.736187623656736321e+02 1.736581877686534483e+02 1.737486399043384893e+02 1.738887709743020764e+02 1.740750117633160983e+02 1.743001919261124613e+02 1.745111798470011877e+02 1.746304735492208806e+02 1.746132132818681555e+02 1.744101182132203007e+02 1.739291044663252706e+02 1.732082248293029352e+02 1.722743016090587673e+02 1.711743447875262234e+02 1.700090459066461221e+02 1.687891125417671674e+02 1.675304496941887464e+02 1.662453192783130476e+02 1.649424586694109962e+02 1.636270625239640992e+02 1.623007653542490516e+02 1.609617699585505477e+02 1.596051446075152853e+02 1.582186518107114068e+02 1.567042809264297034e+02 1.562297200624203128e+02 1.562465332125544819e+02 1.564744198961344352e+02 1.568153005994970783e+02 1.572180151393294238e+02 1.576121146898662175e+02 1.579653634747067770e+02 1.582705316970885576e+02 1.585276456769704794e+02 1.587376333948105014e+02 1.589009143055328934e+02 1.590173671996739699e+02 1.590865465404901329e+02 1.591078603177726620e+02 1.590808085965394412e+02 1.589635357317189914e+02 1.587960087932812314e+02 1.584912551512079801e+02 1.579575856386300643e+02 1.568971306974785023e+02 1.554943164475768071e+02 1.538656216700528319e+02 1.520693683846400859e+02 1.515943271326275692e+02 1.512583321014395210e+02 1.510512668393207321e+02 1.509647540622763131e+02 1.510045135129392406e+02 1.511978605409619263e+02 1.517272133355347989e+02 1.532381887244588086e+02 1.546133920638608572e+02 1.559478113726459583e+02 1.572086551008347897e+02 1.586299954070123306e+02 1.599598163456052475e+02 1.612479707578211219e+02 1.624994302747280130e+02 1.637175050054318888e+02 1.649041656785862244e+02 1.660603862678630094e+02 1.671836165973246580e+02 1.682958209957781719e+02 1.693908195462270498e+02 1.704646577673351260e+02 1.715130872974525857e+02 1.725143601753587461e+02 1.734224780364578749e+02 1.741989149004004105e+02 1.748011919567478856e+02 1.751869645499044736e+02 1.752987544664934205e+02 1.752176001658826010e+02 1.749901036268413179e+02 1.744611515505211514e+02 1.738601690049002002e+02 1.730357012389866043e+02 1.720306721232967107e+02 1.708749964327726616e+02 1.695975268852093052e+02 1.682427322827987553e+02 1.668646065206085325e+02
1.660427556461185077e+02 1.673026004648850744e+02 1.685670774654872446e+02 1.698288738077457367e+02 1.710850463436268001e+02 1.723308129378962121e+02 1.735617965194649912e+02 1.747452100160253394e+02 1.758387257363073388e+02 1.768234849533973261e+02 1.776796625809830061e+02 1.783877684514313842e+02 1.789289008756660451e+02 1.792852019886848893e+02 1.794398484367004869e+02 1.794917842727553250e+02 1.794506211372534779e+02 1.792259151542695292e+02 1.788472136528585850e+02 1.783443822306014397e+02 1.777364131459590340e+02 1.770452047725649152e+02 1.762877732403338200e+02 1.754783300986724441e+02 1.746460093365195974e+02 1.738206270761632766e+02 1.730547313470258075e+02 1.728764298107423656e+02 1.726973421134805733e+02 1.725306800930435145e+02 1.723964131563189426e+02 1.723314614393077306e+02 1.723200593296169245e+02 1.723680285595163468e+02 1.724775414299703584e+02 1.726480799623249425e+02 1.728796712234021413e+02 1.731820275710984447e+02 1.734981469058070047e+02 1.736893322760946887e+02 1.737196770416979064e+02 1.735556944563232378e+02 1.730866198550745594e+02 1.723526618075379702e+02 1.713866346899864936e+02 1.702190457744784169e+02 1.689017307634051690e+02 1.675438606194210251e+02 1.661511309252655053e+02 1.647370049001746111e+02 1.633108053124024934e+02 1.618778793990386760e+02 1.604396686524485744e+02 1.589939093433060009e+02 1.575355904499166115e+02 1.560624464565690914e+02 1.546121561675526834e+02 1.531903936414558700e+02 1.534758925184590623e+02 1.538031458303166517e+02 1.542651165416251331e+02 1.548049086161659886e+02 1.553009692383892286e+02 1.557226394610101181e+02 1.560763174772695550e+02 1.563702561031641096e+02 1.566096302717080562e+02 1.567972093310961839e+02 1.569343112288290172e+02 1.570214398937569342e+02 1.570586601553371224e+02 1.570459402997786640e+02 1.569428923806731859e+02 1.567885915545550120e+02 1.564992339434081998e+02 1.559879212894007026e+02 1.548967096073814957e+02 1.534304251960032559e+02 1.516662672109954144e+02 1.495350421230533016e+02 1.486957900165526496e+02 1.483541665149850246e+02 1.481420023113435605e+02 1.480401602882805889e+02 1.480504334962343762e+02 1.480902173591271662e+02 1.496134914946845527e+02 1.510703281263861584e+02 1.525031761949555857e+02 1.538646904979953831e+02 1.553887003432766676e+02 1.568138809003600898e+02 1.581945102802724819e+02 1.595374181184008080e+02 1.608476658623422395e+02 1.621286582618065779e+02 1.633825256125409169e+02 1.646073865236792813e+02 1.658273256211392379e+02 1.670372278897957585e+02 1.682349285257006102e+02 1.694187104275234219e+02 1.705695042293913559e+02 1.716420970687251781e+02 1.726007056458760758e+02 1.734047239934805020e+02 1.740152363025698889e+02 1.743816834514792333e+02 1.744485222786961458e+02 1.743121898702031842e+02 1.740210009174606967e+02 1.734244720022622062e+02 1.725593445074898682e+02 1.716787572196849965e+02 1.705768547341278065e+02 1.693084338628456180e+02 1.679053159137750413e+02 1.663904488987213597e+02 1.646830611971188318e+02
1.639649607574399965e+02 1.653884884974828253e+02 1.667946873920900828e+02 1.681989849642440333e+02 1.696035974471319037e+02 1.710081858373821149e+02 1.723790361568435117e+02 1.736718439373875071e+02 1.748674601884568460e+02 1.759446342365168618e+02 1.768825708316352916e+02 1.776612996999065217e+02 1.782609641290372906e+02 1.786620822504187913e+02 1.788391457139383647e+02 1.789092156782963912e+02 1.788760432441973478e+02 1.786601650411314495e+02 1.782598603312913781e+02 1.777243070589801732e+02 1.770805436296198536e+02 1.763443135961862538e+02 1.755349855965672248e+02 1.746659284109866519e+02 1.737467997215780713e+02 1.728035661817398250e+02 1.718619847547496704e+02 1.716037933477223021e+02 1.713838420800383346e+02 1.711875225608728499e+02 1.710307005523330020e+02 1.709516167197018319e+02 1.709358262953639382e+02 1.709902375757426114e+02 1.711173336301268932e+02 1.713152209393220176e+02 1.715818808493853567e+02 1.719727010297160064e+02 1.724781044523606113e+02 1.727274871336827857e+02 1.727950285496841616e+02 1.726652790617357311e+02 1.722081720044553492e+02 1.714610288843460637e+02 1.704602735538652496e+02 1.692431857533967730e+02 1.678432596134240669e+02 1.663153054175785428e+02 1.647741586219785859e+02 1.632189033641585922e+02 1.616594784486911749e+02 1.601014259695042199e+02 1.585460968550907239e+02 1.569906331414235297e+02 1.554276195447108648e+02 1.538440276766487216e+02 1.522203290418418362e+02 1.505281588137038398e+02 1.506241435670062287e+02 1.509800415291317108e+02 1.515827969925665002e+02 1.523101580987286354e+02 1.529202262231746658e+02 1.534064519873655286e+02 1.538043037342164041e+02 1.541321107380317699e+02 1.543989282906438518e+02 1.546095507523472747e+02 1.547665790380273734e+02 1.548713899338887643e+02 1.549246622140923080e+02 1.549268352283280024e+02 1.548389461330096140e+02 1.546991669733965011e+02 1.544267744111190837e+02 1.539390490402648766e+02 1.528202987803747135e+02 1.513008279896703527e+02 1.494875537481798062e+02 1.475199333279158509e+02 1.454656448643367526e+02 1.453225270146034518e+02 1.451163766370771100e+02 1.450001914428958116e+02 1.450138500624736366e+02 1.454634748396242969e+02 1.472832770703702749e+02 1.488619755523983770e+02 1.503314729697829648e+02 1.519586604469043323e+02 1.534789006076535998e+02 1.549506846797181083e+02 1.563826851639375661e+02 1.577818770128767767e+02 1.591533743923380655e+02 1.605007321596411316e+02 1.618229245062168218e+02 1.631459921021170203e+02 1.644658516643655446e+02 1.657819693740261471e+02 1.670949656537453336e+02 1.683884465865797324e+02 1.696182852545596234e+02 1.707517982932382097e+02 1.717507870433048538e+02 1.725805846740854008e+02 1.732005638058763282e+02 1.735276780067717084e+02 1.735518764562210094e+02 1.733487715225579677e+02 1.729626384299955077e+02 1.722816111723547010e+02 1.713441297444551878e+02 1.701565078903890083e+02 1.690059324930470552e+02 1.676366955266751972e+02 1.661190135783041626e+02 1.644986251329076765e+02 1.628665454316386842e+02
1.619167324954414369e+02 1.634607821308632936e+02 1.649997925060580144e+02 1.665510546538408221e+02 1.681187300926562216e+02 1.696684269092832267e+02 1.711541885164366192e+02 1.725566931504612000e+02 1.738536178141898745e+02 1.750230364276882824e+02 1.760435730024931900e+02 1.768939156372561854e+02 1.775529524412634430e+02 1.779997415343888463e+02 1.782052763249354825e+02 1.782956893558076388e+02 1.782729081872490156e+02 1.780659767938815037e+02 1.776565856619851331e+02 1.770902267230377731e+02 1.764079512777315699e+02 1.756334750210275217e+02 1.747781966655380472e+02 1.738575044074920868e+02 1.728780948576061576e+02 1.718350733520180427e+02 1.706899907868470336e+02 1.702706974834498226e+02 1.700088396022113670e+02 1.697770895624033187e+02 1.695916479144841276e+02 1.694937695518350438e+02 1.694702906151692616e+02 1.695292453847145850e+02 1.696736184254921795e+02 1.698976786081911428e+02 1.701554204608262069e+02 1.708497221730703473e+02 1.713541097244271612e+02 1.717636665360614074e+02 1.718458285753526127e+02 1.717447196832562497e+02 1.713019906391631366e+02 1.705411176294048232e+02 1.695048866452559935e+02 1.682348730332642219e+02 1.667716357661556117e+02 1.651497583362349246e+02 1.634247589741637796e+02 1.617143082033464907e+02 1.600098911902558143e+02 1.583172780749590629e+02 1.566379350941998325e+02 1.549691997003213260e+02 1.533036920590247121e+02 1.516262715880554310e+02 1.498988740810478362e+02 1.479483190656542888e+02 1.475993240514133333e+02 1.479747990340501076e+02 1.487641113170168126e+02 1.497747989328740346e+02 1.505006835138581778e+02 1.510351914661630985e+02 1.514692188145944556e+02 1.518267634995848709e+02 1.521185034950775332e+02 1.523505439526284420e+02 1.525265400378824836e+02 1.526486412206271837e+02 1.527180740028155412e+02 1.527357593444305053e+02 1.526639956166704053e+02 1.525400371354107278e+02 1.522859667537192649e+02 1.518224951035127219e+02 1.506773629450789826e+02 1.491009797639898977e+02 1.471960500344076195e+02 1.450347750236703916e+02 1.426544345055341410e+02 1.422533011531994589e+02 1.420023872862976191e+02 1.418561450995205178e+02 1.416889510018599196e+02 1.433893967222998924e+02 1.450454099372698522e+02 1.466268606470898135e+02 1.483598765059088009e+02 1.499759012470271387e+02 1.515378752066908135e+02 1.530566057641961493e+02 1.545411737252794921e+02 1.559986730555317536e+02 1.574343954080074184e+02 1.588484587992458330e+02 1.602688008554345345e+02 1.616924155028060852e+02 1.631202649768542301e+02 1.645550686831283258e+02 1.659829640494747593e+02 1.673609963475750817e+02 1.686595993031489229e+02 1.698430697749750777e+02 1.708808940325105823e+02 1.717381722198532827e+02 1.723515020907543942e+02 1.726368297741029494e+02 1.726237037341279006e+02 1.723975494965408757e+02 1.717682676398790136e+02 1.710383041187197080e+02 1.700161866392724903e+02 1.687576175053350482e+02 1.672644162226766298e+02 1.658544281454755094e+02 1.642263409596996269e+02 1.624654292795915751e+02 1.606245136540890428e+02
1.598868034411902954e+02 1.615198458719927430e+02 1.631969831830916462e+02 1.649118772840710676e+02 1.666269105638615429e+02 1.682942598241982068e+02 1.698943462241273039e+02 1.714039863784865929e+02 1.728004016292806000e+02 1.740610803517984095e+02 1.751632201011209702e+02 1.760839058571673093e+02 1.768005779972461653e+02 1.772923217063645325e+02 1.775418705350752759e+02 1.776577495131320461e+02 1.776465457175232245e+02 1.774478724221917787e+02 1.770305436467714060e+02 1.764452038009929424e+02 1.757264886934844696e+02 1.749108316305156450e+02 1.740181579530145370e+02 1.730550006470965911e+02 1.720325795254136096e+02 1.709549200274801990e+02 1.698382575245630619e+02 1.687939156513176613e+02 1.685737025057111680e+02 1.683021807217588730e+02 1.680815931448160541e+02 1.679603258709828708e+02 1.679258921553954735e+02 1.679875841022836482e+02 1.681513978216721910e+02 1.684205395361595663e+02 1.687722189079379120e+02 1.695706383932669326e+02 1.703026671198992403e+02 1.707519123536364134e+02 1.708664534106333122e+02 1.707941645178332521e+02 1.703755155192307882e+02 1.695995092248564049e+02 1.685265232271023308e+02 1.672025165446364952e+02 1.656720233126447397e+02 1.639766587696472300e+02 1.621500001724118079e+02 1.602460029758725284e+02 1.583827267934591703e+02 1.565438435530564334e+02 1.547310022800915021e+02 1.529421792542451044e+02 1.511719680378264457e+02 1.494113058863727588e+02 1.476490807413160269e+02 1.459112862675815734e+02 1.441993959623584374e+02 1.447457013626640219e+02 1.457702465681527144e+02 1.474818818253848178e+02 1.480748789603881903e+02 1.486200957323725333e+02 1.490814838851356683e+02 1.494646974634747210e+02 1.497786315094922998e+02 1.500301981670060343e+02 1.502239972603403544e+02 1.503628811320579928e+02 1.504485617033856784e+02 1.504824006049339857e+02 1.504278260606688491e+02 1.503211235257801945e+02 1.500868694273776214e+02 1.496486839335286163e+02 1.484799589608469432e+02 1.468527848059950998e+02 1.448747382409701174e+02 1.425976398974123072e+02 1.398925712712540417e+02 1.390430860114265954e+02 1.388077615700391050e+02 1.386812021588876291e+02 1.390236051399203063e+02 1.410555263210340797e+02 1.427715864219067612e+02 1.446120569554317399e+02 1.463242818962386309e+02 1.479756879255723732e+02 1.495791249956749311e+02 1.511457025115229555e+02 1.526845961244388263e+02 1.542030898364062352e+02 1.557027830517981499e+02 1.572135654216831995e+02 1.587336702037503926e+02 1.602655126972743176e+02 1.618137083066351067e+02 1.633667321850564065e+02 1.648827712885898507e+02 1.663351849743084756e+02 1.676906296629958319e+02 1.689224510991342925e+02 1.700008283963804843e+02 1.708702876343825494e+02 1.714698504947508582e+02 1.717126035279509892e+02 1.716529717705472535e+02 1.713744887680247189e+02 1.706946896722758140e+02 1.696536742914779552e+02 1.685917864963776083e+02 1.672453204384985384e+02 1.656838095234293746e+02 1.639011006906820285e+02 1.622379866953539249e+02 1.603457457651676634e+02 1.583149156434825215e+02
1.577802648144275395e+02 1.595653293449512944e+02 1.614110053260833695e+02 1.632756528734101380e+02 1.651096980622251067e+02 1.668935579794647026e+02 1.686036429948526632e+02 1.702167834538390139e+02 1.717098175251904024e+02 1.730587747909735867e+02 1.742387931836019277e+02 1.752243300195567031e+02 1.759896309819482667e+02 1.765016530665906771e+02 1.768829769037277799e+02 1.770042231221827080e+02 1.770011281592119587e+02 1.768088923032561013e+02 1.763833645257774378e+02 1.757800455766545440e+02 1.750366199852874729e+02 1.741821199087665661e+02 1.732488048966840495e+02 1.722527478819093290e+02 1.711955272069924376e+02 1.700823066104905195e+02 1.688990048342393777e+02 1.675544439362056153e+02 1.671188850192956181e+02 1.667662100068806694e+02 1.665010127569413783e+02 1.663521515315217698e+02 1.663035418153734213e+02 1.663648445725077636e+02 1.665445675824855130e+02 1.668573537596803931e+02 1.673729112626183166e+02 1.684354623238816657e+02 1.692140210082040710e+02 1.697156118307134705e+02 1.698647392278882364e+02 1.698162688321455676e+02 1.694301282019130781e+02 1.686430693775582768e+02 1.675304118920644498e+02 1.661507503644516248e+02 1.645519185794203736e+02 1.627787898213170479e+02 1.608718030885344490e+02 1.588615349844040736e+02 1.567984312771860118e+02 1.547993087013974218e+02 1.528406848114419745e+02 1.509209580643319271e+02 1.490361854010313891e+02 1.471808733119590613e+02 1.453479432274221494e+02 1.435176539057154059e+02 1.414838479570842082e+02 1.412534599082219131e+02 1.433507581064162650e+02 1.449117475634866992e+02 1.455747411442127657e+02 1.461577263709135650e+02 1.466478908973878106e+02 1.470541830433710118e+02 1.473875380693525017e+02 1.476564772308683473e+02 1.478666931232161232e+02 1.480217160917596857e+02 1.481236827961570555e+02 1.481743439261009598e+02 1.481381426401147223e+02 1.480503611971322755e+02 1.478377168939802857e+02 1.474261637642224230e+02 1.462366746251486234e+02 1.445649315643025545e+02 1.425359618078462347e+02 1.402531545828015282e+02 1.378765164591203529e+02 1.354772559009398378e+02 1.355433620523439231e+02 1.352369497710019459e+02 1.370549770110318093e+02 1.388074743705234084e+02 1.407403566398294004e+02 1.425443974702016874e+02 1.442829090986831204e+02 1.459687854866825205e+02 1.476142714884418012e+02 1.492302483074082033e+02 1.508259707872696254e+02 1.524047532024212046e+02 1.539985355341349020e+02 1.556070522458244341e+02 1.572342585823452623e+02 1.588865691090846610e+02 1.605546441241535547e+02 1.621977637374511687e+02 1.637919171242754715e+02 1.653058606744327790e+02 1.667164187946356719e+02 1.679983635700593538e+02 1.691027460190993850e+02 1.699776225711807172e+02 1.705619390333531271e+02 1.707600749738449792e+02 1.706438433324732955e+02 1.702887017572656703e+02 1.695340950071472435e+02 1.684402744133845147e+02 1.670141623887955404e+02 1.656420257657865704e+02 1.639921856354620502e+02 1.621472323161381723e+02 1.600901704232661302e+02 1.581713825792657815e+02 1.559788384568124400e+02
1.556672014342019281e+02 1.576363612945000625e+02 1.596388097410368232e+02 1.616250866833229338e+02 1.635767745897801149e+02 1.654710966825412584e+02 1.672855530439975098e+02 1.689972826906678165e+02 1.705820068042821731e+02 1.720136468727160661e+02 1.732642312010472097e+02 1.743039383136421350e+02 1.750852073935344038e+02 1.757604490085622899e+02 1.761949506491851025e+02 1.763339842490304079e+02 1.763386073127718419e+02 1.761505101217068443e+02 1.757156085491706961e+02 1.750942042508425232e+02 1.743269164848659329e+02 1.734450231919656460e+02 1.724731421050148867e+02 1.714399533681855132e+02 1.703583961829323812e+02 1.692266918197244081e+02 1.680487235763062870e+02 1.668228189320917920e+02 1.655300275897266431e+02 1.651527018175831643e+02 1.648470025301260193e+02 1.646690166141964653e+02 1.646036438873479995e+02 1.646608646943701899e+02 1.648472475227764846e+02 1.651332364966185935e+02 1.662689108799458495e+02 1.672886891456960257e+02 1.681085158870941143e+02 1.686579978881060811e+02 1.688494271195764611e+02 1.688233934206828906e+02 1.684576018210004520e+02 1.676692170797444703e+02 1.665224036774731644e+02 1.650836665992340784e+02 1.634148301563039354e+02 1.615630294978345205e+02 1.595711781243438736e+02 1.574764843558874645e+02 1.553049038936971158e+02 1.531021573134899540e+02 1.509832831336502181e+02 1.489189958546159289e+02 1.469058096013817192e+02 1.449398308641860638e+02 1.430192281938501253e+02 1.411521217112921249e+02 1.394102287254822272e+02 1.378071749958311329e+02 1.404172105079285018e+02 1.422655244375750385e+02 1.430286821511206767e+02 1.436584779680414954e+02 1.441764959766198331e+02 1.446025326389084853e+02 1.449520300203047896e+02 1.452358086149383496e+02 1.454607833776586574e+02 1.456311221656785904e+02 1.457493174788696422e+02 1.458174647901234096e+02 1.458009309702494249e+02 1.457340280455590005e+02 1.455452407621991711e+02 1.451620481789484529e+02 1.439537792952856137e+02 1.422374769988240359e+02 1.401466463366779749e+02 1.377826595100163445e+02 1.352347234025814373e+02 1.325347597926748620e+02 1.323959231117281661e+02 1.326262785693959358e+02 1.347381279737579973e+02 1.367694675634193118e+02 1.386577553141661951e+02 1.404784676387981222e+02 1.422433791714605320e+02 1.439644837123639718e+02 1.456535300625885725e+02 1.473213185999270252e+02 1.489728226974484926e+02 1.506420207384828416e+02 1.523304129480860070e+02 1.540436847560998785e+02 1.557900907561160011e+02 1.575624363004292832e+02 1.593211254043579288e+02 1.610444748039104468e+02 1.627030252464727198e+02 1.642766069239777664e+02 1.657440290085611423e+02 1.670619347239581032e+02 1.681856218900871340e+02 1.690651267894610896e+02 1.696337697618216964e+02 1.697911581425884435e+02 1.696470790200525300e+02 1.690721692003020564e+02 1.682926100629679240e+02 1.671244944610730556e+02 1.656525282756995807e+02 1.638748006647219597e+02 1.622166829327551056e+02 1.602870097676004093e+02 1.581817572770877689e+02 1.558737806488852868e+02 1.536987832027230354e+02
1.535975096258666213e+02 1.557362103121620862e+02 1.578668419792878979e+02 1.599729088422535597e+02 1.620343068868572232e+02 1.640312209047201577e+02 1.659428365133441332e+02 1.677460642080830837e+02 1.694149844388572888e+02 1.709205298335332941e+02 1.722302781920061250e+02 1.732830710009688175e+02 1.742571358242674648e+02 1.750108989838068680e+02 1.754875250855303364e+02 1.756466580821762591e+02 1.756593389489619597e+02 1.754730436606362787e+02 1.750269550707625967e+02 1.743865897984136097e+02 1.735951406419121383e+02 1.726861142564664249e+02 1.716860829746413231e+02 1.706162225132612491e+02 1.695025914073146680e+02 1.683566172558442418e+02 1.671765174756152987e+02 1.659713772144158952e+02 1.647483896125324918e+02 1.634338696594272733e+02 1.631204798848323492e+02 1.629108745851018796e+02 1.628266530112839803e+02 1.628782689630026255e+02 1.630755737552829032e+02 1.635890463300913495e+02 1.649857199641107854e+02 1.660989245959634388e+02 1.669732151920472631e+02 1.675705203399650429e+02 1.678325578964075362e+02 1.678239764833273000e+02 1.674688850409989982e+02 1.666676708603668544e+02 1.654968886742858842e+02 1.640065127802991469e+02 1.622640576765685978e+02 1.603320145316329786e+02 1.582545712671779654e+02 1.560706093927479117e+02 1.538125012235663007e+02 1.515007275644384208e+02 1.491760869214490413e+02 1.469522064572049374e+02 1.447953948610169448e+02 1.427011204871370467e+02 1.406659396604690926e+02 1.386909267399113901e+02 1.367882038032471996e+02 1.349115167379408433e+02 1.376260548225093032e+02 1.396304937566002309e+02 1.404672507508007868e+02 1.411354244085375740e+02 1.416754565495647853e+02 1.421162662532512115e+02 1.424778867513778096e+02 1.427735287500706249e+02 1.430112921006599436e+02 1.431958892232098322e+02 1.433300895957163732e+02 1.434163105371084157e+02 1.434207771426224269e+02 1.433770269450476462e+02 1.432150123444239398e+02 1.428629679965987123e+02 1.416390869211682286e+02 1.398800771243709278e+02 1.377259953058240285e+02 1.352754083460046672e+02 1.325954260939211053e+02 1.296848681831905026e+02 1.289944320730315894e+02 1.307409447485146075e+02 1.327325100008551146e+02 1.346836298493514334e+02 1.365803290360396431e+02 1.384202055205155375e+02 1.402131680971301080e+02 1.419712732110076274e+02 1.437063539066850240e+02 1.454246900249441694e+02 1.471620309289575630e+02 1.489217541557076174e+02 1.507114617835735828e+02 1.525413900716816897e+02 1.544065863306133792e+02 1.562687653137818415e+02 1.581083615960170903e+02 1.598974227075512431e+02 1.616182849627952578e+02 1.632531788002329733e+02 1.647634588392096759e+02 1.661103064932676148e+02 1.672523575102475490e+02 1.681356106797935581e+02 1.686887313369063861e+02 1.688059211395349735e+02 1.686131790694903145e+02 1.679353597936971596e+02 1.669057843218730852e+02 1.657271816934910760e+02 1.641798153764400752e+02 1.623645218733735760e+02 1.602682682584581073e+02 1.583488318507952499e+02 1.561668010983845534e+02 1.538383362473449267e+02 1.513554046067378067e+02
1.515740540061346735e+02 1.538552685789214820e+02 1.561116458948700654e+02 1.583270929571517058e+02 1.604876098006683094e+02 1.625773044682424597e+02 1.645765879547895452e+02 1.664616892555243908e+02 1.682043422494908498e+02 1.697714689229189844e+02 1.710898710041749666e+02 1.723580143413997519e+02 1.734336050236985614e+02 1.742470276245926755e+02 1.747663580245362596e+02 1.749448620373139249e+02 1.749647295010378514e+02 1.747771438883087853e+02 1.743170146494240385e+02 1.736559007019917829e+02 1.728391430875150547e+02 1.719019881796084803e+02 1.708728317511208843e+02 1.697746060190782202e+02 1.686258741547724469e+02 1.674510812728719031e+02 1.662613948475591314e+02 1.650554538033265999e+02 1.638419511356927387e+02 1.626172419721977462e+02 1.612961170001713924e+02 1.610770259635145862e+02 1.609717864474655187e+02 1.610144348303603010e+02 1.610966554602079839e+02 1.624401893398026857e+02 1.637420344045414140e+02 1.648893026990361648e+02 1.658030974475379082e+02 1.664103520291311042e+02 1.668515805508925496e+02 1.668260585557019056e+02 1.664694529432531453e+02 1.656476038590402595e+02 1.644419749717367836e+02 1.629112092820670910e+02 1.611044355751918147e+02 1.590884062717632332e+02 1.569238180790737260e+02 1.546499199932985107e+02 1.523000595313976646e+02 1.499010639152977546e+02 1.474681083725455721e+02 1.450377227516397625e+02 1.427225905473598857e+02 1.404851326198993320e+02 1.383188297427298039e+02 1.362172638028889367e+02 1.341737490170345666e+02 1.321323010488712271e+02 1.349245796354070137e+02 1.370254530830211195e+02 1.379056178008767972e+02 1.385980376409702899e+02 1.391515806247192018e+02 1.396010298083292298e+02 1.399701598040271051e+02 1.402742984876732066e+02 1.405225604258602914e+02 1.407200682119383259e+02 1.408697905626227396e+02 1.409744808614473186e+02 1.410011759061920884e+02 1.409830969429974061e+02 1.408515371540449053e+02 1.405350435790898302e+02 1.393010656925758042e+02 1.375044874360084179e+02 1.352927481818214517e+02 1.327676395509372753e+02 1.299999250261162160e+02 1.270053030949411124e+02 1.264562430530697696e+02 1.285803934167613534e+02 1.306190163678088254e+02 1.326003202214727423e+02 1.345151029848369149e+02 1.363765794201405583e+02 1.381995518496502768e+02 1.399973089428781066e+02 1.417771153339862735e+02 1.435759639247605719e+02 1.453989356507794071e+02 1.472555746385442603e+02 1.491582286962011779e+02 1.511043744294838973e+02 1.530574038251686204e+02 1.549998274965042810e+02 1.569050581898630128e+02 1.587575023727230246e+02 1.605422226523123186e+02 1.622244921876207968e+02 1.637702811178251920e+02 1.651450520309584817e+02 1.663042723183752116e+02 1.671901682679227292e+02 1.677258079701129247e+02 1.677983095606746815e+02 1.675530049293305126e+02 1.668020152498883704e+02 1.656314919850752574e+02 1.641781559186753157e+02 1.626298430987516781e+02 1.607380434308189763e+02 1.586126272602041354e+02 1.562286496190274363e+02 1.540718491414487232e+02 1.516663261921945605e+02 1.491519585592124884e+02
1.495928605300295544e+02 1.520156555877476023e+02 1.543830780216557343e+02 1.566932337742948107e+02 1.589400319132405457e+02 1.611106125229355257e+02 1.631858205422707329e+02 1.651404969825655087e+02 1.669433571830215612e+02 1.685121844374886848e+02 1.700603705878865810e+02 1.714501359272048546e+02 1.725991148041382246e+02 1.734727824747261877e+02 1.740336948070581968e+02 1.742312104278055358e+02 1.742571810996220449e+02 1.740636403795520550e+02 1.735849989166522676e+02 1.729006983535051631e+02 1.720568936926022729e+02 1.710900048762373160e+02 1.700296891280695206e+02 1.689003640492680915e+02 1.677220315079138970e+02 1.665112919420629680e+02 1.652916364835845684e+02 1.640741279163006823e+02 1.628562856866649042e+02 1.616447213618561705e+02 1.604370519914630222e+02 1.591384395385679227e+02 1.590380951817363950e+02 1.591207281825712130e+02 1.593802695836667169e+02 1.610052306200531405e+02 1.624378223369562591e+02 1.636467383900317998e+02 1.645680010554371506e+02 1.654079261060963404e+02 1.658440144094330151e+02 1.658195139891513463e+02 1.654597865786887496e+02 1.646127973307837919e+02 1.633667774288594785e+02 1.617850762245067813e+02 1.599259929818554724e+02 1.578366190334285477e+02 1.555808543232032548e+02 1.532153020786794002e+02 1.507729676078264731e+02 1.482812085266615156e+02 1.457617002134773827e+02 1.432252542087464064e+02 1.407048895466003273e+02 1.383118948429560362e+02 1.360040147791353320e+02 1.337703100652232990e+02 1.315973602521251564e+02 1.294278962493854408e+02 1.322858068236475901e+02 1.344502192188937784e+02 1.353491196051772931e+02 1.360520062479347985e+02 1.366101674811749831e+02 1.370617542491728500e+02 1.374334997390906778e+02 1.377425088118223186e+02 1.379986864098653427e+02 1.382074181673291662e+02 1.383718079716144302e+02 1.384949763386707957e+02 1.385448879840916163e+02 1.385549904935001564e+02 1.384581820217410666e+02 1.381835308493139962e+02 1.369478418713504482e+02 1.351216629556035684e+02 1.328593570386371141e+02 1.302661811171754209e+02 1.274237126862543477e+02 1.243774026123094103e+02 1.241283156400199772e+02 1.264164951528175465e+02 1.285414112722924642e+02 1.305423876626093147e+02 1.324704726939598629e+02 1.343537985577230813e+02 1.362094851062867633e+02 1.380458118481721215e+02 1.399003349278530948e+02 1.417793423358344000e+02 1.436940550581438742e+02 1.456589018871685255e+02 1.476739526237914788e+02 1.497047697561098119e+02 1.517360902518545345e+02 1.537427598758376348e+02 1.557109621805584823e+02 1.576280957941967245e+02 1.594626875078167529e+02 1.611846353445593820e+02 1.627649793234961919e+02 1.641666958254512849e+02 1.653423766189854689e+02 1.662298587663607350e+02 1.667455178018383606e+02 1.667687050295493520e+02 1.664675130550777453e+02 1.656365509711989432e+02 1.643791006819248537e+02 1.627587002092411694e+02 1.609238226461683041e+02 1.590406985842660390e+02 1.568387323741330022e+02 1.544329142461378126e+02 1.517874792567407667e+02 1.494116748341862149e+02 1.467992961729877948e+02
1.476943493488370223e+02 1.502302246510441250e+02 1.526845641057933847e+02 1.550724162638936434e+02 1.573916944099586885e+02 1.596300526186280990e+02 1.617674941818227978e+02 1.637770575631637939e+02 1.655719705265923665e+02 1.673760821381806352e+02 1.690606232701017291e+02 1.705331872714670567e+02 1.717565638519509150e+02 1.726894285654763337e+02 1.732917466758222531e+02 1.735090898359713663e+02 1.735413647476453889e+02 1.733234398749832224e+02 1.728286500930743159e+02 1.721184996448234301e+02 1.712463625215553975e+02 1.702481042088760148e+02 1.691544577477858127e+02 1.679907979189238176e+02 1.667782484922056199e+02 1.655344509120798477e+02 1.642746686920634431e+02 1.630221039764769273e+02 1.617881354425795166e+02 1.605696256321548958e+02 1.593745842888424136e+02 1.582076001377168666e+02 1.569788889826219247e+02 1.571096556744755048e+02 1.576847760534758152e+02 1.596020108514611877e+02 1.611286693070753415e+02 1.623454143300137389e+02 1.635396290474365344e+02 1.643812533270705103e+02 1.648341415431148107e+02 1.648078149680358422e+02 1.644423218627271694e+02 1.635667276552158569e+02 1.622760348290830166e+02 1.606380307684705713e+02 1.587157001256364879e+02 1.565651280550520710e+02 1.542294254398883595e+02 1.517676562720521076e+02 1.492308523740192641e+02 1.466456383618273662e+02 1.440340667919587077e+02 1.414137327892516396e+02 1.387919444484983558e+02 1.361980782091592062e+02 1.337402632908790565e+02 1.313703630859407951e+02 1.290720203125240175e+02 1.267863363050554568e+02 1.296966994883296707e+02 1.319004404050466235e+02 1.327982560350723702e+02 1.335007051340128328e+02 1.340555482187915857e+02 1.345029927669488359e+02 1.348724879654621986e+02 1.351826496989150144e+02 1.354439289362580325e+02 1.356618340055664760e+02 1.358395682333437264e+02 1.359806734325915158e+02 1.360542478867836280e+02 1.360946135272768061e+02 1.360369967057820020e+02 1.358123885937716580e+02 1.345868023972675473e+02 1.327424802361785794e+02 1.304392433507414921e+02 1.277794102154706195e+02 1.248399892435154044e+02 1.217052894498398246e+02 1.219663378021840145e+02 1.244349369475464471e+02 1.265252532659667537e+02 1.285114042348525913e+02 1.304482659192464382e+02 1.323566784163957664e+02 1.342450152567894861e+02 1.361503751433403409e+02 1.380794529456852615e+02 1.400445708470497550e+02 1.420619493436411460e+02 1.441342614477267716e+02 1.462297398358564351e+02 1.483356475935700303e+02 1.504285681110943358e+02 1.524963733901305432e+02 1.545284436260361076e+02 1.564960321810227697e+02 1.583722881468923163e+02 1.601329113050037449e+02 1.617470625349191096e+02 1.631756208264897339e+02 1.643678513719384000e+02 1.652565434563318831e+02 1.657500139228490639e+02 1.657151519220142575e+02 1.653371524734595255e+02 1.644325281671815162e+02 1.630864050204887405e+02 1.613761067994851715e+02 1.593586304550796910e+02 1.571864962508495296e+02 1.550034857550591880e+02 1.525219169227370344e+02 1.498594781096219606e+02 1.469703020067597379e+02 1.443793540410161711e+02
1.458987523298225142e+02 1.484906581959857022e+02 1.510083042205201025e+02 1.534601688604238348e+02 1.558398511992047872e+02 1.581326474176268277e+02 1.603173329472634236e+02 1.623075010377389447e+02 1.643344294425071439e+02 1.662817631582752256e+02 1.680525523079876677e+02 1.696090870175648320e+02 1.709060350493892599e+02 1.718982996895348094e+02 1.725426258185435699e+02 1.727821744917951605e+02 1.728394712988827848e+02 1.725241266538230036e+02 1.720349919131423917e+02 1.713075027987427745e+02 1.704049851487248191e+02 1.693746824604214396e+02 1.682459759504594388e+02 1.670452103633157321e+02 1.657940743288849035e+02 1.645109236584131622e+02 1.632117701573713191e+02 1.619115907211791523e+02 1.606346496866576388e+02 1.593936062374792471e+02 1.581835581573236311e+02 1.570103396990451188e+02 1.558924829856487406e+02 1.548133798823822360e+02 1.566245914211777972e+02 1.583178303224048022e+02 1.597846334615773287e+02 1.612916915536269471e+02 1.624881963274845020e+02 1.633556618095150270e+02 1.638229015847801406e+02 1.637932062648025067e+02 1.634197763350373123e+02 1.625129070650183394e+02 1.611741321457809875e+02 1.594754050551289311e+02 1.574840407116668928e+02 1.552604397911742922e+02 1.528564530536712311e+02 1.503096258172459159e+02 1.476731402169521630e+02 1.449923197118488076e+02 1.422883864151112618e+02 1.395792829230222765e+02 1.368792091365561703e+02 1.341916373193708125e+02 1.315407566289572117e+02 1.290294429213612659e+02 1.266041754967726973e+02 1.242042144933771510e+02 1.271497035622457474e+02 1.293693852297921012e+02 1.302507952317318711e+02 1.309466548325491999e+02 1.314917326834695359e+02 1.319292259812258976e+02 1.322918813936224751e+02 1.325995840280893390e+02 1.328630290491406640e+02 1.330877149434655848e+02 1.332769472116084728e+02 1.334347580597262493e+02 1.335316205809541259e+02 1.336031998075843319e+02 1.335884396353662851e+02 1.334235064451290498e+02 1.322240391332003071e+02 1.303772110526343795e+02 1.280496895709396767e+02 1.253380784954642735e+02 1.222908223193541346e+02 1.188506276510469917e+02 1.205907711656923027e+02 1.225221529796596229e+02 1.245163938579714227e+02 1.264930097072974036e+02 1.284488107792141420e+02 1.303859691657499411e+02 1.323390599611102232e+02 1.343141041419718817e+02 1.363237812087089367e+02 1.383856084348718696e+02 1.405046641072187015e+02 1.426522257350521841e+02 1.448184328465772523e+02 1.469821125089183340e+02 1.491329772910955569e+02 1.512622259867659409e+02 1.533434551244465069e+02 1.553525148115123784e+02 1.572690554252460231e+02 1.590675320029890827e+02 1.607157640346388803e+02 1.621722023374873061e+02 1.633824508143001708e+02 1.642741902000761343e+02 1.647496378363861425e+02 1.646898273534482371e+02 1.640701087321833143e+02 1.631618501755074249e+02 1.617447176189758977e+02 1.599469131701838478e+02 1.578438814115727666e+02 1.554830812414194270e+02 1.530154836092468713e+02 1.505642640087994266e+02 1.478282157737299940e+02 1.449248023677572235e+02 1.417976589518586934e+02
1.441312130294615201e+02 1.467609481276598729e+02 1.493380671220639329e+02 1.518491269558628005e+02 1.542803995342757162e+02 1.566147205820918202e+02 1.587691497178099667e+02 1.609813748590345313e+02 1.631493956090967004e+02 1.651792315093107106e+02 1.670370188485975973e+02 1.686766012489754587e+02 1.700480625058843600e+02 1.711007735330821617e+02 1.717869232948300180e+02 1.720456086137495220e+02 1.721119454257541292e+02 1.718022817193135552e+02 1.711799930854790546e+02 1.704577696714440265e+02 1.695331644320789337e+02 1.684680063477427723e+02 1.673038197789767594e+02 1.660641390458399087e+02 1.647712033670201777e+02 1.634433755833601651e+02 1.620969297061404575e+02 1.607475016654355784e+02 1.594118686471550177e+02 1.581181080933700400e+02 1.568801382314858586e+02 1.556795682755140717e+02 1.544919113577261669e+02 1.532463605855277820e+02 1.552219838452931242e+02 1.569139255276803908e+02 1.587006013002511793e+02 1.602104385661675678e+02 1.614382889985531051e+02 1.623301887922849858e+02 1.628109520282952758e+02 1.627774538953340766e+02 1.623949340340223841e+02 1.614551235915978680e+02 1.600656554916103573e+02 1.583023096597790698e+02 1.562365736715334776e+02 1.539330055798461956e+02 1.514475034500767663e+02 1.488263031743872205e+02 1.461008299027879218e+02 1.433186606561051804e+02 1.405204000797325818e+02 1.377231504492962699e+02 1.349412273676707343e+02 1.321844691566208212e+02 1.294503104364153501e+02 1.267556107912130727e+02 1.241982733990406871e+02 1.216804884207061548e+02 1.246361660691679845e+02 1.268434479019937129e+02 1.277022462875522848e+02 1.283929686814617810e+02 1.289228622190641715e+02 1.293449521660631092e+02 1.296966800063546543e+02 1.299986685555504380e+02 1.302613986173233513e+02 1.304902260920050878e+02 1.306886069389487659e+02 1.308611343663223181e+02 1.309798410592242988e+02 1.310818154865158078e+02 1.311111399337361547e+02 1.310147630533115830e+02 1.298645709943994007e+02 1.280326251803254252e+02 1.257023008248347082e+02 1.229726124473779123e+02 1.198949377075552434e+02 1.164503466593270247e+02 1.184683375239630863e+02 1.204698039381708128e+02 1.224826426773880144e+02 1.244862744557790819e+02 1.264735727394945144e+02 1.284750310941808493e+02 1.304951070714874390e+02 1.325462769563931147e+02 1.346469104529452920e+02 1.368041953332158585e+02 1.389926513570031545e+02 1.412055914208047795e+02 1.434246958258911206e+02 1.456419014187257517e+02 1.478503068199458710e+02 1.500256497949261245e+02 1.521460126317864479e+02 1.541943356659176345e+02 1.561497273912944763e+02 1.579861991939540076e+02 1.596699982113901513e+02 1.611566706171332157e+02 1.623876076001066338e+02 1.632851141825302363e+02 1.637448995392132645e+02 1.636331936966260798e+02 1.629159927465539965e+02 1.617312078293213347e+02 1.603336804980396550e+02 1.584664056799677496e+02 1.562804638497074450e+02 1.538425661645997877e+02 1.511882674331219505e+02 1.484633641621571769e+02 1.457723061087959024e+02 1.428015874574303155e+02 1.396645429465330039e+02
1.422967904559041870e+02 1.450082480735580077e+02 1.476591650210344540e+02 1.502324393661233728e+02 1.527095270029828384e+02 1.550079869187345594e+02 1.573723290651235232e+02 1.597158026675966767e+02 1.619557254326904854e+02 1.640677221749191972e+02 1.660108945889589620e+02 1.677352680929412827e+02 1.691842055255433195e+02 1.702995133014168800e+02 1.710274285559543159e+02 1.713023984198658241e+02 1.713705647865860726e+02 1.710488863363627559e+02 1.704233417763583986e+02 1.695413935582079432e+02 1.686214615584223679e+02 1.675302469177249804e+02 1.663273876050045601e+02 1.650488381622930376e+02 1.637125171994599953e+02 1.623366781774031153e+02 1.609367703193199475e+02 1.595279455052029220e+02 1.581276063487280510e+02 1.567591997736494704e+02 1.554635362859097540e+02 1.542537971051154102e+02 1.530569717465747601e+02 1.517648604947269462e+02 1.537356417803216857e+02 1.557828754650008136e+02 1.575794853434914273e+02 1.591283993758803774e+02 1.603882418578354248e+02 1.613044052417199907e+02 1.617987252977239905e+02 1.617619925197205077e+02 1.613707079067953032e+02 1.603977584667967449e+02 1.589559245706735169e+02 1.571242852893981023e+02 1.549785883885164992e+02 1.525878431990715001e+02 1.500121380227074610e+02 1.473016871844122875e+02 1.444967954894349305e+02 1.416234230069540274e+02 1.387247810429096546e+02 1.358379346849313549e+02 1.329762520914569848e+02 1.301489627091737020e+02 1.273580361206554130e+02 1.245910726282692451e+02 1.218584168786071160e+02 1.192155076542671566e+02 1.221394121939409558e+02 1.242872436621026822e+02 1.251467253449438743e+02 1.258455091402418020e+02 1.263532186151211931e+02 1.267544312366245265e+02 1.270919753765135738e+02 1.273856930111681862e+02 1.276451411183915354e+02 1.278754113333073690e+02 1.280802167280784829e+02 1.282647937596209147e+02 1.284028422266611358e+02 1.285323522258458979e+02 1.286021629413127698e+02 1.285723475471730239e+02 1.275188559872751028e+02 1.257106958680762574e+02 1.233943880816950980e+02 1.206705112047122412e+02 1.175910829562808857e+02 1.141441737644215522e+02 1.162995997959789065e+02 1.183841005650364764e+02 1.204531901638073919e+02 1.225019382743138578e+02 1.245594948372325774e+02 1.266290595826403376e+02 1.287229400112859423e+02 1.308603113547990802e+02 1.330503425023233035e+02 1.352709059750747542e+02 1.375186997596144067e+02 1.397788459933460103e+02 1.420460479100265729e+02 1.443156524378407823e+02 1.465656001269833837e+02 1.487758623769689450e+02 1.509319091751100075e+02 1.530167546982881390e+02 1.550102209858339108e+02 1.568861033040788300e+02 1.586087169339332945e+02 1.601297608410671103e+02 1.613852017091228674e+02 1.622905081130349743e+02 1.627298410437679763e+02 1.625633535441924096e+02 1.617734604520590267e+02 1.604491534898944849e+02 1.587517657792277248e+02 1.569190505727786160e+02 1.546665263480292936e+02 1.521531325283282854e+02 1.494333393468656084e+02 1.465311685590861259e+02 1.435863558125232942e+02 1.406843639796851448e+02 1.374918280117623510e+02
1.403979489302114700e+02 1.432161259288911879e+02 1.459594900628584071e+02 1.486045790472579142e+02 1.510557952700613669e+02 1.535587248051212725e+02 1.560393937665446629e+02 1.584390596742840671e+02 1.607491714889931416e+02 1.629404527894718626e+02 1.649713394806881013e+02 1.667860082171346505e+02 1.683182218383778945e+02 1.694995439583169627e+02 1.702690235668052026e+02 1.705567318786217470e+02 1.706171987849121194e+02 1.702750394790176927e+02 1.696258958309387310e+02 1.687367754328973604e+02 1.676386254597120455e+02 1.665523817848068404e+02 1.653205709967064934e+02 1.640000823373093510e+02 1.626213263932051518e+02 1.611967018193662682e+02 1.597405032855851346e+02 1.582654618141322658e+02 1.567862713867591253e+02 1.553251923801042551e+02 1.539264153878056618e+02 1.526922807820232890e+02 1.515894438654502210e+02 1.503079295267179987e+02 1.525443500948240967e+02 1.546069080015065538e+02 1.564576242165421718e+02 1.580473532518087154e+02 1.593382549182514651e+02 1.602779035889994645e+02 1.607861015674263001e+02 1.607477483797356399e+02 1.603502002024974331e+02 1.593462332057197273e+02 1.578517140642418042e+02 1.559480523174898678e+02 1.537158689948166739e+02 1.512295900580753312e+02 1.485541445246217052e+02 1.457439547252719478e+02 1.428432741127274710e+02 1.398871873341812204e+02 1.368975906983002631e+02 1.339146461927778091e+02 1.309722686049797460e+02 1.280788363613707190e+02 1.252344296382696598e+02 1.224259919289923744e+02 1.196258878760725395e+02 1.168130005869774664e+02 1.196272558965105475e+02 1.215934751889166563e+02 1.225799377159482759e+02 1.233169003421430432e+02 1.237861809243016609e+02 1.241610225700868568e+02 1.244826225697378845e+02 1.247666559880405970e+02 1.250208966983998096e+02 1.252501275446632434e+02 1.254585026120602720e+02 1.256520357086735800e+02 1.258062285031431884e+02 1.259590910218319380e+02 1.260610074929962536e+02 1.260633901244591328e+02 1.252307180632391663e+02 1.234053794161091133e+02 1.211142478478869435e+02 1.184132927500197496e+02 1.153482033139039231e+02 1.118998769699923344e+02 1.141520867263791530e+02 1.163189951675710603e+02 1.184524930576271800e+02 1.205835985145140086e+02 1.227149308465145765e+02 1.248589051264836201e+02 1.270359030321447591e+02 1.292573673962738496e+02 1.315047441933854486e+02 1.337783273042195447e+02 1.360671591590300977e+02 1.383692837910411129e+02 1.406828545309149376e+02 1.429884084360966199e+02 1.452677705328696618e+02 1.475081696230938348e+02 1.496952898209447937e+02 1.518137632829710810e+02 1.538453034304608593e+02 1.557641344605709719e+02 1.575318198236753631e+02 1.590944624271270413e+02 1.603809888029547039e+02 1.613034050363675647e+02 1.617026207808698643e+02 1.614859425156400334e+02 1.606127844793801955e+02 1.591981424254927333e+02 1.573343300328076850e+02 1.551934052583911523e+02 1.529883843581741587e+02 1.504136553117550079e+02 1.476277715559994590e+02 1.446738611018660094e+02 1.415682736344683121e+02 1.384486094614645708e+02 1.353817943667359316e+02
1.384060061965610942e+02 1.413576721829517169e+02 1.442243625369779352e+02 1.468865114800663889e+02 1.495701532481235176e+02 1.521723739905264097e+02 1.546857619072228829e+02 1.571401324963474337e+02 1.595159571419084159e+02 1.617882657724992157e+02 1.639161557857644311e+02 1.658330339625851195e+02 1.674585198929107719e+02 1.687100277795632053e+02 1.695193768359555406e+02 1.698142819702802058e+02 1.698533028711543977e+02 1.694805596215753098e+02 1.688005793395889498e+02 1.678830580227443079e+02 1.667772126039204750e+02 1.655004844555458590e+02 1.642747222596083816e+02 1.629233095813025045e+02 1.614997909122145359e+02 1.600290141828276944e+02 1.585178014527995742e+02 1.569760714650947193e+02 1.554126494017230300e+02 1.538390012183804458e+02 1.522794491288945267e+02 1.508281648774487849e+02 1.501069124867706819e+02 1.488760022545016568e+02 1.512650239975636453e+02 1.534364938966414229e+02 1.553467709683321800e+02 1.569708203531299375e+02 1.582878034295856935e+02 1.592490323503820093e+02 1.597717397428617687e+02 1.597347099616582966e+02 1.593366946903306314e+02 1.583078533318233383e+02 1.567628859074043532e+02 1.547831407949465472e+02 1.524562528339031644e+02 1.498641469598157983e+02 1.470777804044119819e+02 1.441562748698762277e+02 1.411478633832744549e+02 1.380913716138893506e+02 1.350178292575765511e+02 1.319464635411433733e+02 1.289152901313973700e+02 1.259547113762427699e+02 1.230657022018457099e+02 1.202326687339875519e+02 1.174099607721873753e+02 1.144923320385952366e+02 1.170739669585818206e+02 1.183602462703410509e+02 1.204658626170939613e+02 1.208323661359242891e+02 1.212204151556799872e+02 1.215662880539950379e+02 1.218728934915231861e+02 1.221474411232745609e+02 1.223955326953348361e+02 1.226217896091264095e+02 1.228310703491850688e+02 1.230303836712591021e+02 1.231973531383492286e+02 1.233698286424036183e+02 1.235009473039378349e+02 1.235533686132799573e+02 1.228516351299396803e+02 1.211419303233768261e+02 1.188417062807665729e+02 1.161792577409527922e+02 1.131488689826028349e+02 1.097125950938626175e+02 1.120523006998824940e+02 1.142978817526232547e+02 1.165283451260110468e+02 1.187427355700495895e+02 1.209519487251133540e+02 1.231776862690854841e+02 1.254344484750048139e+02 1.277078047026269161e+02 1.300020195632760078e+02 1.323104060640858677e+02 1.346348195038079893e+02 1.369768244181336172e+02 1.393202164972964567e+02 1.416491310951143419e+02 1.439522330668064001e+02 1.462165136792129658e+02 1.484289970175681503e+02 1.505772368534315717e+02 1.526480720050797686e+02 1.546174278677243308e+02 1.564416213952549697e+02 1.580578399393463087e+02 1.593895919082575574e+02 1.603213122754386859e+02 1.606693631229449011e+02 1.603992639995192917e+02 1.594391594460879844e+02 1.579224162673982903e+02 1.559604058736937873e+02 1.536394337814797950e+02 1.511267272300954403e+02 1.486111321924196318e+02 1.457700973887827161e+02 1.427591318047120694e+02 1.396145656991032524e+02 1.363526789370691290e+02 1.331265243120849107e+02
1.362342982611876607e+02 1.393624409522118981e+02 1.423881401333820236e+02 1.453381911627808449e+02 1.481653788936531271e+02 1.507412793532751891e+02 1.532833351709776366e+02 1.558017282841759084e+02 1.582325248740762902e+02 1.605964631973417056e+02 1.628461539960715072e+02 1.648876497756114645e+02 1.666229089719001593e+02 1.679468874151832267e+02 1.687898608107450684e+02 1.690830147810006281e+02 1.690787044909430676e+02 1.686642064322793999e+02 1.679472034194714354e+02 1.669960371644620238e+02 1.658605604892799192e+02 1.645775000081932546e+02 1.631534819639681473e+02 1.618099085525743988e+02 1.603543869606615999e+02 1.588366651877319953e+02 1.572760934399869654e+02 1.556736617182421583e+02 1.540336705565277384e+02 1.523567736200518254e+02 1.506349862118987915e+02 1.488034658634230425e+02 1.480186203394538325e+02 1.474711815452124597e+02 1.500332249693296376e+02 1.523263000261396769e+02 1.542605228382485052e+02 1.558972101618023487e+02 1.572325676436943809e+02 1.582136412531961867e+02 1.587523804277032866e+02 1.587212521487139725e+02 1.583333631138138742e+02 1.572934343152152792e+02 1.557069803009279383e+02 1.536460183313787127e+02 1.512132940868270055e+02 1.485020723312612176e+02 1.455910475480638127e+02 1.425446329921955737e+02 1.394151954518926289e+02 1.362450126288197225e+02 1.330680392996053740e+02 1.299121816188823573e+02 1.267955288830451792e+02 1.237553181617776517e+02 1.208175521758416835e+02 1.179763791236435395e+02 1.152002721980627058e+02 1.123068267251216099e+02 1.137058896543191224e+02 1.162180364542928004e+02 1.178973193542824589e+02 1.182754287499240036e+02 1.186396935052935646e+02 1.189698969692410486e+02 1.192663681876505279e+02 1.195334634381432153e+02 1.197757187498613547e+02 1.199979423776816816e+02 1.202059869617770858e+02 1.204081218883054447e+02 1.205844791500640838e+02 1.207726725373688339e+02 1.209290876856589421e+02 1.210274396636829550e+02 1.204302678999277276e+02 1.187874088177559742e+02 1.165817763699011493e+02 1.139330780546238913e+02 1.109726860106303121e+02 1.075838241275953919e+02 1.100096598815038789e+02 1.123668564716532501e+02 1.146940923397141603e+02 1.169925112379429208e+02 1.192829466856589704e+02 1.215843658524511000e+02 1.238877485940917467e+02 1.262020670695927436e+02 1.285251424323216156e+02 1.308628936001395289e+02 1.332207227380649499e+02 1.355863536067025166e+02 1.379470791516073405e+02 1.402934936642421633e+02 1.426135204400835335e+02 1.448943818629863927e+02 1.471241489135823315e+02 1.492947452956555878e+02 1.514091196022836812e+02 1.534452622422261925e+02 1.553458165634554575e+02 1.570376694977566387e+02 1.584139837147039032e+02 1.593452429292625823e+02 1.596376284845212865e+02 1.592979792897370430e+02 1.582462205390356758e+02 1.566251482812421898e+02 1.545539962073818856e+02 1.521353481438170832e+02 1.494399164473979340e+02 1.466213990762895776e+02 1.438491734528611232e+02 1.407880021056390092e+02 1.375914119052902720e+02 1.342927334101101167e+02 1.309066884723675059e+02
1.367273347280684277e+02 1.395693921329774412e+02 1.421966370811579736e+02 1.445050323895002578e+02 1.466952965505903421e+02 1.491789674558710601e+02 1.517982324902623361e+02 1.544435431215761412e+02 1.568102154034347677e+02 1.593457953257022552e+02 1.617675489852736348e+02 1.639699157659475759e+02 1.658479597985441671e+02 1.672344532217481969e+02 1.680952162649185766e+02 1.683751472258298634e+02 1.682852888908913656e+02 1.678217672383226216e+02 1.670643656191084574e+02 1.660763028853257026e+02 1.649071259849167461e+02 1.635948831463095701e+02 1.621671070944533710e+02 1.606207740421012886e+02 1.591757899693556908e+02 1.576261036160251763e+02 1.560176993107166936e+02 1.543648307980944878e+02 1.526626737106088569e+02 1.509095961234866081e+02 1.490990537565300542e+02 1.472241612155222583e+02 1.451417825826028150e+02 1.472828410582221750e+02 1.494310182402708733e+02 1.513385117376477922e+02 1.531805567288623706e+02 1.548119310662253838e+02 1.561631678229881288e+02 1.571648730688286548e+02 1.577224768185586754e+02 1.577030657899691732e+02 1.573413410415322460e+02 1.563177042273734685e+02 1.547219230355323418e+02 1.525656801075994622e+02 1.500072557617773157e+02 1.471555533062887093e+02 1.440993273406845674e+02 1.409083041998495105e+02 1.376391837194608456e+02 1.343380333229012535e+02 1.310403229084960230e+02 1.277751423784406768e+02 1.245686349703992590e+02 1.214455100672935970e+02 1.184329827276865217e+02 1.155550907978621069e+02 1.128326410306375891e+02 1.102568622526722919e+02 1.107906657669850858e+02 1.134226345748659668e+02 1.152796139395399848e+02 1.156865721846536417e+02 1.160484372622526053e+02 1.163738719288645598e+02 1.166661353835213504e+02 1.169292841185403802e+02 1.171674273387383636e+02 1.173857038705901346e+02 1.175911721893539124e+02 1.177936292328422638e+02 1.179760642089181886e+02 1.181757345253252112e+02 1.183519165468000267e+02 1.184841610497635855e+02 1.179666985169508848e+02 1.163620606551230878e+02 1.141875360478012738e+02 1.116397322693928089e+02 1.087722527122779184e+02 1.055184614395432021e+02 1.080656722844358058e+02 1.105430841207676593e+02 1.129662758838193497e+02 1.153441778265029427e+02 1.177038130230272515e+02 1.200453001062112719e+02 1.223836998330834831e+02 1.247213682038319291e+02 1.270681772000465202e+02 1.294334053196818672e+02 1.318090430376403219e+02 1.341863454335806409e+02 1.365588418805860158e+02 1.389163079031212078e+02 1.412464201472352556e+02 1.435356801760680412e+02 1.457706056724908024e+02 1.479405481024194273e+02 1.501167527723901003e+02 1.522552088902361618e+02 1.542670270140867785e+02 1.560473363109811089e+02 1.574651116508293285e+02 1.583893222233776044e+02 1.586253142406261816e+02 1.581374014970374446e+02 1.570202399830586160e+02 1.552961944326099513e+02 1.531174349796085608e+02 1.505920205807221919e+02 1.478051759207933173e+02 1.448085458525973195e+02 1.417396151239839241e+02 1.387546598670633387e+02 1.355109071208441094e+02 1.321613372042327512e+02 1.287354030810630263e+02
1.358922066110727087e+02 1.383675699860473856e+02 1.405970604357489151e+02 1.427300389564845773e+02 1.447151252005562299e+02 1.474021845809002116e+02 1.501957588654864821e+02 1.530264630676169304e+02 1.560883218052423445e+02 1.587991511991430684e+02 1.612393777610118946e+02 1.633924000090425181e+02 1.651995032543625825e+02 1.665953426487919842e+02 1.674473527784506359e+02 1.677257180977778432e+02 1.674207993512813744e+02 1.669424839617930445e+02 1.661482643343277630e+02 1.651229000658546227e+02 1.639177864855726625e+02 1.625728889222870635e+02 1.611176087581441152e+02 1.595712594468270140e+02 1.579213590738860660e+02 1.563861404867234342e+02 1.547472718309172990e+02 1.530477632064862235e+02 1.512977811378277124e+02 1.494876243255525310e+02 1.476114080495857763e+02 1.456574331140502068e+02 1.435576097242893638e+02 1.460462283005887230e+02 1.481338029059969301e+02 1.501693209758414014e+02 1.520410406668927124e+02 1.536939423679656329e+02 1.550686988257927794e+02 1.560944800613136181e+02 1.566743332196330698e+02 1.566717611127670295e+02 1.563532886171590803e+02 1.553813042021053263e+02 1.538924733577304664e+02 1.520132958946434485e+02 1.496380302901921198e+02 1.469501557016411368e+02 1.440454441051050765e+02 1.410053310264286495e+02 1.378874678194279966e+02 1.347296581272718754e+02 1.315592744222576016e+02 1.283949129575787538e+02 1.252505960795670461e+02 1.221426423262740286e+02 1.190969339786131940e+02 1.161629019239778415e+02 1.135896785428738553e+02 1.105618518609469163e+02 1.073280460873433668e+02 1.106888930842099938e+02 1.126812569174314262e+02 1.130870313251423624e+02 1.134510435476061332e+02 1.137796356526312280e+02 1.140739757733676498e+02 1.143380821157547729e+02 1.145754045871822768e+02 1.147911438291763204e+02 1.149936682811286630e+02 1.151945796120642029e+02 1.153800372904991463e+02 1.155869692361037693e+02 1.157771085063355940e+02 1.159309551848392488e+02 1.154679856926680088e+02 1.138640334335555195e+02 1.116456912765573435e+02 1.090702527782321027e+02 1.064270919379858782e+02 1.035338551913398391e+02 1.062502594047242184e+02 1.088603613367476015e+02 1.113560703996510881e+02 1.137864116420961267e+02 1.161747795428690324e+02 1.185442957054746529e+02 1.209009076512810168e+02 1.232575659591425676e+02 1.256268891373629799e+02 1.280049279955579209e+02 1.303872465877784919e+02 1.327711612855709973e+02 1.351495331018959121e+02 1.375121205150155390e+02 1.398463150335334717e+02 1.421374959131614730e+02 1.443688350447464188e+02 1.464215070293491294e+02 1.487745625313104370e+02 1.510756541142602316e+02 1.532254743367882952e+02 1.551206486340526283e+02 1.565703656428738668e+02 1.574698377402400524e+02 1.576305842293545254e+02 1.569764672751613261e+02 1.557172640360317075e+02 1.539238323769448300e+02 1.516411927369294119e+02 1.490130688475862826e+02 1.461271839497341887e+02 1.430482164247080448e+02 1.398096824214416927e+02 1.365347691844557971e+02 1.333727792100247882e+02 1.299782294797075792e+02 1.265029284369459504e+02
1.341246772196981851e+02 1.364732570138712902e+02 1.386780736897093789e+02 1.407114193690832451e+02 1.440465405321660910e+02 1.471275774588828256e+02 1.500976178476909411e+02 1.529903288670325026e+02 1.558132540620305235e+02 1.584497171124370993e+02 1.608444914678730981e+02 1.629462567585861734e+02 1.646928366930259244e+02 1.660238682797513263e+02 1.668393311770179537e+02 1.670857808578585662e+02 1.667785966362080501e+02 1.659881610536905896e+02 1.651939596882460535e+02 1.641334290431624083e+02 1.628915012032672678e+02 1.615118546001020547e+02 1.600261654480099480e+02 1.584553092494329007e+02 1.568103611109251005e+02 1.550695540105909913e+02 1.534505352427977982e+02 1.517236007258965742e+02 1.499302227853451939e+02 1.480779279300329563e+02 1.461538437582711651e+02 1.441519582458975890e+02 1.420284351704191295e+02 1.445192949100590454e+02 1.468145814599101584e+02 1.489300978703321334e+02 1.508502223066436727e+02 1.525376861041592349e+02 1.539418133948893797e+02 1.549943827808501453e+02 1.555987789328673045e+02 1.556150481840634541e+02 1.553490964044525242e+02 1.544257652098245899e+02 1.529789683062532504e+02 1.511206698598352034e+02 1.490115270457896770e+02 1.464549241645151767e+02 1.436729150885192325e+02 1.407492971588189050e+02 1.377426389412414096e+02 1.346908576460708673e+02 1.316146406393031327e+02 1.285151852240712174e+02 1.253790389608656000e+02 1.221949725890864045e+02 1.189442632447282762e+02 1.155940487652334383e+02 1.120766733243562783e+02 1.092825193919889273e+02 1.053742198009912840e+02 1.082958971434547806e+02 1.101230825202004695e+02 1.104744408537029727e+02 1.108461258674698229e+02 1.111862381529872295e+02 1.114896094940163351e+02 1.117611769657482057e+02 1.120027012152063293e+02 1.122186787419205700e+02 1.124188686300599329e+02 1.126170440338908918e+02 1.128028696739287255e+02 1.130133358736638201e+02 1.132127814284543916e+02 1.133804578427780712e+02 1.129564248440940446e+02 1.113277799050813570e+02 1.089815987795052763e+02 1.061352924423469233e+02 1.032767567326064722e+02 1.016539239926782301e+02 1.046786228161889767e+02 1.073377871177235363e+02 1.098287019733280374e+02 1.122653499653977889e+02 1.146733846120890377e+02 1.170568304259800527e+02 1.194290068201596995e+02 1.218045549511942767e+02 1.241828504701487219e+02 1.265635608967933621e+02 1.289481525882994788e+02 1.313333802245661559e+02 1.337121952898273207e+02 1.360743806944082337e+02 1.384074793411723476e+02 1.406990714983460862e+02 1.428020629872609959e+02 1.455336769963065251e+02 1.480481998722484320e+02 1.503822289018154663e+02 1.524962519069307803e+02 1.543141202380014647e+02 1.557575993108052330e+02 1.565951874896905451e+02 1.566456820292174825e+02 1.558736671353260306e+02 1.543946746766402782e+02 1.524661711556416890e+02 1.501165564626438425e+02 1.473906362105163623e+02 1.444114537968314949e+02 1.412436022299795013e+02 1.379326351129856789e+02 1.344982002788773343e+02 1.310530029090251958e+02 1.277432011726342012e+02 1.242220871706235528e+02
1.319759051427276688e+02 1.343768000177390434e+02 1.365001987331247619e+02 1.401544361810537680e+02 1.435762596881484114e+02 1.468191463117186686e+02 1.499034181570377200e+02 1.528421359778333226e+02 1.556283599098589434e+02 1.582191910827973800e+02 1.605654849442099987e+02 1.626128369939667380e+02 1.642997961126074813e+02 1.655121564763240940e+02 1.662571822740461016e+02 1.664589649109930747e+02 1.661213683072191429e+02 1.653377087406105090e+02 1.641562442464221476e+02 1.631025749726281333e+02 1.618251922973089165e+02 1.604095245816503166e+02 1.588919252594272393e+02 1.572945389673376440e+02 1.556292116906491287e+02 1.538993951041648813e+02 1.520747700397423614e+02 1.503744769177879164e+02 1.485576874897140840e+02 1.466658311915321065e+02 1.447050456428956409e+02 1.426613757573534826e+02 1.404934197866973022e+02 1.430854373764343563e+02 1.454630127142950755e+02 1.476469004355257368e+02 1.496172263079393474e+02 1.513425234796228835e+02 1.527773804358062080e+02 1.538566902036639590e+02 1.544855015768770272e+02 1.545208751782609227e+02 1.543185389505938758e+02 1.534497449201818426e+02 1.520264257043670852e+02 1.501450749888563507e+02 1.479441332529108593e+02 1.456315154272105588e+02 1.429472418287994628e+02 1.401092626206585692e+02 1.371905418219948274e+02 1.342343911485283172e+02 1.312706186427066370e+02 1.282831536883741421e+02 1.251967973249773678e+02 1.219948630953587383e+02 1.186443844685330191e+02 1.150873061896139120e+02 1.112659380650074752e+02 1.070466088035962855e+02 1.035477653746798552e+02 1.057805294799358080e+02 1.074664850896068060e+02 1.078224806537537432e+02 1.082282559220272873e+02 1.085904490850789301e+02 1.089102685894062574e+02 1.091977071573488871e+02 1.094503479698249322e+02 1.096705705601312246e+02 1.098698095068883873e+02 1.100646025872423195e+02 1.102485236254073442e+02 1.104594552457746204e+02 1.106653386000080559e+02 1.108459551475135640e+02 1.104632894233879341e+02 1.088266733289194121e+02 1.063569433748997142e+02 1.031098351224942320e+02 9.880226706309164797e+01 1.015294687443887227e+02 1.034160747652816639e+02 1.058294093110945369e+02 1.082979287533709254e+02 1.107515930845827512e+02 1.131734259982742827e+02 1.155715739957040569e+02 1.179607048286346043e+02 1.203426265343725277e+02 1.227206527033661700e+02 1.251003183160015340e+02 1.274826431427778886e+02 1.298645841851501359e+02 1.322389209689019651e+02 1.345949323195173690e+02 1.369211699117973353e+02 1.390521174349835576e+02 1.420440895863276296e+02 1.448262066380864042e+02 1.474211939515033691e+02 1.498037500298177633e+02 1.519291742695136236e+02 1.537270754798945518e+02 1.550329007554970815e+02 1.557624304620249234e+02 1.556729533467180033e+02 1.547491620377113009e+02 1.531399066062348027e+02 1.509710559006250321e+02 1.485020942130300909e+02 1.457180021449636058e+02 1.426514597555041348e+02 1.394016859487002762e+02 1.360125679017924369e+02 1.325153112010777647e+02 1.289207366726609507e+02 1.253329043841030597e+02 1.218944668532562190e+02
1.297439171747167279e+02 1.321222239177160986e+02 1.360070314256686288e+02 1.396847602211279877e+02 1.431832269742858159e+02 1.464967898832775290e+02 1.496299716378678681e+02 1.525839205890951575e+02 1.553475043901644597e+02 1.578925909901354032e+02 1.601786828328790477e+02 1.621563194300591135e+02 1.637693167014340361e+02 1.649714649789717100e+02 1.656678858829821763e+02 1.658276590534182446e+02 1.654595955846730249e+02 1.646530556494251130e+02 1.634829036683005086e+02 1.619788109467984043e+02 1.607114903542663171e+02 1.592611344049228705e+02 1.577112404853779708e+02 1.560869643717804252e+02 1.543996626949903828e+02 1.526541022492006334e+02 1.508475597476460734e+02 1.489418205774266823e+02 1.471596359981652711e+02 1.452483764789091083e+02 1.432504166210055701e+02 1.411710490958720925e+02 1.389547227889643182e+02 1.416361168852272385e+02 1.440875273488515234e+02 1.463313802250266349e+02 1.483478022830220766e+02 1.501082407469032773e+02 1.515707310688232496e+02 1.526730621939734931e+02 1.533226757950642707e+02 1.533751288197203451e+02 1.532534822839159574e+02 1.524661429953157779e+02 1.510861182603753150e+02 1.491418571518689475e+02 1.468193984874883427e+02 1.442395326842159875e+02 1.415137106406965870e+02 1.386513788317242302e+02 1.357084086602846185e+02 1.327426583453595867e+02 1.298288346640174780e+02 1.274544736499750002e+02 1.244967854653795882e+02 1.213907952472408027e+02 1.181107805142016360e+02 1.145291615847505824e+02 1.106915503038052009e+02 1.064786133503052099e+02 1.016493862938713733e+02 1.025404488042760107e+02 1.045991802206694103e+02 1.051215601214095443e+02 1.055957648613413511e+02 1.059876143831587996e+02 1.063302519842017517e+02 1.066444783760524473e+02 1.069172569615705441e+02 1.071466108223277871e+02 1.073466367781863084e+02 1.075376276944708991e+02 1.077175230522345402e+02 1.079262503030682439e+02 1.081369439242755988e+02 1.083347540797985005e+02 1.080102319350272211e+02 1.064208666969893926e+02 1.039538064800680388e+02 1.006958396559040523e+02 9.662670855316096663e+01 9.909200468941621409e+01 1.016843930484384515e+02 1.042255762034644562e+02 1.067465433965708286e+02 1.092261180870092261e+02 1.116666421547253805e+02 1.140817186825452012e+02 1.164754099311461459e+02 1.188547877994346464e+02 1.212293263781765944e+02 1.236039645040337831e+02 1.259803018582159240e+02 1.283556146129018032e+02 1.307216630910673416e+02 1.330689771376108865e+02 1.352064169549268797e+02 1.382976477597841836e+02 1.412560582470686654e+02 1.440771317369450344e+02 1.467143787626386597e+02 1.491222098053168281e+02 1.512451582822961598e+02 1.530077630045646515e+02 1.543308411411246936e+02 1.549511844157370604e+02 1.546991008949331388e+02 1.536059053698105288e+02 1.518386193328837521e+02 1.495478410938808622e+02 1.468400841355484658e+02 1.439543265248071293e+02 1.408413989773154071e+02 1.375163539666858981e+02 1.340570559134359314e+02 1.304922823373559595e+02 1.268440196357286567e+02 1.231167138632810065e+02 1.194036424096261300e+02
1.276219321258227524e+02 1.319745235881935628e+02 1.359411677551001674e+02 1.396570113269335991e+02 1.431622849747492410e+02 1.464741368869159714e+02 1.495982777355818314e+02 1.525300459434534730e+02 1.552529092971695377e+02 1.577385054644948639e+02 1.599476508085727460e+02 1.618329889172560456e+02 1.633407885956439713e+02 1.644209979928506868e+02 1.650583243264579210e+02 1.651799308721881516e+02 1.647854484269737441e+02 1.639568458724739344e+02 1.627622703368789416e+02 1.612648569471832616e+02 1.594922765123510260e+02 1.580564039838575354e+02 1.564783284046129381e+02 1.548283588966120305e+02 1.531174941171063608e+02 1.513543758255048317e+02 1.495378753812238131e+02 1.476593184734982174e+02 1.456719965489073445e+02 1.438042726433215535e+02 1.417902247344300406e+02 1.396734558026686841e+02 1.374145387871421917e+02 1.401768717935092923e+02 1.426938728969353178e+02 1.449894223005736933e+02 1.470448220483376360e+02 1.488337262393354763e+02 1.503167749907432267e+02 1.514341810852184267e+02 1.520956681068844034e+02 1.521584273340890263e+02 1.521358872867861862e+02 1.514808853062926914e+02 1.502456424473680272e+02 1.485717958067428981e+02 1.464021908828732705e+02 1.439090780773194638e+02 1.411962686107195282e+02 1.383154896483929122e+02 1.353037698401099362e+02 1.321795603168392574e+02 1.289273322769439005e+02 1.254382661295756947e+02 1.229364430275907125e+02 1.198116526222100049e+02 1.167297879987404912e+02 1.135092766394646162e+02 1.099814423649704338e+02 1.062583275474511311e+02 1.023540518909249073e+02 9.837942619363023766e+01 1.016759100400350206e+02 1.024048189192012615e+02 1.029530164474223426e+02 1.033709920880787649e+02 1.037399509413293544e+02 1.040960777198237253e+02 1.044004660716791193e+02 1.046440501917723935e+02 1.048463348198417435e+02 1.050328915473630786e+02 1.052064052553196092e+02 1.054100832416951050e+02 1.056238500390387145e+02 1.058434184911267977e+02 1.055944317210290393e+02 1.041032463991899277e+02 1.017182677879866759e+02 9.855492945137851279e+01 9.463597576668318823e+01 9.733156743721929161e+01 9.999086061700513994e+01 1.026162011773939753e+02 1.051835414287759534e+02 1.076905176389607419e+02 1.101489596521875853e+02 1.125658917336228058e+02 1.149539620062000722e+02 1.173277769267593982e+02 1.196953969886198479e+02 1.220611242765722011e+02 1.244291561609543351e+02 1.267968024035878045e+02 1.291532017468455251e+02 1.312895038004911896e+02 1.345638627308137814e+02 1.377027707157692191e+02 1.407277219970677322e+02 1.436003266566109460e+02 1.462748572289480933e+02 1.486993307398859088e+02 1.508101963255584792e+02 1.525223137499400536e+02 1.537112857692859791e+02 1.541515340655869863e+02 1.537028773026754891e+02 1.524322587618374598e+02 1.504993991871989181e+02 1.480627588961077663e+02 1.452495734364518682e+02 1.421387367363340104e+02 1.389402407051263992e+02 1.355811858444803022e+02 1.320591109363296312e+02 1.284362750316493305e+02 1.247317556908156462e+02 1.209605038428991577e+02 1.171191928062356453e+02
1.289718783784634581e+02 1.327365180116592285e+02 1.364066652168869496e+02 1.399472628972609698e+02 1.433407927911395063e+02 1.465751881496242106e+02 1.496373019313601276e+02 1.525086564857403175e+02 1.551638006127905669e+02 1.575686994740014768e+02 1.596816152737681591e+02 1.614547848989878673e+02 1.628053611361251285e+02 1.638167234415475377e+02 1.644091292456539861e+02 1.645049483865787465e+02 1.640959443748257343e+02 1.632533573595683833e+02 1.620320859765514854e+02 1.604891110719674998e+02 1.587095372494869991e+02 1.567304927010258666e+02 1.551820608928161107e+02 1.535143926148437572e+02 1.517720827699790789e+02 1.499904030383679299e+02 1.481638766133540344e+02 1.462854305039919041e+02 1.443369311745179857e+02 1.422647175937906354e+02 1.403041622089741622e+02 1.381736543903864742e+02 1.358764840276872405e+02 1.387116898094428166e+02 1.412859586091249753e+02 1.436241602674710975e+02 1.457092309654318001e+02 1.475169299695795360e+02 1.490100742945500656e+02 1.501303088619989694e+02 1.507863524587194206e+02 1.508453969419323641e+02 1.509234874270879061e+02 1.504641853533606763e+02 1.493442193540148253e+02 1.477437348337613230e+02 1.457924325661267062e+02 1.433469235796071928e+02 1.406591332320386414e+02 1.377706693155064670e+02 1.347128617746958810e+02 1.314999832291701978e+02 1.281243404280053824e+02 1.245545691407251354e+02 1.206855822653901811e+02 1.173979385547876149e+02 1.148085821515820584e+02 1.113918806509989565e+02 1.079882801767390390e+02 1.044059967219333771e+02 1.006956822533451259e+02 9.650043708890342486e+01 9.908188855689775210e+01 9.970110216728056685e+01 1.003021910877438927e+02 1.007294266330974324e+02 1.011242566521412130e+02 1.015456451515876353e+02 1.018959037037954261e+02 1.021577797989862404e+02 1.023627526161502601e+02 1.025435929444978740e+02 1.027077173947218824e+02 1.029026963136699067e+02 1.031163947277783564e+02 1.033580912567039292e+02 1.031910432463717626e+02 1.018353692579107701e+02 9.956136021166373951e+01 9.653051625691499282e+01 9.273732073317425773e+01 9.556974038523772208e+01 9.832571718750166667e+01 1.010144629510952967e+02 1.036192497499556424e+02 1.061437927285366101e+02 1.085969361755754221e+02 1.110004754388688326e+02 1.133792213161681985e+02 1.157457707081428140e+02 1.181036877748567520e+02 1.204535565458474480e+02 1.228165811298012358e+02 1.251843826046415700e+02 1.273044465422458273e+02 1.307125563657735938e+02 1.340124901008964855e+02 1.372331302426738375e+02 1.403295862206873039e+02 1.432555127417801089e+02 1.459607776090678328e+02 1.483885285454606446e+02 1.504684959096323666e+02 1.521049284975251510e+02 1.531533296420347483e+02 1.533585433715626323e+02 1.526547113603098751e+02 1.512132304212374265e+02 1.491143524167190435e+02 1.465291265436225956e+02 1.435882619428996065e+02 1.403894110746123260e+02 1.369841229228557324e+02 1.335533290974929059e+02 1.300099012332450457e+02 1.263378168221589846e+02 1.225889363553337290e+02 1.187746001928120450e+02 1.149012005453386109e+02
1.299122685099805778e+02 1.334285316971364921e+02 1.368916057588182014e+02 1.402702635398308928e+02 1.435385924466470726e+02 1.466717772890867764e+02 1.496437325080992196e+02 1.524253396526910649e+02 1.549816964635074328e+02 1.572754974060546544e+02 1.592627628346749304e+02 1.608368514461384677e+02 1.621516688778916091e+02 1.631292436186102748e+02 1.637010812793100456e+02 1.637909262752434643e+02 1.633893243286966310e+02 1.625554515932929860e+02 1.613228128601799369e+02 1.596987850509334805e+02 1.578334590589701065e+02 1.558235326703285182e+02 1.537497946494428049e+02 1.521497713065703010e+02 1.503317793990512996e+02 1.485444787676653391e+02 1.467079032528917537e+02 1.448388372768259558e+02 1.429021992014078819e+02 1.408824816464025105e+02 1.387216270541237577e+02 1.366568044930987469e+02 1.343468888125878777e+02 1.372451306426554538e+02 1.398669743622741919e+02 1.422373632128104646e+02 1.443407560384557087e+02 1.461551646950324539e+02 1.476455670214717770e+02 1.487545622486785817e+02 1.493720029783437440e+02 1.494167867574009563e+02 1.496049583227263327e+02 1.493389013083435941e+02 1.484138317141575101e+02 1.468927357986947015e+02 1.448685906874151499e+02 1.425432567333073450e+02 1.399258894101032524e+02 1.370739628586169374e+02 1.340275901035640800e+02 1.308129478178221063e+02 1.274446092219384354e+02 1.239304745022453034e+02 1.202807417912828924e+02 1.165143856323022646e+02 1.123931686788956057e+02 1.087728229727005527e+02 1.051840179069641437e+02 1.016367381201483227e+02 9.816077456842175764e+01 9.478288303233136958e+01 9.601930921419912579e+01 9.692270252394509100e+01 9.764056612276344538e+01 9.804623946776024468e+01 9.846047032557856937e+01 9.898710419083603540e+01 9.939986304055729249e+01 9.968065527424610650e+01 9.988690622602793212e+01 1.000598357596285126e+02 1.002105883244765892e+02 1.003919219502411266e+02 1.006004484437086148e+02 1.008587643731455756e+02 1.007562742703015886e+02 9.956615648365347226e+01 9.737307958959509335e+01 9.452348122530503360e+01 9.090748360022665508e+01 9.385630244501021480e+01 9.669429754712503211e+01 9.943393724482831431e+01 1.020546921166197478e+02 1.045575532705660180e+02 1.069778158904428551e+02 1.093593571507391999e+02 1.117314028008001543e+02 1.140930835998740065e+02 1.164409172130238943e+02 1.187391418740875366e+02 1.211497519554270355e+02 1.232924576185367300e+02 1.267618564423908936e+02 1.301619665067423455e+02 1.335341339420955649e+02 1.368761162758217154e+02 1.400631915888583592e+02 1.430456649424953923e+02 1.457720740821891638e+02 1.481847545584696775e+02 1.502091767219683618e+02 1.517395910963056167e+02 1.526112681326294194e+02 1.525702073209589287e+02 1.516115356872431335e+02 1.499147090310542296e+02 1.476734537466819575e+02 1.449408551481897973e+02 1.418706398253283112e+02 1.385616701996344204e+02 1.350836513368558656e+02 1.314648811357349416e+02 1.278628923950092684e+02 1.241836426818245087e+02 1.204012218247972612e+02 1.165581925156552074e+02 1.126562350934178198e+02
1.304584293311388308e+02 1.338524385459709549e+02 1.371919200215202181e+02 1.404555202457914049e+02 1.436176479268534365e+02 1.466477526880840401e+02 1.495142536829584969e+02 1.521825157185901674e+02 1.546077224973881528e+02 1.567620932096079969e+02 1.585049026092226541e+02 1.600743999675978273e+02 1.613767498931979958e+02 1.623468500568083357e+02 1.629187692024588614e+02 1.630213448213448260e+02 1.626586235003506715e+02 1.618702263537096258e+02 1.607041222995978274e+02 1.592002707106966000e+02 1.574274389663170552e+02 1.554348771339134601e+02 1.532371140836613108e+02 1.507458692032317344e+02 1.486365083067409216e+02 1.470236428224065435e+02 1.451303189071266218e+02 1.433079516272223373e+02 1.413899572836512277e+02 1.393903294424649459e+02 1.373055534226309078e+02 1.350637358444232632e+02 1.328320154745919695e+02 1.357815751602798855e+02 1.384398222716088469e+02 1.408300072820059938e+02 1.429381756779413024e+02 1.447450274584986118e+02 1.462179269201651266e+02 1.473140694254962852e+02 1.478179057142596662e+02 1.478522411185454644e+02 1.481505393466669886e+02 1.480856794779013228e+02 1.474108123915913779e+02 1.461617057772155874e+02 1.444629542981214172e+02 1.422407001358045875e+02 1.396973433150024846e+02 1.368934103187280300e+02 1.338790962463822325e+02 1.306924089229837875e+02 1.273617097216930176e+02 1.239096156510067317e+02 1.203574306050010989e+02 1.167262605126751680e+02 1.130375799654517124e+02 1.094042800183730719e+02 1.057959017478246153e+02 1.022089091557104723e+02 9.866140678562619826e+01 9.519704933794493229e+01 9.195659574834529337e+01 9.495604529218849166e+01 9.499319797621841133e+01 9.530012101182970241e+01 9.571486337822524604e+01 9.642024205640288415e+01 9.691122848793774835e+01 9.720363504002533261e+01 9.740751623877589793e+01 9.756956665567105347e+01 9.770182110371153783e+01 9.786287732900782999e+01 9.805930460450937858e+01 9.832691276367491184e+01 9.824426258814089863e+01 9.720938457755343620e+01 9.500009598801185007e+01 9.235527099572503573e+01 8.915445567939453042e+01 9.220558382557062771e+01 9.511926287947007097e+01 9.788611675155081571e+01 1.004540293606376906e+02 1.028831567421513000e+02 1.052487754168127907e+02 1.076073179886093385e+02 1.100023413866998681e+02 1.123488247116623597e+02 1.147510524310124822e+02 1.166711002220810087e+02 1.193915785492369821e+02 1.227326755490668546e+02 1.261532275637267304e+02 1.296032429351059818e+02 1.330358271871567695e+02 1.367307416142531338e+02 1.400237682924392288e+02 1.430558703947774859e+02 1.457809516736119804e+02 1.481506870991633775e+02 1.500880116697269386e+02 1.514742346382639937e+02 1.520956668894069139e+02 1.517744953805805324e+02 1.505509167409449560e+02 1.486116956671910430e+02 1.461361012599845992e+02 1.432885107800871367e+02 1.400894507369016253e+02 1.366678021161382901e+02 1.330942502688257036e+02 1.294160751315118887e+02 1.256447617462628159e+02 1.219215255307808548e+02 1.181485677273415575e+02 1.142892742094370675e+02 1.103727794254180878e+02
1.306371213829175986e+02 1.339809434761054376e+02 1.372482915090581628e+02 1.404291567592024137e+02 1.435011183349338069e+02 1.464212353332042369e+02 1.491600441512910038e+02 1.516956130636845614e+02 1.539360103248503151e+02 1.557914351542655993e+02 1.575787648448959146e+02 1.591652503086465060e+02 1.604814256414857141e+02 1.614627132007004491e+02 1.620474954423240490e+02 1.621688601566927730e+02 1.618896217100345325e+02 1.611653345325468081e+02 1.600914731945582048e+02 1.586967513945338055e+02 1.570118405576971554e+02 1.550810692682011904e+02 1.529389878340791142e+02 1.506162856370534087e+02 1.481857509342094374e+02 1.454556896688532959e+02 1.432407751751618434e+02 1.417065203946620215e+02 1.397996008241404411e+02 1.377980902304133508e+02 1.357641411471894060e+02 1.336441397730289111e+02 1.313322582100366276e+02 1.343255011500595799e+02 1.370072594695109558e+02 1.394022343726181816e+02 1.414992385878094012e+02 1.432822765215746585e+02 1.447348911595152003e+02 1.457316975254341571e+02 1.461309196491919522e+02 1.461407746809058210e+02 1.465353581826942388e+02 1.466521598526934440e+02 1.462849260151093347e+02 1.452600160767971431e+02 1.437081304246054856e+02 1.416987935886158425e+02 1.392915855384261192e+02 1.365832690531830451e+02 1.336400449836348798e+02 1.305118191887117973e+02 1.272367656815560792e+02 1.238449409218561925e+02 1.203605021539354567e+02 1.168033428264925391e+02 1.131913527867643268e+02 1.095419058558822911e+02 1.058460091245835599e+02 1.020870153076958218e+02 9.825096246466316074e+01 9.433557929758357830e+01 9.031264846138914493e+01 9.230715580515004604e+01 9.215739425268168361e+01 9.245870788506822180e+01 9.283539856804191004e+01 9.385664925556532978e+01 9.443402801487347631e+01 9.471503607991709828e+01 9.491181274033512238e+01 9.506000123751613273e+01 9.516745645236829887e+01 9.529941329161603392e+01 9.547434434778644174e+01 9.574402006221102113e+01 9.567229864540658468e+01 9.464463942086074155e+01 9.226242595901987897e+01 8.938856006397817566e+01 8.748862903214599385e+01 9.062318336121201412e+01 9.366338046445974896e+01 9.634030164314262379e+01 9.872361515787392250e+01 1.010690581194998856e+02 1.033391469299499192e+02 1.057014106700678298e+02 1.082891956578024377e+02 1.102704060559737940e+02 1.130922459360215981e+02 1.170109546155368889e+02 1.206677042529008901e+02 1.243421092904980725e+02 1.277842134112488708e+02 1.311332879136859617e+02 1.344123949627485217e+02 1.372704914798253526e+02 1.402551790569238221e+02 1.433152750913341436e+02 1.459756589755132268e+02 1.482536202370020817e+02 1.500575963988582942e+02 1.512506900153353797e+02 1.515790745262631560e+02 1.509254375580455871e+02 1.494578564526367188e+02 1.472767907108706709e+02 1.445853428933863256e+02 1.415276273791397159e+02 1.382337294657475013e+02 1.346978738019096511e+02 1.310243975489000547e+02 1.272626027465663014e+02 1.234446614460902083e+02 1.195710236429863045e+02 1.157708539756396959e+02 1.119401185182845779e+02 1.080241918017598977e+02
1.304909526932976007e+02 1.337937810950020605e+02 1.369917842097438268e+02 1.400866797337402545e+02 1.430731259025168640e+02 1.458366666051981042e+02 1.483810155647407782e+02 1.506477617063933110e+02 1.526471126791923894e+02 1.546451774956452709e+02 1.564934878436872054e+02 1.581239651841499949e+02 1.594709950415680737e+02 1.604736398556212862e+02 1.610763335326686274e+02 1.612211242862797178e+02 1.610279664507226300e+02 1.604111895284704872e+02 1.594423456823226388e+02 1.582237396224568897e+02 1.566487698442854537e+02 1.548002158494198568e+02 1.527279573239964350e+02 1.504687933261176909e+02 1.480554832670825078e+02 1.454948940385706351e+02 1.428638592578937221e+02 1.399179708565505962e+02 1.381804844406706252e+02 1.360582604759364358e+02 1.340650390411369415e+02 1.321044990325303274e+02 1.298606059818586402e+02 1.328829750839346389e+02 1.355712332824289774e+02 1.379524451809322727e+02 1.400201755773142338e+02 1.417774483829199994e+02 1.431342238439632979e+02 1.440077212426380129e+02 1.442964985316490072e+02 1.442747495983128658e+02 1.447522212841190026e+02 1.450400242037278815e+02 1.449475090816287093e+02 1.442564195248968417e+02 1.429837983108146773e+02 1.412926888294018113e+02 1.390217604282174761e+02 1.364200546508753575e+02 1.335565003441883505e+02 1.304895414696930800e+02 1.272649612284276799e+02 1.239166711511953309e+02 1.204690040294413222e+02 1.169380791989410397e+02 1.133314270589852413e+02 1.096462816858961702e+02 1.058646374850684140e+02 1.019528171776704255e+02 9.785730249304178585e+01 9.349583990618998541e+01 8.865994715617365785e+01 8.927773374526309169e+01 8.915085531632676918e+01 8.954420057439459413e+01 8.971549239330883552e+01 9.188503084842814417e+01 9.197740492596925321e+01 9.219767117542870949e+01 9.238691455501421501e+01 9.251957734524489751e+01 9.259478968799999166e+01 9.268625262823961464e+01 9.282692334598564798e+01 9.308997721620005450e+01 9.303116197066401583e+01 9.201749517500569198e+01 8.930541999094724304e+01 8.493534869565111478e+01 8.807516797495048877e+01 9.073902098646456693e+01 9.243949004946884429e+01 9.452690593280286180e+01 9.674188055133383557e+01 9.920012836581072690e+01 1.009273946377308562e+02 1.035962605763475892e+02 1.066844988995708121e+02 1.112791675521527992e+02 1.153820478040209991e+02 1.191159497580987505e+02 1.227025508505616500e+02 1.261470186175001942e+02 1.294658316372535865e+02 1.326672760288859649e+02 1.357707042522181098e+02 1.387064791231745744e+02 1.414792784922618409e+02 1.439552469293508636e+02 1.463640434404581470e+02 1.485187899108173042e+02 1.501367647019623348e+02 1.510769792051601996e+02 1.510692932410941296e+02 1.500760150385505085e+02 1.482873318139088497e+02 1.458990155208073247e+02 1.429917548507134768e+02 1.397416794743061814e+02 1.362572694517789103e+02 1.326389063994888602e+02 1.288612576474538685e+02 1.250087584643515157e+02 1.211171294318147318e+02 1.172095737431165503e+02 1.132780545959950302e+02 1.094406864215704047e+02 1.055798228092687623e+02
1.299921154247861352e+02 1.331946266953419240e+02 1.362572196949377599e+02 1.391889707409967798e+02 1.418871910417279310e+02 1.444918443660412777e+02 1.468879787528437646e+02 1.490503843394812122e+02 1.512551849928059085e+02 1.533546117153886996e+02 1.552811027825173369e+02 1.569682854092580726e+02 1.583531125516904581e+02 1.593784932595533235e+02 1.599937588598649540e+02 1.601582764563161447e+02 1.600519430550862978e+02 1.595489017783874601e+02 1.586880224073827890e+02 1.575217134202583225e+02 1.561357586102308801e+02 1.543782264270845701e+02 1.523871959640612488e+02 1.501958438675051752e+02 1.478313348667977039e+02 1.453076945843172041e+02 1.426247559246419030e+02 1.397225758460504892e+02 1.365019841736044555e+02 1.341188729579767767e+02 1.319152879388620931e+02 1.305221806841666421e+02 1.284272121680178600e+02 1.314593295450779351e+02 1.341300740060262058e+02 1.364750691108235401e+02 1.385101864473142541e+02 1.401692543397674058e+02 1.414471823426067942e+02 1.421057019225802662e+02 1.423057725228529762e+02 1.422528377761159675e+02 1.427983092035767925e+02 1.432327569773525227e+02 1.433782946141151342e+02 1.430588451312007123e+02 1.420865358758773596e+02 1.405229771320661030e+02 1.384996755711596563e+02 1.360628439073311426e+02 1.333176224912945997e+02 1.303367043953648476e+02 1.271756334418523693e+02 1.238750298318466179e+02 1.204624430537995465e+02 1.169545675632347894e+02 1.133588245743306686e+02 1.096738763147563702e+02 1.058910430819569370e+02 1.019984591340419229e+02 9.798881825225315367e+01 9.387262941081884549e+01 8.970100370440222548e+01 8.553754615169481212e+01 8.599803397178592945e+01 8.665023529220286491e+01 8.686610555241594511e+01 8.917295531924125385e+01 8.938200865108242965e+01 8.962273239094162136e+01 8.982276891599154567e+01 8.994032829053882949e+01 8.997455566733127341e+01 9.001146209981394009e+01 9.010045494976009195e+01 9.034069680597683316e+01 9.029982476138319214e+01 8.939571213949287198e+01 8.690434089313410482e+01 8.323204546319335861e+01 8.650402574871216643e+01 8.823317297347401222e+01 9.053439505653777530e+01 9.198268107318321540e+01 9.449187498063275825e+01 9.743596321796491111e+01 1.022381542137218275e+02 1.064236297874413992e+02 1.100918125716391387e+02 1.138906194777452043e+02 1.176706087329498018e+02 1.212727852944409790e+02 1.247153566024537099e+02 1.280498080586366427e+02 1.312329070128027411e+02 1.342893423905055954e+02 1.372234201633719977e+02 1.400346161050684941e+02 1.426724873716163984e+02 1.450474956657078565e+02 1.472045671329861136e+02 1.489883331096540360e+02 1.503335363803491873e+02 1.509379175665887942e+02 1.505588769474175024e+02 1.492118819700038159e+02 1.471056032106807550e+02 1.444293137230254160e+02 1.413442397952080114e+02 1.378993932796482795e+02 1.342402253988078371e+02 1.304448295461320413e+02 1.265902923541959098e+02 1.226387470954424970e+02 1.186618567768570927e+02 1.146879058287278497e+02 1.107342753546681564e+02 1.067855880300965481e+02 1.029517048376907127e+02
1.286292119674048706e+02 1.316898795631352641e+02 1.346520719169844824e+02 1.374347362010814493e+02 1.401408900757504057e+02 1.426720557661429609e+02 1.450021005175951530e+02 1.474104714914666943e+02 1.497504299170054196e+02 1.519587336849698147e+02 1.539690647349424353e+02 1.557155559203501127e+02 1.571366258566157796e+02 1.581787937253136818e+02 1.587869276952603457e+02 1.589631752348364273e+02 1.589324793448964783e+02 1.585808510565435370e+02 1.578266549927836309e+02 1.567623932464336463e+02 1.553981572349028966e+02 1.537690924752001820e+02 1.518797719292962256e+02 1.497717126028959456e+02 1.474787245877371049e+02 1.450275070269251501e+02 1.424402486552269238e+02 1.397406765279312992e+02 1.369864866171073459e+02 1.343326112955145391e+02 1.316491416821314431e+02 1.287186557332609596e+02 1.270488167165946578e+02 1.300510619854836705e+02 1.326733867200521786e+02 1.349750753256945472e+02 1.369051161301293860e+02 1.384812855331933008e+02 1.395851671873481337e+02 1.400605595227732749e+02 1.401671616568772833e+02 1.400810748556099838e+02 1.406778483520899954e+02 1.412349664554240292e+02 1.416021559736763038e+02 1.415886032138511155e+02 1.410690509431270243e+02 1.398421786251140304e+02 1.381753981273008094e+02 1.358975159974403084e+02 1.332732406347178369e+02 1.303800962712149669e+02 1.272816024386023059e+02 1.240254207238384083e+02 1.206448289647577070e+02 1.171607493654781962e+02 1.135843846891415723e+02 1.099192496459563557e+02 1.061639483958290100e+02 1.023166518610683795e+02 9.838216989862709738e+01 9.438218531857330618e+01 9.036906659288779053e+01 8.644407952452270649e+01 8.275438468833431216e+01 8.381822280273938475e+01 8.403691221211248319e+01 8.648740085514317855e+01 8.671072468760800689e+01 8.699243196375748255e+01 8.721878032160439886e+01 8.732009958591771692e+01 8.730278101980690053e+01 8.726902606828595310e+01 8.728387078414216660e+01 8.747009070352085303e+01 8.741397528104299397e+01 8.653876102784418833e+01 8.407784762446480897e+01 8.178993404371644260e+01 8.370563506705138934e+01 8.599952510430668440e+01 8.868659005171167564e+01 9.356572067812967930e+01 9.774639238343054615e+01 1.013365923333560801e+02 1.051789722828466438e+02 1.090314065679007314e+02 1.127268243074743594e+02 1.163483262559668958e+02 1.199172155712177954e+02 1.233890261990052295e+02 1.267215965320911835e+02 1.299226295050554825e+02 1.330170117230798326e+02 1.359451129262597817e+02 1.387276019103649389e+02 1.413608041731375806e+02 1.438371002245107491e+02 1.460822365203099764e+02 1.480007127587091418e+02 1.495497152421873466e+02 1.505742232204336801e+02 1.507873483058714328e+02 1.500106161225611174e+02 1.483211750216066775e+02 1.458971328890216910e+02 1.429375255284851676e+02 1.395930108118553221e+02 1.359896560434683295e+02 1.321506542909132520e+02 1.281925462324566638e+02 1.241680597244904760e+02 1.201370317494459243e+02 1.160589582685028205e+02 1.120011584145445056e+02 1.079834694961893717e+02 1.040222388227397659e+02 1.001040012876800773e+02
1.267123786063261406e+02 1.297331416903199113e+02 1.325936278106176474e+02 1.353936435204322493e+02 1.380533664165513130e+02 1.405423847057934665e+02 1.431388735410398567e+02 1.457021029469398172e+02 1.481736808222041191e+02 1.504892878439067374e+02 1.525811838985696340e+02 1.543822090842007242e+02 1.558314701903653088e+02 1.568878382961833324e+02 1.574342334288594145e+02 1.576267191648068717e+02 1.576703132297624279e+02 1.574585118384703719e+02 1.568674456994874333e+02 1.559202958998167787e+02 1.547034543174228247e+02 1.532853402411094521e+02 1.515154532258681854e+02 1.494980172488868959e+02 1.472758519890612092e+02 1.448856236668098063e+02 1.423592658426590845e+02 1.397283921464798198e+02 1.370302316284675896e+02 1.343002920746738482e+02 1.315208876460630734e+02 1.286128286615781633e+02 1.256887669951451585e+02 1.286357412441245742e+02 1.311974256872407807e+02 1.333786750729761650e+02 1.352207546498425472e+02 1.366411815816134379e+02 1.375529281939215309e+02 1.378673023672280067e+02 1.378887618449995500e+02 1.377683100024543137e+02 1.383975383018267564e+02 1.390490389826413207e+02 1.396295103055504683e+02 1.399056880267841905e+02 1.397694962590727243e+02 1.389558093377522141e+02 1.374443374843299353e+02 1.354471195238314465e+02 1.330088101613406195e+02 1.302442662600598737e+02 1.272350986311084711e+02 1.240414260812445377e+02 1.207051055108046000e+02 1.172539158409466324e+02 1.137038893741357413e+02 1.100617928806310033e+02 1.063273111946279244e+02 1.024950767871312678e+02 9.855616960584335118e+01 9.449743831008173345e+01 9.029467946335991257e+01 8.589492605785491719e+01 8.111136271819117383e+01 8.112313452729871699e+01 8.121131325243922561e+01 8.377339120694209385e+01 8.396292177934341794e+01 8.431142525496801454e+01 8.458192612666692867e+01 8.466284086029936873e+01 8.458163817831015763e+01 8.446070974004855714e+01 8.437586083999035225e+01 8.446532003758292717e+01 8.434648681562738659e+01 8.349061671491342906e+01 7.987322862970630410e+01 8.375235156856709295e+01 8.702748975377566865e+01 8.980492399053497365e+01 9.294121262517170123e+01 9.666964719719004506e+01 1.004737562812681091e+02 1.041334702881130596e+02 1.077640297686472763e+02 1.113881209423350640e+02 1.149632213870686996e+02 1.184824186476092649e+02 1.219431723800493614e+02 1.253250677612178379e+02 1.285989883311878827e+02 1.317235471427097195e+02 1.347029276065836143e+02 1.375566871631984895e+02 1.402123110823081902e+02 1.426860770386162187e+02 1.449666569152674640e+02 1.470294842109948092e+02 1.487732782209792219e+02 1.500572119050271738e+02 1.507686966428499886e+02 1.506082544513630808e+02 1.494293087752118936e+02 1.473805496530838752e+02 1.446464160523337625e+02 1.414060606036274805e+02 1.378064489803031734e+02 1.339581509194507021e+02 1.299497601320583726e+02 1.258294296557767495e+02 1.216489697595842330e+02 1.174463607818189388e+02 1.132560301844970496e+02 1.090962487645853116e+02 1.049880183031151688e+02 1.009546045785180581e+02 9.702377165239263945e+01
1.244922954962406720e+02 1.274460861594442918e+02 1.303328173206673739e+02 1.331016294191526299e+02 1.357296261229735990e+02 1.384899268584055108e+02 1.412505645820403686e+02 1.439592093419874743e+02 1.465555236995540440e+02 1.489723795440598906e+02 1.511385413284735364e+02 1.529842550210737215e+02 1.544563305265948543e+02 1.554590837448843388e+02 1.559488454452818473e+02 1.561464706915787417e+02 1.562556019192368524e+02 1.561664143440984276e+02 1.557765382662398110e+02 1.549755403446914954e+02 1.538584893345882563e+02 1.524921487507482425e+02 1.509507115210229813e+02 1.490407316020418023e+02 1.468912290863823671e+02 1.445488549765208290e+02 1.420498126598448607e+02 1.394219989048118578e+02 1.366911326986099198e+02 1.338891804710384861e+02 1.311742696361076241e+02 1.279720244449654984e+02 1.243431085442585555e+02 1.272053525269793113e+02 1.296106013055296557e+02 1.316843830268415729e+02 1.333768170429747784e+02 1.346775561926220348e+02 1.353236601956782010e+02 1.355268422933051227e+02 1.354795315663089639e+02 1.353250575576358017e+02 1.359646427809268516e+02 1.366648290452754679e+02 1.374810867380597585e+02 1.380184602133611520e+02 1.382203803418376538e+02 1.378745853412772817e+02 1.367966444824131145e+02 1.351780156841616645e+02 1.329257405416994970e+02 1.303011594283659633e+02 1.273904147742953370e+02 1.242631484002509268e+02 1.209717438434358741e+02 1.175530246330013142e+02 1.140299766443025646e+02 1.104142432127448927e+02 1.067087011823662692e+02 1.029100375745355080e+02 9.901171508480643979e+01 9.500779379245435052e+01 9.089796828634527515e+01 8.669478478533994803e+01 8.243764279619038859e+01 7.814757369965964529e+01 7.835557440498577364e+01 8.100688562876095489e+01 8.111895969075479229e+01 8.158909305352977981e+01 8.192713971348673851e+01 8.197763845162693030e+01 8.181879891403649196e+01 8.159600268108233934e+01 8.138580147199452597e+01 8.132844917129006035e+01 8.107584768257571284e+01 8.039577290893613792e+01 7.856349518354227257e+01 8.374343269620850094e+01 8.809915515070014180e+01 9.200781583358418914e+01 9.554846127499349961e+01 9.908261826255008486e+01 1.026454828913142165e+02 1.061872938440457972e+02 1.097116213801318167e+02 1.132257739225388775e+02 1.167201506738600472e+02 1.201820183267466291e+02 1.235963872729594897e+02 1.269416914143468489e+02 1.301897141592585285e+02 1.333052461963184783e+02 1.362364605452023056e+02 1.389917190371391484e+02 1.415887728933471976e+02 1.439363609432268447e+02 1.460486262432236231e+02 1.479006300774383362e+02 1.494355806268033291e+02 1.505018198927537298e+02 1.508967093899361487e+02 1.504399892540832866e+02 1.491012576035358279e+02 1.470156498012756003e+02 1.443195848836355708e+02 1.411618375277221276e+02 1.376655272987539149e+02 1.339281179479561956e+02 1.300291426394151699e+02 1.260301436796168986e+02 1.219774080490569759e+02 1.179076846057439099e+02 1.138490481040854121e+02 1.098197373295701311e+02 1.058311067318623913e+02 1.018884630111904244e+02 9.799263263834311033e+01
