ncols 119
nrows 32
xllcorner 1740
yllcorner 590
cellsize 10.0
2.036499214703882785e+02 2.066440388276795659e+02 2.098243753023706972e+02 2.130471726256642455e+02 2.162989095693750699e+02 2.195789708848753889e+02 2.228875967771910496e+02 2.262246286727572908e+02 2.295894508552418642e+02 2.329808695811754831e+02 2.363969245871203952e+02 2.398347103856320075e+02 2.432902079487474225e+02 2.467582587690820333e+02 2.502315309525747580e+02 2.537681220856905497e+02 2.572014722344053439e+02 2.604963388535588820e+02 2.635682625022735692e+02 2.662965767966720136e+02 2.684961351770741658e+02 2.698041530576581408e+02 2.699874573085323277e+02 2.698845428655454839e+02 2.687791839722936515e+02 2.671261402246012722e+02 2.650986152919916208e+02 2.626392174574728529e+02 2.615207424626866555e+02 2.608255440149809488e+02 2.602619899094793823e+02 2.598286133936568376e+02 2.595414291284943715e+02 2.592604575944426983e+02 2.589171435497558491e+02 2.583105237535590391e+02 2.571423992400112866e+02 2.549555677566347072e+02 2.523257723581231460e+02 2.493513257256772704e+02 2.463913633535668737e+02 2.433618960783970522e+02 2.402869798752759323e+02 2.371854382329692328e+02 2.340722420247957416e+02 2.309591680065203150e+02 2.278553022199372720e+02 2.247673787212520153e+02 2.217000118674313853e+02 2.186558399449598653e+02 2.156355768699775695e+02 2.126379659997788849e+02 2.096597046165601057e+02 2.066957261235181420e+02 2.037407228152544860e+02 2.007819138729665553e+02 1.975099531732885509e+02 1.963544729442276946e+02 1.963665918868940707e+02 1.967728412133998290e+02 1.973764127527270773e+02 2.002209364489527843e+02 2.013886701265851968e+02 2.025978805752312439e+02 2.036251009882645064e+02 2.045237799376800467e+02 2.053173540205663414e+02 2.060125439206814519e+02 2.066076040119352797e+02 2.070974396441984595e+02 2.074761566023396142e+02 2.077378291136651569e+02 2.078775860504410957e+02 2.078977310484880547e+02 2.076294881004513684e+02 2.069052510620218470e+02 2.046943794084844797e+02 2.019644544237237369e+02 1.989057520762669071e+02 1.954933630216240488e+02 1.947100954769188093e+02 1.942844067377233159e+02 1.942458533925451434e+02 1.945378052059198808e+02 1.951531512453681501e+02 1.960871349718747751e+02 1.977016475578924428e+02 2.012864631696333504e+02 2.045413594520841798e+02 2.077299717379382571e+02 2.108934608529045533e+02 2.140474740155252391e+02 2.171997243039340901e+02 2.203537754865651266e+02 2.235103770912781158e+02 2.266678390557309797e+02 2.298479917183262273e+02 2.330163998916639798e+02 2.360726781769655815e+02 2.389414912669371631e+02 2.415306035542574818e+02 2.436874022149743269e+02 2.451375683505412155e+02 2.451387150876465739e+02 2.445909289283946180e+02 2.425757243311450679e+02 2.399262879812065989e+02 2.368764765492693982e+02 2.335648373914605997e+02 2.300843208129579125e+02 2.265029274841799349e+02 2.228736511684453490e+02 2.192389167541420250e+02 2.156676762237909486e+02 2.121307735842018758e+02 2.086315988066512261e+02 2.051760748735000277e+02 2.018497837710573322e+02 1.983768490827722530e+02
1.986741799523372549e+02 2.019387571514181161e+02 2.052436190095446875e+02 2.085740215382411407e+02 2.119306162426549633e+02 2.153150366559894167e+02 2.187280998401870136e+02 2.221703497847067581e+02 2.256423322617165184e+02 2.291445022079602722e+02 2.326769820836148028e+02 2.362393078147032099e+02 2.398303720437184552e+02 2.434473864994164956e+02 2.471496401679042947e+02 2.507897769088056918e+02 2.543456613056027322e+02 2.577549508562768779e+02 2.609325711120272331e+02 2.637534533997057338e+02 2.660208340356510348e+02 2.672968906971392471e+02 2.674587009683082215e+02 2.673509221425351257e+02 2.661951962894539179e+02 2.644821156423968773e+02 2.624159237228984125e+02 2.601945272853049005e+02 2.578258824698839931e+02 2.573910181895333835e+02 2.568420939594379888e+02 2.564231718062063123e+02 2.561659324835533766e+02 2.559464879091058833e+02 2.557011878397300393e+02 2.552428643977473257e+02 2.543275869883584903e+02 2.523644908934979867e+02 2.497440172418248778e+02 2.467749433086257795e+02 2.435395540031020118e+02 2.403612590138416181e+02 2.371485569630639816e+02 2.339194014711889622e+02 2.306877235451238164e+02 2.274644963546025735e+02 2.242580853564794268e+02 2.210745679251331239e+02 2.179179480931967419e+02 2.147903034538531415e+02 2.116918624888672866e+02 2.086209952787171744e+02 2.055741188555642225e+02 2.025456800549724505e+02 1.995291918889933527e+02 1.965260120588910127e+02 1.936368127653031195e+02 1.906325479599748292e+02 1.911061252961865478e+02 1.915885563882525560e+02 1.923357619875428952e+02 1.954213015241090829e+02 1.970661604177353752e+02 1.983791904553776817e+02 1.994100117761664137e+02 2.003259764445812436e+02 2.011444533081424026e+02 2.018674849594067098e+02 2.024906260025382494e+02 2.030077033166375600e+02 2.034133881738995626e+02 2.037031931967628680e+02 2.038733379825539203e+02 2.039274271971530368e+02 2.037093232491811818e+02 2.030717335044624292e+02 2.008560748747229638e+02 1.980787867520823795e+02 1.949165965531485369e+02 1.911591316393076738e+02 1.897340021157401679e+02 1.893297313411376308e+02 1.893073604134021082e+02 1.896073546360025261e+02 1.902254671361142471e+02 1.908974101991274779e+02 1.942384184794838404e+02 1.974805167656360823e+02 2.007665577650149089e+02 2.040301483738381307e+02 2.072798280193959783e+02 2.105264915760323845e+02 2.137780346891264287e+02 2.170396267033216304e+02 2.203140704086818289e+02 2.236262365942790780e+02 2.269495339677322647e+02 2.301971146495236837e+02 2.333133322261256524e+02 2.362324664069512608e+02 2.388531743297139940e+02 2.410157990955946445e+02 2.424254425643144657e+02 2.423119950856615787e+02 2.417053820275962721e+02 2.395735627314615783e+02 2.368148218299946848e+02 2.336574308635874218e+02 2.302358276975540718e+02 2.266399231964788612e+02 2.229355534954711118e+02 2.191739796939957898e+02 2.153970093195423772e+02 2.116392171415166956e+02 2.079617268206681047e+02 2.043382753095470150e+02 2.007772845477696251e+02 1.972787539375648294e+02 1.935018546428414652e+02
1.938090983902398250e+02 1.972530382067269841e+02 2.006716866682096736e+02 2.041066913544905503e+02 2.075681847992827329e+02 2.110584218053134862e+02 2.145783080262500562e+02 2.181290181798028982e+02 2.217122956324281233e+02 2.253302916797211708e+02 2.289852448722033103e+02 2.326793181300668039e+02 2.364134682700504300e+02 2.402471690166501617e+02 2.440489578604425844e+02 2.478060600023139841e+02 2.514717037552173622e+02 2.549844734930030370e+02 2.582579570866750487e+02 2.611614604015189798e+02 2.634858698750779809e+02 2.647271450429731772e+02 2.648864495816184217e+02 2.647873868815792093e+02 2.635889170654139093e+02 2.618188414079300514e+02 2.596709043602896259e+02 2.572608618260440494e+02 2.546131729792828366e+02 2.539334021850147565e+02 2.533514118163220417e+02 2.529344187573535692e+02 2.526977402686785013e+02 2.525332347881374062e+02 2.523845449330285078e+02 2.520755966921745426e+02 2.513971868425407763e+02 2.496314102041624210e+02 2.471380463345363694e+02 2.441423445184060199e+02 2.408858250703976296e+02 2.374292489335729783e+02 2.340641925156275533e+02 2.306948459353194210e+02 2.273341259375881123e+02 2.239917972377059812e+02 2.206753510213352172e+02 2.173901232028894697e+02 2.141394844318793389e+02 2.109249759118550003e+02 2.077464086992944203e+02 2.046018926021848188e+02 2.014877128940480588e+02 1.983978716450850470e+02 1.953227966115065328e+02 1.922455940845404427e+02 1.891305254129099183e+02 1.858461526864450377e+02 1.858293540829436949e+02 1.863127703745135761e+02 1.872667167357025164e+02 1.898028358519512437e+02 1.933300985641990337e+02 1.941696029458524038e+02 1.951631580616058841e+02 1.960928764323596170e+02 1.969361377464987868e+02 1.976878543711293332e+02 1.983395484052780375e+02 1.988833353047974697e+02 1.993146205407595346e+02 1.996306885831802731e+02 1.998291547725529540e+02 1.999149736439462117e+02 1.997425953936454164e+02 1.991821604641364445e+02 1.969684405300195635e+02 1.941658577204231335e+02 1.910113470624697527e+02 1.877830479232975449e+02 1.842938120196671434e+02 1.842736156068550883e+02 1.842818972564383841e+02 1.845878585474359852e+02 1.852056431736673687e+02 1.865317129410334189e+02 1.903013696663971643e+02 1.936970061448335514e+02 1.970475979450741590e+02 2.003820233456206097e+02 2.037126762676972760e+02 2.070497672670860538e+02 2.104016342093834453e+02 2.137746370132131517e+02 2.171959563205898576e+02 2.206452144388433965e+02 2.240460829179078530e+02 2.273566660573036700e+02 2.305280622735413090e+02 2.334882969539505098e+02 2.361331846714654432e+02 2.382955485557845066e+02 2.396592598806637398e+02 2.394170806221973180e+02 2.387498382048943597e+02 2.365039390893016957e+02 2.336430933548372764e+02 2.303881050447574523e+02 2.268684745023415132e+02 2.231707511752961182e+02 2.193583915537354301e+02 2.154809225942829300e+02 2.115786914513473107e+02 2.076857532509599764e+02 2.038312289695885227e+02 2.000711123497076755e+02 1.963858895697509297e+02 1.928043565476987453e+02 1.894686786108757133e+02
1.891182471760231465e+02 1.926239624234651444e+02 1.961322303547819672e+02 1.996692751881514312e+02 2.032369727931763919e+02 2.068350982278422521e+02 2.104643348107470047e+02 2.141266742334639446e+02 2.178252778692289269e+02 2.215641362888257788e+02 2.253478247496581162e+02 2.291802584889001650e+02 2.331206004591603573e+02 2.370504633134443964e+02 2.409639417745316905e+02 2.448255694575038319e+02 2.485901595143962481e+02 2.521963487937447610e+02 2.555546279900386821e+02 2.585264588816207834e+02 2.608970867304577723e+02 2.621161057128383050e+02 2.622869115778155447e+02 2.622098364316756260e+02 2.609800667455058374e+02 2.591636887758592138e+02 2.569536246889523454e+02 2.544399383259064962e+02 2.514651520393224189e+02 2.503664223056833862e+02 2.497973892946049261e+02 2.493795308883386781e+02 2.491524283783577403e+02 2.490351991411138783e+02 2.489828618637883721e+02 2.488236016774144446e+02 2.483507685892849679e+02 2.468720533567228301e+02 2.444293484738108759e+02 2.415103351231751390e+02 2.382040165726491239e+02 2.347072435008371656e+02 2.310646089894059969e+02 2.275410739068215946e+02 2.240390593772131922e+02 2.205673978139570863e+02 2.171323277224577168e+02 2.137383004662412134e+02 2.103879506197306739e+02 2.070822212847038486e+02 2.038204776254520141e+02 2.006006016822668983e+02 1.974189774977037075e+02 1.942701292696673079e+02 1.911452753114814413e+02 1.880267616815178826e+02 1.848606187087645765e+02 1.812568270829627579e+02 1.804165615188011600e+02 1.809025463665666393e+02 1.820905420549298981e+02 1.858572244312100850e+02 1.888273359614576350e+02 1.898564523956010817e+02 1.908849850293451880e+02 1.918392746983011250e+02 1.927099200913849018e+02 1.934926321225831600e+02 1.941741043449861763e+02 1.947441606390524100e+02 1.951994811335612496e+02 1.955397448744722624e+02 1.957643320519970871e+02 1.958793600084031823e+02 1.957484271029786669e+02 1.952563591127716620e+02 1.930464470837982844e+02 1.902155486248757086e+02 1.869962366509847129e+02 1.835117896718429904e+02 1.797141708969234344e+02 1.792101349750521138e+02 1.791979350820930676e+02 1.795004026815213081e+02 1.798012930603371444e+02 1.832228199245530789e+02 1.865799890557845515e+02 1.899933136242948990e+02 1.933977894179723194e+02 1.967996318263809599e+02 2.002094815357145876e+02 2.036375075801158232e+02 2.070926000956624478e+02 2.106035725804253502e+02 2.141550460050550839e+02 2.176791635538663456e+02 2.211440370375858606e+02 2.245121432683404521e+02 2.277299207885059218e+02 2.307241571225412713e+02 2.333873122101759634e+02 2.355438396258491593e+02 2.368533832581380523e+02 2.364660993917447911e+02 2.357269514789080347e+02 2.333698274004410962e+02 2.304166744415375661e+02 2.270762642781658371e+02 2.234717663315998664e+02 2.196860385965485989e+02 2.157801864839743473e+02 2.118020477752481838e+02 2.077906233987604026e+02 2.037785604836761877e+02 1.997938390319394273e+02 1.958606310492245939e+02 1.920294277783124528e+02 1.882851335118537577e+02 1.846609192937677619e+02
1.844997618447864340e+02 1.880358596056344425e+02 1.916391116422990990e+02 1.952829594867625076e+02 1.989598937754942938e+02 2.026681135403065070e+02 2.064088833456356440e+02 2.101855933938060446e+02 2.140031910715965751e+02 2.178678597904649621e+02 2.217857028947252331e+02 2.258153418304961235e+02 2.298490291414165938e+02 2.338860081698616966e+02 2.378992460668833360e+02 2.418550718140955667e+02 2.457089769165445432e+02 2.493976784920529894e+02 2.528255006206132123e+02 2.558512286730524750e+02 2.582668290738084238e+02 2.594797718303137231e+02 2.596700311064641937e+02 2.596204082156702952e+02 2.583812372006415217e+02 2.565278895569105089e+02 2.542810370568730036e+02 2.517654889462183405e+02 2.491532793414030778e+02 2.464654419001118129e+02 2.462015708471497817e+02 2.457751681393710044e+02 2.455413549526202246e+02 2.454617446792001374e+02 2.455089966153351213e+02 2.455146061287689179e+02 2.452113890815709851e+02 2.440898829760592434e+02 2.417174559618340481e+02 2.388075392155690508e+02 2.355419136511168858e+02 2.319790443079332647e+02 2.282820980626281084e+02 2.244839212945807105e+02 2.208272645857581722e+02 2.172144317328729244e+02 2.136508927427852598e+02 2.101398540425758767e+02 2.066830716643258370e+02 2.032807532979231269e+02 1.999316863886758142e+02 1.966333949303007103e+02 1.933823037232299669e+02 1.901737988492329521e+02 1.870019451004495750e+02 1.838585382409420674e+02 1.807347305608043087e+02 1.777059652842403921e+02 1.745574089212861679e+02 1.752997102700820165e+02 1.771772592488567000e+02 1.812297144434439531e+02 1.843885105342688178e+02 1.855195885007835841e+02 1.865954434468470993e+02 1.875793829759668370e+02 1.884797555897047516e+02 1.892972837804754533e+02 1.900106255479126673e+02 1.906064844124749413e+02 1.910839742025585508e+02 1.914461510906727995e+02 1.916945660301369969e+02 1.918362671613094790e+02 1.917427586531133272e+02 1.913109177002379511e+02 1.891057089921365559e+02 1.862512884277362275e+02 1.829903498236769224e+02 1.794268946164650913e+02 1.752619526597202082e+02 1.739935078859350028e+02 1.740682990446882457e+02 1.743977696314839534e+02 1.754795370097215823e+02 1.793956366870896204e+02 1.829012497824832053e+02 1.863654930220393737e+02 1.898250522139225609e+02 1.932939990707854747e+02 1.967839411751802174e+02 2.003055235756592367e+02 2.038886094517947356e+02 2.075218629024000734e+02 2.111444248069646505e+02 2.147319439706884339e+02 2.182550271209958908e+02 2.216724841906580536e+02 2.249302333471107715e+02 2.279535056091147851e+02 2.306310347499785962e+02 2.327778563856490734e+02 2.340245363178117657e+02 2.334679784499734012e+02 2.326150326131922839e+02 2.301594578984494888e+02 2.271330683262687558e+02 2.237248465348114621e+02 2.200513805236731741e+02 2.161925542035505146e+02 2.122077628561283120e+02 2.081436188285451294e+02 2.040380845264757568e+02 1.999227711886011036e+02 1.958240917549156848e+02 1.917636681581624316e+02 1.877573991345103934e+02 1.838411678275024883e+02 1.799875157567832673e+02
1.798287236340701440e+02 1.834917376639957354e+02 1.872119299462978859e+02 1.909697251207556690e+02 1.947585385128886628e+02 1.985780488140695468e+02 2.024315060156998527e+02 2.063244559482032514e+02 2.102641973148967054e+02 2.142584231104743537e+02 2.183651629037220516e+02 2.224852610687810568e+02 2.266218651899921497e+02 2.307543585809054605e+02 2.348574875449262436e+02 2.388984844446892737e+02 2.428315086921040802e+02 2.465877829615571386e+02 2.500692387421582907e+02 2.531429848320386213e+02 2.556026444583536374e+02 2.568331930613739473e+02 2.570470914943313687e+02 2.570284035862372889e+02 2.557874086204928687e+02 2.539136369427036755e+02 2.516293096609632869e+02 2.490532570726487052e+02 2.462535673564201772e+02 2.432360603192866222e+02 2.426524924635826039e+02 2.421380723882059840e+02 2.418711175405226186e+02 2.418167497028602213e+02 2.419676186050114950e+02 2.421736887293490668e+02 2.420695792023811066e+02 2.411993029889798663e+02 2.390160951533540299e+02 2.361185706290339112e+02 2.328326931181114503e+02 2.292845794842687042e+02 2.255100320032902914e+02 2.216471810581030013e+02 2.177203818465473262e+02 2.139536805926554450e+02 2.102502711087665830e+02 2.066127729318904755e+02 2.030417179779247192e+02 1.995364214284602156e+02 1.960948849414025688e+02 1.927139943266861337e+02 1.893898118784020141e+02 1.861179935452072129e+02 1.828943851941273238e+02 1.797160431723750094e+02 1.765829165459643662e+02 1.734844619364425569e+02 1.699909462225642471e+02 1.692998407657611608e+02 1.733147389659472708e+02 1.767670242935151919e+02 1.799826592860830203e+02 1.811917252080745868e+02 1.823124713138215043e+02 1.833250603262088134e+02 1.842560622237580787e+02 1.851145296877512578e+02 1.858628674632972775e+02 1.864837534789750748e+02 1.869810671530249522e+02 1.873626509685843189e+02 1.876326066032621895e+02 1.877986639331541880e+02 1.877390791528650027e+02 1.873600998461031963e+02 1.851589330474379267e+02 1.822820212277422058e+02 1.789933670228172389e+02 1.754650652792578001e+02 1.719665496619692533e+02 1.683051726130135535e+02 1.689221402958830822e+02 1.689436313491167709e+02 1.723932243345849145e+02 1.758216680570781421e+02 1.793198222333859064e+02 1.828222252458229491e+02 1.863362769122869906e+02 1.898737768861341237e+02 1.934465897245363237e+02 1.970852758896794512e+02 2.007818558927944252e+02 2.044813891779376434e+02 2.081653651658215551e+02 2.118104720165663366e+02 2.153842914184278357e+02 2.188454198907068076e+02 2.221390802799755306e+02 2.251889737501351476e+02 2.278804007342488376e+02 2.300193184251351397e+02 2.312037426089694634e+02 2.304300597747983090e+02 2.293115211567828453e+02 2.268426596454703201e+02 2.237849650932562326e+02 2.203349083829241124e+02 2.166116174727051771e+02 2.126957346927687809e+02 2.086466705224488862e+02 2.045106953415609041e+02 2.003252948727729859e+02 1.961215885129588514e+02 1.919255021545416184e+02 1.877576983373101314e+02 1.836314448700369155e+02 1.795444025348345463e+02 1.754856255802768885e+02
1.752206706812342532e+02 1.790309402084084809e+02 1.828779002261077267e+02 1.867524471530753942e+02 1.906528887054994925e+02 1.945826676861522628e+02 1.985482687425464974e+02 2.025581988480005577e+02 2.066215421814389970e+02 2.107959062824725720e+02 2.149891689669163668e+02 2.192074883561633385e+02 2.234352263753362422e+02 2.276534508062533746e+02 2.318378196547069479e+02 2.359544857639580755e+02 2.399523963114920093e+02 2.437598658166616588e+02 2.472864080696207907e+02 2.504026512433298421e+02 2.528820772552128915e+02 2.542004553794190258e+02 2.544300229136389930e+02 2.544352499680460369e+02 2.531987634482435396e+02 2.513154030193975643e+02 2.490143727499422823e+02 2.464065347093916785e+02 2.435221501644619480e+02 2.401187760454149611e+02 2.390384919332024651e+02 2.384600330609928562e+02 2.381409690121368499e+02 2.380976740852215130e+02 2.383536478310293489e+02 2.388236998340487389e+02 2.389453653930145833e+02 2.383010406465593007e+02 2.362475905245636625e+02 2.334597705895189108e+02 2.301483944884026869e+02 2.265603323361981154e+02 2.227815727774661809e+02 2.188331072257722667e+02 2.148342307371201230e+02 2.108030640992904807e+02 2.069476860098823181e+02 2.031727665377452752e+02 1.994784165673684697e+02 1.958627233429686498e+02 1.923227054209302480e+02 1.888542710204354762e+02 1.854525549319081961e+02 1.821124817607840214e+02 1.788297358626078619e+02 1.756025954944682894e+02 1.724361132000925920e+02 1.693555801683415041e+02 1.665129513974106032e+02 1.637518071591613875e+02 1.683534545102117477e+02 1.722242883721008866e+02 1.756060206941949673e+02 1.768912762279948652e+02 1.780495150337306143e+02 1.790846431111944526e+02 1.800450833579076004e+02 1.809551296942043450e+02 1.817427591949060854e+02 1.823869881600013230e+02 1.829010285232187698e+02 1.832992996541568687e+02 1.835886408345339760e+02 1.837771752025005583e+02 1.837489229268647364e+02 1.834169084362029594e+02 1.812186574698617960e+02 1.783148704999115921e+02 1.749787106613589742e+02 1.713741891467303162e+02 1.676258636491974698e+02 1.636665294643386801e+02 1.639328347106040837e+02 1.647668155375800154e+02 1.687357769763492001e+02 1.722867268242011676e+02 1.758191788047970761e+02 1.793649618604190437e+02 1.829361240970684435e+02 1.865452512476565516e+02 1.902235529489085195e+02 1.939660877349031693e+02 1.977231306482805735e+02 2.014808464251461260e+02 2.052206602530113173e+02 2.089166554643778966e+02 2.125362771338075731e+02 2.160377470183276216e+02 2.193656394042287161e+02 2.224426515414845085e+02 2.251526039134675727e+02 2.272998062173787446e+02 2.284694278096265236e+02 2.279667566918417663e+02 2.253356071172408122e+02 2.234216054613008851e+02 2.203757644512490685e+02 2.169118430835910090e+02 2.131580375748743563e+02 2.092009840118660975e+02 2.051018655131141486e+02 2.009075278026578530e+02 1.966554613247345742e+02 1.923767114546177481e+02 1.880974769336557415e+02 1.838397554306994834e+02 1.796206049875613076e+02 1.754469771631290200e+02 1.712851961620995382e+02
1.707366260978906496e+02 1.746923182308295281e+02 1.786648347583520717e+02 1.826524131967491087e+02 1.866598608167341524e+02 1.906958988403310400e+02 1.947711709356522363e+02 1.988965522327468989e+02 2.031296779157698325e+02 2.073844974756857766e+02 2.116696131320940424e+02 2.159734211782286195e+02 2.202819608697619458e+02 2.245771901156818728e+02 2.288337791934472421e+02 2.330127523100758822e+02 2.370594033197652948e+02 2.409082238272704899e+02 2.444721449849699013e+02 2.476034305185775963e+02 2.500923473961406671e+02 2.515974985297147555e+02 2.518315932788754594e+02 2.518405931643737290e+02 2.506067270512355663e+02 2.487223554020663414e+02 2.464234207471302511e+02 2.438315860772318899e+02 2.410195193481702063e+02 2.381014457131653330e+02 2.351130888290576308e+02 2.347461187572319545e+02 2.343467206489385148e+02 2.342947639185457263e+02 2.346402321950657779e+02 2.355028030467971121e+02 2.358718180956674360e+02 2.354226785025591369e+02 2.334892037133326710e+02 2.307555949460493707e+02 2.275058256590171197e+02 2.238679625858511884e+02 2.200358964070248931e+02 2.160691008610108668e+02 2.119791503016507477e+02 2.078708750041456028e+02 2.037576664890218012e+02 1.998337795619801796e+02 1.960056627819957100e+02 1.922710996490018545e+02 1.886257973708153770e+02 1.850644260193812158e+02 1.815806715331194710e+02 1.781677817357665958e+02 1.748195186101986849e+02 1.715318137379043151e+02 1.683057889694271410e+02 1.651538142898948252e+02 1.621090886339993915e+02 1.590094318282949928e+02 1.637150119288239978e+02 1.677687547124759817e+02 1.712888918664966127e+02 1.726343870079610667e+02 1.738163081139165911e+02 1.748624041797473012e+02 1.758472795095471781e+02 1.768292860894841283e+02 1.776612493033678675e+02 1.783250009847349986e+02 1.788515708254280128e+02 1.792636623611277287e+02 1.795705081704696227e+02 1.797802496689729139e+02 1.797820739692431005e+02 1.794936032790386946e+02 1.772992588027549061e+02 1.743671405313831713e+02 1.709773555809471475e+02 1.672872628383492213e+02 1.633912051268239907e+02 1.592045673375462798e+02 1.586235672459078216e+02 1.619274962695497493e+02 1.653077795163740973e+02 1.688384044597191007e+02 1.724037578126375649e+02 1.759964376323547413e+02 1.796277665994678614e+02 1.833300569764537613e+02 1.871016535635476146e+02 1.908978018225833466e+02 1.947086229938776398e+02 1.985193950916970209e+02 2.023092105286304445e+02 2.060519744689605943e+02 2.097148052414709696e+02 2.132554720922712193e+02 2.166180089366072252e+02 2.197246311478164102e+02 2.224588975785786999e+02 2.246798327362683381e+02 2.256629945504809882e+02 2.250788165806538927e+02 2.227988428227380382e+02 2.194649425294799414e+02 2.169307392920247821e+02 2.134654191974880177e+02 2.096982620857376105e+02 2.057140073670942968e+02 2.015779990382660003e+02 1.973378435858986393e+02 1.930312649389376816e+02 1.886892264369964494e+02 1.843381138810794369e+02 1.800012663288932515e+02 1.757005890501534680e+02 1.714598790536810213e+02 1.673193343003199516e+02
1.664168640544285154e+02 1.705093067167446748e+02 1.745967813375257549e+02 1.786862314314194293e+02 1.827912543759927360e+02 1.869267420498460694e+02 1.911064792614204748e+02 1.953888128812144771e+02 1.996933452628003351e+02 2.040308090022117256e+02 2.083931280916931712e+02 2.127706327935943875e+02 2.171504578683114346e+02 2.215137773077577492e+02 2.258302456640691105e+02 2.300565292283002918e+02 2.341425869781763538e+02 2.380256162616774702e+02 2.416014510113270433e+02 2.447336009727036128e+02 2.472931990311731738e+02 2.490072339492457445e+02 2.492566581651021522e+02 2.492384460267783481e+02 2.479956523492521399e+02 2.461120317059077536e+02 2.438234404154803201e+02 2.412564308271265361e+02 2.384814485715473324e+02 2.355075496662358887e+02 2.320137863806468772e+02 2.310550305061990173e+02 2.304794993880607876e+02 2.303946087348817287e+02 2.307408156863072861e+02 2.323975002184225502e+02 2.328897358070369989e+02 2.325894936296721198e+02 2.307609394442272617e+02 2.280678490344847091e+02 2.248312112273039816e+02 2.212241021035950723e+02 2.173261267479616663e+02 2.132966206688997772e+02 2.091776119175665940e+02 2.049747069182414521e+02 2.007813418368159262e+02 1.966071728396485980e+02 1.926343082732905145e+02 1.887710513223975397e+02 1.850128321647000291e+02 1.813527760843120404e+02 1.777828100892146495e+02 1.742938479764768829e+02 1.708765969816200823e+02 1.675228546885693959e+02 1.642272958157841174e+02 1.609890991787704024e+02 1.578095752864636552e+02 1.545195498057637735e+02 1.592815819423006758e+02 1.634386940866073985e+02 1.670544538878439482e+02 1.684326861314172845e+02 1.696190204552914054e+02 1.706580270253588196e+02 1.716520178195420385e+02 1.727505047003422476e+02 1.736294964198608852e+02 1.743043275336234217e+02 1.748378308946409732e+02 1.752609303684374424e+02 1.755838295749109932e+02 1.758141692550745461e+02 1.758464676484303482e+02 1.756014227020596650e+02 1.734156092915749809e+02 1.704578656995682024e+02 1.670169540497166736e+02 1.632534226574215950e+02 1.592667208779146790e+02 1.550041521559978719e+02 1.546806345524880726e+02 1.583060804991570478e+02 1.618749849598536343e+02 1.654683937058816241e+02 1.690769796304662123e+02 1.727181279705476413e+02 1.764290253708161345e+02 1.802127698410195080e+02 1.840299104979159779e+02 1.878742243194710113e+02 1.917343077689017434e+02 1.955932540229660788e+02 1.994298624337137085e+02 2.032176363596902888e+02 2.069232188854483923e+02 2.105038747417724778e+02 2.139032306772709831e+02 2.170430482156358210e+02 2.198498349481208436e+02 2.220652166740054838e+02 2.228173674500758068e+02 2.221958472353673244e+02 2.198730982737321824e+02 2.168231270643533435e+02 2.130074372706024235e+02 2.100154377077648178e+02 2.062383235406176993e+02 2.022404372012247791e+02 1.980790756777868182e+02 1.938048002083684480e+02 1.894551148330285457e+02 1.850606623075881600e+02 1.806472879784339227e+02 1.762381122184669380e+02 1.718557758928338330e+02 1.675260285309099970e+02 1.632850074914536265e+02
1.622989566120945426e+02 1.665102179347327080e+02 1.706895206488959786e+02 1.748621941855656132e+02 1.790519930271578346e+02 1.832775629479254746e+02 1.875986110565428930e+02 1.919401272796611977e+02 1.963145992148184860e+02 2.007171606999695257e+02 2.051422607069321487e+02 2.095819975423913206e+02 2.140233770436015277e+02 2.184430483995109569e+02 2.228059633323706237e+02 2.270721608946226695e+02 2.311934109019027801e+02 2.350907967385420534e+02 2.386691097473714080e+02 2.418610283850549081e+02 2.445371628048204684e+02 2.464180204413922013e+02 2.467058736331452735e+02 2.466031930063962818e+02 2.453413638386832361e+02 2.434564647722164068e+02 2.411797429726908604e+02 2.386423987420472201e+02 2.359307207366981061e+02 2.331078733847697322e+02 2.302529807601910363e+02 2.270962590984196368e+02 2.265024945423828058e+02 2.263918777748466766e+02 2.270368986418232566e+02 2.286439949160780998e+02 2.300982474548953007e+02 2.298055533372896662e+02 2.280767149522866646e+02 2.254109505226206238e+02 2.221762456819537590e+02 2.185574268850310773e+02 2.146686009998113036e+02 2.105617680559275584e+02 2.063730404855024574e+02 2.021327632877910219e+02 1.978427220180638528e+02 1.935871571160267592e+02 1.893726370488923010e+02 1.853703772504849496e+02 1.814903709859748915e+02 1.777253561113741114e+02 1.740652638681099802e+02 1.704983891720727343e+02 1.670117842835541069e+02 1.635923946977873698e+02 1.602285034900706933e+02 1.569104974869659941e+02 1.536281769812398466e+02 1.502188958679006134e+02 1.550251966879085614e+02 1.592394978204141580e+02 1.629117862885728414e+02 1.642920976031584530e+02 1.654608350687192626e+02 1.664662781118530575e+02 1.674153573948516964e+02 1.687451040496935093e+02 1.696611486392352504e+02 1.703286684868793088e+02 1.708622344211765096e+02 1.712940409267989708e+02 1.716321389980699905e+02 1.718831900510564594e+02 1.719476448278276166e+02 1.717499570200047003e+02 1.695819023662153313e+02 1.666050070567879970e+02 1.631176231849544536e+02 1.592855381559792534e+02 1.552257945387592883e+02 1.509269611992648095e+02 1.510373334586261365e+02 1.548767324372513770e+02 1.585696644754913791e+02 1.622011434685579161e+02 1.658405250473789465e+02 1.695437740396780271e+02 1.733219632922497055e+02 1.771415552262297126e+02 1.809998863084998391e+02 1.848885868635487668e+02 1.887940895077507548e+02 1.926990252117797127e+02 1.965816397536689522e+02 2.004148278116537938e+02 2.041646102646998884e+02 2.077877287416760339e+02 2.112271052827550761e+02 2.144410116062332463e+02 2.172572305928381695e+02 2.194285018184812373e+02 2.200118194702329788e+02 2.193480611756060625e+02 2.169476327777560982e+02 2.138402613985035430e+02 2.102828162180222478e+02 2.061311309230111419e+02 2.027940865809812294e+02 1.987826413628771434e+02 1.946083143624306331e+02 1.903104644547280486e+02 1.859288171723116250e+02 1.814929022401257441e+02 1.770273573897477206e+02 1.725535337271614935e+02 1.680918982454677746e+02 1.636648645882645212e+02 1.592995280005972631e+02
1.584298086064504503e+02 1.627085894444375640e+02 1.669428258472483719e+02 1.711775331306412511e+02 1.754388606855608259e+02 1.797876992147807016e+02 1.841534416365195739e+02 1.885492076702754218e+02 1.929726077557791655e+02 1.974220880658949682e+02 2.018951137899506705e+02 2.063850326289090162e+02 2.108755411158686286e+02 2.153389300425118336e+02 2.197427322318016536e+02 2.240479863770815143e+02 2.281909108479216002e+02 2.321002475234984956e+02 2.357421966151765673e+02 2.390425513583338102e+02 2.418404881040614782e+02 2.438486040176197491e+02 2.442050613600094948e+02 2.438478582760118343e+02 2.426132782392451190e+02 2.407248986580957535e+02 2.384585669056098993e+02 2.359431153705757538e+02 2.332739754811717319e+02 2.305302786440905152e+02 2.277916499365270511e+02 2.251580710845288706e+02 2.222775417482297087e+02 2.221954679488671616e+02 2.233450953188993253e+02 2.257350647049963754e+02 2.270816036653560275e+02 2.270241642254169960e+02 2.254462270211198529e+02 2.227971558257755191e+02 2.195543224353603478e+02 2.159133511940974017e+02 2.119950012308819112e+02 2.078805250789723118e+02 2.036056587104087043e+02 1.992901170393854500e+02 1.949562161008450971e+02 1.906032851690766563e+02 1.863079864423504830e+02 1.820741699109411513e+02 1.780629457062849497e+02 1.741855207907217959e+02 1.704311564958614156e+02 1.667854346038869835e+02 1.632315602676129629e+02 1.597512107090612972e+02 1.563263120655118712e+02 1.529406436910864215e+02 1.495793725596876982e+02 1.460832074564560514e+02 1.509208511253278004e+02 1.551655907364126676e+02 1.588615694085951020e+02 1.602137725602210310e+02 1.613441907373515676e+02 1.622840343318878524e+02 1.629537382474129572e+02 1.651264430358310165e+02 1.657763215981838698e+02 1.663972940708915758e+02 1.669243722112228170e+02 1.673639071783812824e+02 1.677170466640014581e+02 1.679893104484725654e+02 1.680884326662950343e+02 1.679463427038739667e+02 1.658108786237220897e+02 1.628256948437993117e+02 1.593002165154737497e+02 1.553991726813053447e+02 1.512363001918638190e+02 1.468552788729040799e+02 1.476393342759475331e+02 1.517733822914302664e+02 1.554138075486806088e+02 1.590250140289604133e+02 1.626983919197991497e+02 1.664510247237244585e+02 1.702534908450652154e+02 1.741058794493817743e+02 1.780025574625020965e+02 1.819329177967881606e+02 1.858827659682354749e+02 1.898340076015396392e+02 1.937640913329368288e+02 1.976450914939275947e+02 2.014423020307017964e+02 2.051114816832783845e+02 2.086275328448725759e+02 2.118614157669081237e+02 2.146655319040162624e+02 2.168007093815413100e+02 2.172479960386360460e+02 2.165265617382892174e+02 2.140430039864692162e+02 2.108699680559935530e+02 2.072595800068269227e+02 2.033460234424119619e+02 1.989542620360912508e+02 1.953533956581150903e+02 1.911649212765674690e+02 1.868556417077443257e+02 1.824525887099881061e+02 1.779869232782774588e+02 1.734811851596785459e+02 1.689540421719668473e+02 1.644219637078269614e+02 1.599024290626655329e+02 1.554167608940657601e+02
1.548130091245731137e+02 1.590781080903680902e+02 1.633366636981148474e+02 1.676195363646197336e+02 1.719852334025943605e+02 1.763644456208560030e+02 1.807680265667152923e+02 1.851938934317851135e+02 1.896435927401277297e+02 1.941204377266541599e+02 1.986254678858787770e+02 2.031509370674175159e+02 2.076774465482198764e+02 2.121797171152938972e+02 2.166257263474257400e+02 2.209613010014366807e+02 2.251292059837047077e+02 2.291133244969544194e+02 2.328677389078008275e+02 2.362854427518117859e+02 2.392027917541588522e+02 2.413172313063790000e+02 2.420161651707073247e+02 2.407019621631807809e+02 2.398103668099020638e+02 2.378846435116113867e+02 2.356353210190112293e+02 2.331332819183349443e+02 2.304826933738872015e+02 2.277687205408661555e+02 2.250662643559827529e+02 2.224444744621454788e+02 2.200020730777686424e+02 2.175339494850476285e+02 2.205314737531454625e+02 2.226608707103240192e+02 2.241415817634915584e+02 2.242746482054529622e+02 2.228965930916610318e+02 2.202433204223540031e+02 2.169790097622071698e+02 2.133050941872793089e+02 2.093461811637666017e+02 2.051875624238368232e+02 2.008909105225184533e+02 1.964819029065201903e+02 1.920681630903278290e+02 1.876664328048204879e+02 1.832745171930540380e+02 1.789626691225093680e+02 1.747320670609862532e+02 1.707339523637859884e+02 1.668798843328951023e+02 1.631543145194823978e+02 1.595366833839726155e+02 1.560031184739683283e+02 1.525284507538355570e+02 1.490894855162804618e+02 1.456672426434855936e+02 1.421036575968052489e+02 1.469577304531954383e+02 1.512089525502734659e+02 1.548986222008111611e+02 1.561951529547756650e+02 1.572750895842155217e+02 1.581421043286819668e+02 1.586671626784762452e+02 1.616513143682095404e+02 1.619482131627237322e+02 1.625001076079874167e+02 1.630212272378041121e+02 1.634698888254782219e+02 1.638385547781005300e+02 1.641323782519343695e+02 1.642682358385950749e+02 1.641938250010281024e+02 1.621131702609175136e+02 1.591345200661414765e+02 1.555874469546296552e+02 1.516350167150076516e+02 1.473605769667178151e+02 1.425875280501759619e+02 1.455627513766449965e+02 1.488190309405425182e+02 1.523091443011396677e+02 1.559161175840874591e+02 1.596201021624777070e+02 1.633852381809855103e+02 1.672114269813687883e+02 1.710951402075345698e+02 1.750286409489362427e+02 1.790007220812846072e+02 1.829963899686187290e+02 1.869965848070471566e+02 1.909777077701364476e+02 1.949108559342849389e+02 1.987600524835418980e+02 2.025096176736394398e+02 2.060550399756422735e+02 2.092964222751782870e+02 2.120966238275690046e+02 2.141931805720342368e+02 2.145116719905714149e+02 2.137160046232390584e+02 2.111495491668595150e+02 2.079150887486781869e+02 2.042544469042401829e+02 2.002978360597544452e+02 1.961273284267330723e+02 1.915623932220800327e+02 1.877585536412651379e+02 1.834364721273340706e+02 1.790245528510932331e+02 1.745408765817077779e+02 1.700091348905724828e+02 1.654446791135885633e+02 1.608587476374031269e+02 1.562611870705137562e+02 1.516669493327868565e+02
1.513227938325092907e+02 1.555608131093821385e+02 1.598434692435708087e+02 1.642149680314810496e+02 1.686013041496478024e+02 1.730057167768259774e+02 1.774214700933084146e+02 1.818500862413956725e+02 1.863005359807602588e+02 1.907835245719581678e+02 1.953026377245151650e+02 1.998495106282044560e+02 2.044076883527569350e+02 2.089517952316681715e+02 2.134346647632308134e+02 2.178077108555737311e+02 2.220637001214000179e+02 2.261705095058746338e+02 2.300486066502548397e+02 2.335876479218182453e+02 2.366024882158016851e+02 2.387911826166774745e+02 2.394409885670377491e+02 2.386712720672068997e+02 2.363945905316005849e+02 2.349792326088944208e+02 2.327007410322559622e+02 2.302068878968129866e+02 2.275568429317692107e+02 2.248429277063627012e+02 2.221400829167851896e+02 2.194972341210233253e+02 2.169142803596389797e+02 2.141738442893698959e+02 2.172732116151476589e+02 2.196386534652236264e+02 2.212740931667240432e+02 2.215513437566537220e+02 2.204558899857397307e+02 2.177773594830586603e+02 2.144678808890652135e+02 2.107466585835757087e+02 2.067351159675446581e+02 2.025200226287156795e+02 1.981660884443711552e+02 1.937226780788593601e+02 1.892090523306800094e+02 1.847237248649485934e+02 1.802796458001198801e+02 1.758736990653742964e+02 1.715704009515635562e+02 1.673678991547859880e+02 1.634072544565462408e+02 1.595991370852053706e+02 1.559212276384224936e+02 1.523442424781616751e+02 1.488347239586528588e+02 1.453598795851331147e+02 1.418938601330345648e+02 1.382778337654653171e+02 1.431276426199428897e+02 1.473582701609618937e+02 1.510113847069031010e+02 1.522292602716772194e+02 1.532581826846253819e+02 1.540800196211511945e+02 1.545870558272997926e+02 1.574987966011389915e+02 1.580387413589740788e+02 1.586170814242766767e+02 1.591489088864492771e+02 1.596105768741503823e+02 1.599955315981382853e+02 1.603104664946781668e+02 1.604822597656419418e+02 1.604878968932123371e+02 1.584992479926156363e+02 1.555398249737008882e+02 1.519913396759270938e+02 1.480251310869338965e+02 1.437325013196098098e+02 1.389941465513849153e+02 1.423295292806426460e+02 1.456862155044638030e+02 1.492044311909925227e+02 1.528422950208587849e+02 1.565531813106208858e+02 1.603345661350742262e+02 1.641847731318095214e+02 1.680994504404563941e+02 1.720708806077886095e+02 1.760872727391231365e+02 1.801326213630903510e+02 1.841866198783192203e+02 1.882244205035943878e+02 1.922155422757032284e+02 1.961498556324129083e+02 1.999381828940815637e+02 2.035069869837554961e+02 2.067651569184920675e+02 2.095631740528475575e+02 2.116169596726942359e+02 2.117878437350621255e+02 2.108571177327419548e+02 2.082392944329558873e+02 2.049624704576399097e+02 2.012626782729577712e+02 1.972707872547252066e+02 1.930674325266570293e+02 1.887089742357503610e+02 1.840190587006076441e+02 1.800591089725584766e+02 1.756373216218368611e+02 1.711491344299211903e+02 1.666058165617871225e+02 1.620238806623351309e+02 1.574096544587442850e+02 1.527617706061301419e+02 1.480779999854888445e+02
1.478625013848584615e+02 1.521209197138144020e+02 1.564873943192330330e+02 1.608805872433221964e+02 1.652902145503657323e+02 1.696963753119763396e+02 1.740922087013913142e+02 1.784894502696218126e+02 1.829117048806416221e+02 1.873782465999786950e+02 1.918961779370830243e+02 1.964621569152511711e+02 2.010589480190784286e+02 2.056448152700138507e+02 2.101764512903979778e+02 2.146502181240246330e+02 2.190397978860502519e+02 2.232805206493933099e+02 2.272912140833035437e+02 2.309462423746773823e+02 2.340570953327563188e+02 2.363173946072389242e+02 2.370352493668546288e+02 2.359996046848936828e+02 2.342979733596360745e+02 2.315249550513730412e+02 2.297097331941674270e+02 2.271720738259071197e+02 2.245094202083357686e+02 2.217736374685578937e+02 2.190510469326218583e+02 2.164043533986967418e+02 2.138219564303185507e+02 2.110451004829422459e+02 2.142327085127610644e+02 2.167402222527973095e+02 2.185175641576088026e+02 2.189456933777939298e+02 2.179994961370031206e+02 2.154325644394574795e+02 2.120526860833640228e+02 2.082571491402537731e+02 2.041762190481726975e+02 1.998903770444038628e+02 1.954649491210705037e+02 1.909517594168075902e+02 1.863920972840724914e+02 1.818012324585206159e+02 1.772708315639295904e+02 1.728112709818186374e+02 1.684186403256910580e+02 1.641518284180740181e+02 1.600053005016074223e+02 1.561093066408219840e+02 1.523720617651105442e+02 1.487616908239661200e+02 1.452362357070770145e+02 1.417490412308541181e+02 1.382604647342992337e+02 1.346072316943325120e+02 1.394213348608991510e+02 1.435933685841264378e+02 1.471778648725730250e+02 1.483035265865833026e+02 1.492871791409895366e+02 1.500793025122272297e+02 1.505731045050965520e+02 1.535159978326839507e+02 1.541433603306496707e+02 1.547566590257866324e+02 1.553071082991428682e+02 1.557846459405263886e+02 1.561862601014258587e+02 1.565207657229991014e+02 1.567215101404961217e+02 1.567982840181215920e+02 1.549949771013356212e+02 1.520416195083404034e+02 1.485048557435411567e+02 1.445510534584983873e+02 1.402757585033430701e+02 1.355748179781472800e+02 1.390765169625157966e+02 1.425400398739440959e+02 1.461171323948927920e+02 1.497677186970181822e+02 1.534910869430937908e+02 1.572894452825691758e+02 1.611636743098859483e+02 1.651110718199200846e+02 1.691239929138811249e+02 1.731897663513102543e+02 1.772910012140560525e+02 1.814058673419718843e+02 1.855075952866104672e+02 1.895892554171311701e+02 1.935717679157400255e+02 1.973976278375610889e+02 2.010002865910868195e+02 2.042812267520592400e+02 2.070841126916268706e+02 2.091068407996397127e+02 2.093547022553334216e+02 2.075127786670953753e+02 2.052911471283988192e+02 2.020001835093104319e+02 1.982781515653284714e+02 1.942600322862362816e+02 1.900313258641130574e+02 1.856477983321273655e+02 1.811508959275943482e+02 1.763717096178567090e+02 1.722929007116219111e+02 1.677994861664315920e+02 1.632589883804100452e+02 1.586778657930611587e+02 1.540659715018730935e+02 1.494165557943660190e+02 1.446957080199686061e+02
1.444454574546233800e+02 1.487942565424166617e+02 1.531981451474217977e+02 1.576312314532525818e+02 1.620508642535333763e+02 1.664245241410035874e+02 1.707512012330784046e+02 1.750737165753238287e+02 1.794382808035988432e+02 1.838696541563355709e+02 1.883862607071978630e+02 1.929867028527814909e+02 1.976332276606008804e+02 2.022829048311708391e+02 2.069305260027599331e+02 2.115496781831784006e+02 2.160828997002802794e+02 2.204659080917628273e+02 2.246077566110950272e+02 2.283804007387581123e+02 2.315951575569622491e+02 2.339121271174296623e+02 2.345733013503668190e+02 2.336242583204404752e+02 2.316364767470441279e+02 2.293362318789884569e+02 2.262128318285904243e+02 2.240914992177069394e+02 2.213629639088541126e+02 2.185832409195103310e+02 2.158072106493580407e+02 2.131395319923738896e+02 2.106613596661421752e+02 2.080577681400888537e+02 2.113568390917652664e+02 2.139724411149537673e+02 2.158839697878734114e+02 2.164852287541798148e+02 2.156457245484072303e+02 2.131072131936655865e+02 2.097703326046346035e+02 2.058690717876734482e+02 2.016883670905233146e+02 1.973123507886622292e+02 1.927988371056358687e+02 1.881996183058632255e+02 1.835580327340418023e+02 1.789103963045480441e+02 1.742699246839548266e+02 1.697229348653780789e+02 1.652776185482752851e+02 1.609288043469836396e+02 1.567296162862462552e+02 1.526704012698004931e+02 1.488699367946053655e+02 1.452320602558427538e+02 1.417114693341745522e+02 1.382458750131251293e+02 1.347680568089828910e+02 1.310985116531356311e+02 1.358196095546267088e+02 1.398712658987832924e+02 1.433603754483763169e+02 1.444027020728418336e+02 1.453537344683822141e+02 1.461269854329145232e+02 1.466132594075457689e+02 1.496110133681421246e+02 1.502806279239587468e+02 1.509242994643520319e+02 1.514959817848326793e+02 1.519907535356907715e+02 1.524088647854507599e+02 1.527613131044972477e+02 1.529817690852167971e+02 1.530294311219829808e+02 1.517204824752601837e+02 1.486166344709463942e+02 1.451058759311627000e+02 1.411845334951080417e+02 1.369445340021138975e+02 1.322778423715049030e+02 1.358903208803538405e+02 1.394349343206965557e+02 1.430341962770662008e+02 1.466946799460381499e+02 1.504266148386256532e+02 1.542397909737413499e+02 1.581393800889881049e+02 1.621237260341487456e+02 1.661844566425153857e+02 1.703073459083479690e+02 1.744731816073116022e+02 1.786578312539453179e+02 1.828560127751767652e+02 1.869953188291337938e+02 1.910282609958642865e+02 1.949022867650260480e+02 1.985451670515238618e+02 2.018548314623149338e+02 2.046700076286951173e+02 2.066833251242230460e+02 2.068694226651118129e+02 2.048259340702613827e+02 2.019670427836819044e+02 1.990319423143481856e+02 1.952970802627033606e+02 1.912628002324027818e+02 1.870139926285868910e+02 1.826110912887847348e+02 1.780946573938398103e+02 1.734964399005517919e+02 1.686558031255846970e+02 1.644891291079053985e+02 1.599494480540683696e+02 1.553815493839121302e+02 1.507910800527880610e+02 1.461877048332083575e+02 1.415570281300375370e+02
1.411128893782262423e+02 1.455242754842747672e+02 1.500078357317662494e+02 1.544903763304130848e+02 1.589001552645644040e+02 1.631704846686625956e+02 1.673400471894114219e+02 1.715540505622130070e+02 1.758382109975097762e+02 1.802249459430881586e+02 1.847657166019549209e+02 1.894322528888870352e+02 1.941681357693976793e+02 1.989580954462064426e+02 2.037696083682282051e+02 2.085465311206069998e+02 2.132331340917471039e+02 2.177596440601364520e+02 2.220339506532035614e+02 2.259319997381502390e+02 2.292526782620563210e+02 2.316122768696736216e+02 2.322309100713113708e+02 2.311186055180811820e+02 2.292081179369989172e+02 2.266475103952380721e+02 2.239276332088775234e+02 2.205525399584013257e+02 2.181889188463041762e+02 2.153084462830626364e+02 2.124298937209490248e+02 2.096423173623603873e+02 2.071833375498337944e+02 2.052163203919471357e+02 2.086455477480171226e+02 2.113721714599606969e+02 2.131141261686534847e+02 2.143118185841493926e+02 2.134188328470514193e+02 2.108966666546142790e+02 2.075304482790447196e+02 2.036207086307447867e+02 1.993026562894434903e+02 1.948034672455099781e+02 1.901804457212819557e+02 1.854763689408272569e+02 1.807340926539325494e+02 1.759925950699444570e+02 1.712859777541191022e+02 1.666263594124252734e+02 1.620949426076615509e+02 1.576969914152349475e+02 1.534254464919625605e+02 1.493284291206100249e+02 1.453923627185272096e+02 1.417234827202870520e+02 1.382197056126741188e+02 1.348190394054773549e+02 1.314147989655647564e+02 1.277693776369271745e+02 1.322643884157862999e+02 1.360962146748484543e+02 1.395071220615507741e+02 1.405147950345053687e+02 1.414518967503268527e+02 1.422139749689984853e+02 1.426949935146944597e+02 1.457581639533949840e+02 1.464505576377224543e+02 1.471209583597101300e+02 1.477151335461702786e+02 1.482274763385062784e+02 1.486614117965353046e+02 1.490316642249311769e+02 1.492763054145883643e+02 1.493685696426522895e+02 1.482468871013169291e+02 1.453603949196454437e+02 1.417600106819583914e+02 1.378943561137892857e+02 1.337140482127112193e+02 1.290941867972414059e+02 1.327902366422014779e+02 1.363598600841002053e+02 1.399611058488909805e+02 1.436152312753271474e+02 1.473468448155680051e+02 1.511738091872456948e+02 1.551031712505197220e+02 1.591321689142764342e+02 1.632503063591433659e+02 1.674410752898535577e+02 1.716825651290775170e+02 1.759702556162893359e+02 1.802360373078244891e+02 1.844385923094609439e+02 1.885335630785086494e+02 1.924635037132204616e+02 1.961531658092159489e+02 1.994958170500013637e+02 2.023212739711896404e+02 2.042976167617235319e+02 2.043165161968425139e+02 2.022906662210417608e+02 1.992522438388605224e+02 1.957430261047987869e+02 1.923235686856429822e+02 1.882745703925740202e+02 1.840122639764933297e+02 1.795927919430469899e+02 1.750609476915616654e+02 1.704473148630619050e+02 1.657771571619828990e+02 1.608981313067007477e+02 1.566703182800856098e+02 1.521080783595277524e+02 1.475385829745787305e+02 1.429745779921528310e+02 1.384547191064181106e+02
1.377330608369710490e+02 1.422961066570198625e+02 1.469296954811985074e+02 1.514819951023463886e+02 1.559348246689081918e+02 1.597945439894678543e+02 1.637685689115767786e+02 1.679118801879151874e+02 1.720574121358629895e+02 1.764010417748320947e+02 1.810476187791054770e+02 1.858485554227670207e+02 1.907609473612255044e+02 1.957407325819714856e+02 2.007306459213371568e+02 2.056786211076160384e+02 2.105271020148300352e+02 2.152049457324511081e+02 2.196227642253188037e+02 2.236545277418954072e+02 2.270917162598821051e+02 2.294642358048322137e+02 2.299475165261301299e+02 2.287393467568017513e+02 2.266707100443352658e+02 2.241592829336219097e+02 2.212006298098888806e+02 2.181749446657881037e+02 2.146132430806552804e+02 2.120402764290460027e+02 2.089956329868951173e+02 2.059551195009641447e+02 2.031254949136632604e+02 2.025565169304064739e+02 2.062219175919708221e+02 2.087026576455305076e+02 2.109434008257096025e+02 2.120781667927258809e+02 2.113460327209716638e+02 2.088503027060203010e+02 2.054249086288443493e+02 2.014313141831719065e+02 1.970574449446667131e+02 1.923927003780489997e+02 1.876269841646384293e+02 1.827940569046829182e+02 1.779278871537464681e+02 1.730704103809617607e+02 1.682594165421705554e+02 1.635269371307476831e+02 1.588842628766227847e+02 1.544051983544177062e+02 1.500892833925486798e+02 1.459310961192877585e+02 1.419754639969384584e+02 1.382043843649303199e+02 1.347077679825494556e+02 1.313852510173637711e+02 1.281712718554552737e+02 1.246676428802920213e+02 1.285299672118395904e+02 1.321000458152633428e+02 1.355872195184565498e+02 1.366401673622340809e+02 1.375805036450315129e+02 1.383348651996246303e+02 1.388094757554598857e+02 1.419415772269743172e+02 1.426473462410862396e+02 1.433452158091646993e+02 1.439640383979835008e+02 1.444934900704954543e+02 1.449415790726081639e+02 1.453291091666828834e+02 1.456011087499899475e+02 1.457485630162325378e+02 1.447756599955359320e+02 1.419532829607937288e+02 1.385200932228854640e+02 1.346317752996025376e+02 1.305606235371906507e+02 1.260290479398052668e+02 1.297587328920035361e+02 1.333162433682623771e+02 1.368822939626164157e+02 1.405075868144926687e+02 1.442328703594650108e+02 1.480779313185599619e+02 1.520466127605130282e+02 1.561322394095543302e+02 1.603210086013065734e+02 1.645932939769963639e+02 1.689453200846530763e+02 1.733117902818391087e+02 1.776546468659652191e+02 1.819338718110335833e+02 1.861008794320686377e+02 1.900959942639351254e+02 1.938405447876082519e+02 1.972217253026273909e+02 2.000569333143963320e+02 2.019820081056687968e+02 2.018357284770786180e+02 1.996882772846962553e+02 1.966304746297761312e+02 1.930038986345524563e+02 1.890611192748579583e+02 1.852968997190376399e+02 1.810194382340082768e+02 1.765884879773973637e+02 1.720427342152785855e+02 1.674167557287012471e+02 1.627344711349809927e+02 1.580167786265802761e+02 1.531191702737220908e+02 1.488526177142962865e+02 1.442867578235584460e+02 1.397320220837229670e+02 1.352017146760288426e+02
1.391974670059119319e+02 1.436479231419019129e+02 1.474309534457653115e+02 1.508124453674792846e+02 1.526284675875589301e+02 1.560125610188820531e+02 1.600317957123974963e+02 1.643298864737066367e+02 1.676905660355270982e+02 1.723627049399695466e+02 1.772370173685719408e+02 1.822652138138674616e+02 1.873940280357664960e+02 1.925758540340682714e+02 1.977641198161006173e+02 2.029075316077609443e+02 2.079462445995899600e+02 2.128055244047419876e+02 2.173985495968970554e+02 2.216048615052429795e+02 2.252387096452112303e+02 2.275336415788918316e+02 2.277629969986456615e+02 2.263899538626118613e+02 2.242372995628182650e+02 2.215796905216796233e+02 2.186564562754751933e+02 2.154134695583717303e+02 2.121591498440999146e+02 2.084469781736487164e+02 2.056594343565369911e+02 2.023422934042757788e+02 1.985634713649328944e+02 2.015507042793231847e+02 2.038145928477034943e+02 2.065124601871046082e+02 2.086592768445113961e+02 2.099415178621225664e+02 2.094704256593922764e+02 2.070716577748499958e+02 2.035097169085554469e+02 1.993620889389426623e+02 1.948427278078511051e+02 1.900692039805521460e+02 1.851260702374690936e+02 1.801113679180064651e+02 1.750786206814181298e+02 1.700710002417366979e+02 1.651261155650336150e+02 1.602770851080491923e+02 1.555538887329288968e+02 1.509791656755459144e+02 1.465799757873231215e+02 1.423755731280534746e+02 1.383788103740944280e+02 1.346037334647203068e+02 1.310563181643376254e+02 1.277551513458876968e+02 1.247020753152986998e+02 1.218396579065682204e+02 1.238164158164814097e+02 1.278574311000818398e+02 1.316613333936800530e+02 1.327970395757280357e+02 1.337428522497627341e+02 1.344871619721827756e+02 1.349505582286286938e+02 1.381519325103656115e+02 1.388624934914383857e+02 1.395952683448954872e+02 1.402430891601361793e+02 1.407879835238634030e+02 1.412468601494845188e+02 1.416498120722053216e+02 1.419503343464657803e+02 1.421525745566204080e+02 1.412969363684194946e+02 1.385026029850036764e+02 1.350979753079398904e+02 1.313854815240847813e+02 1.274294115549274125e+02 1.230990457955057451e+02 1.268042662035533539e+02 1.302762484102749738e+02 1.337562301480951419e+02 1.373388131962743159e+02 1.410632765567276863e+02 1.449394862793995458e+02 1.489628880067027694e+02 1.531211570667924775e+02 1.573965693992510637e+02 1.617870054625816465e+02 1.662307648135742113e+02 1.706909754917981275e+02 1.751273212557248371e+02 1.794957182674348246e+02 1.837468175073680356e+02 1.878191168134658540e+02 1.916300673405234534e+02 1.950590991319641034e+02 1.979062962524169222e+02 1.997597413845969641e+02 1.994125233354948818e+02 1.971228969498122012e+02 1.939724008952256327e+02 1.903149924425228789e+02 1.862988129446017354e+02 1.820520291281975744e+02 1.780351145112819893e+02 1.735896917529386201e+02 1.690345535545550604e+02 1.643972832405343638e+02 1.597055596515222078e+02 1.549786979691357089e+02 1.502343641443340232e+02 1.453348483930447799e+02 1.410463116920354025e+02 1.364871225887780781e+02 1.319483013124343529e+02
1.378942249279118641e+02 1.412421210851290425e+02 1.444710426940067407e+02 1.458291340847422077e+02 1.478532207707373800e+02 1.518452968647801242e+02 1.561084113259360890e+02 1.606849896517010450e+02 1.666983370012866317e+02 1.721916298180545368e+02 1.775036245443259020e+02 1.827376854294159898e+02 1.879250113780405513e+02 1.930668455900390370e+02 1.981453762751234251e+02 2.031284712008335873e+02 2.079705790447079892e+02 2.126104595498782146e+02 2.169482407898548502e+02 2.208353527415951589e+02 2.240058129890846033e+02 2.258442873826170683e+02 2.256635540958110084e+02 2.240924182708044157e+02 2.218171951333444554e+02 2.190908755347753640e+02 2.160377867684604496e+02 2.128258221569725492e+02 2.093793917205883588e+02 2.059528841032650064e+02 2.021181943376086281e+02 1.991156269390710918e+02 1.954063349975127153e+02 1.983620981845336075e+02 2.014181703769259002e+02 2.041075199706675107e+02 2.063607291697451842e+02 2.078484313811796369e+02 2.077711787321183010e+02 2.058366060694505961e+02 2.029069617309060334e+02 1.990001484061885435e+02 1.947660114314846282e+02 1.902940442246772932e+02 1.856651636033546993e+02 1.809379183947341687e+02 1.761615497560917447e+02 1.713778149263335422e+02 1.666217079758122566e+02 1.619227266188930514e+02 1.573057515031300682e+02 1.527914698432149976e+02 1.483975169147395263e+02 1.441387271703615909e+02 1.400282632334370589e+02 1.360823925766908644e+02 1.323290879182038964e+02 1.288086693154190812e+02 1.262791063959812448e+02 1.224862143303619604e+02 1.183090302394199540e+02 1.238255134666918451e+02 1.278870112164872239e+02 1.290081150544200455e+02 1.299429397025511150e+02 1.306701979364492558e+02 1.311138463636015956e+02 1.343808623807562981e+02 1.350833900593978854e+02 1.358708071957863694e+02 1.365550495461486946e+02 1.371110900247013547e+02 1.375747689928238344e+02 1.379895515852325332e+02 1.383188570473093364e+02 1.385779679581667381e+02 1.378243845631891134e+02 1.350177659350076453e+02 1.315496715330401400e+02 1.277934030471330971e+02 1.241860485388269382e+02 1.203543558868251182e+02 1.238993792415554651e+02 1.271505288291812263e+02 1.305225728669447278e+02 1.340765890822289066e+02 1.378219253900901151e+02 1.417506614782616339e+02 1.458483957482396818e+02 1.500966325182110666e+02 1.544944245547031016e+02 1.589876839563868316e+02 1.635481460813558954e+02 1.681257907675538377e+02 1.726698046122907328e+02 1.771411388176693151e+02 1.814917141554666102e+02 1.856581066057749752e+02 1.895536060293054845e+02 1.930488066526187652e+02 1.959178299356290438e+02 1.976490202371049349e+02 1.970297264255172536e+02 1.945829564372953087e+02 1.913362526878514700e+02 1.876061619827888762e+02 1.835552410407464379e+02 1.792646201304976046e+02 1.747987479101712438e+02 1.705945079136785125e+02 1.660266375461797281e+02 1.613827159994240503e+02 1.566829734562820420e+02 1.519501347637169886e+02 1.471999216400491548e+02 1.424469642606375430e+02 1.375589368494244411e+02 1.332596207296654995e+02 1.287110696318417524e+02
1.346969869288488439e+02 1.383022147278992975e+02 1.395691218017709616e+02 1.415967831118941547e+02 1.469454892446206884e+02 1.519190770151372476e+02 1.568979896100502742e+02 1.619852001581484160e+02 1.672717302317510359e+02 1.725915867440039335e+02 1.778862298678135119e+02 1.831331465553810176e+02 1.883180210496210520e+02 1.934247759338440176e+02 1.984311139508115502e+02 2.033057912253682957e+02 2.080051441542118198e+02 2.124661944183117441e+02 2.165915376095294391e+02 2.202174767729241012e+02 2.230102404309805308e+02 2.242308493967549907e+02 2.235996044709023352e+02 2.218309862024473489e+02 2.194259969012527733e+02 2.166069570963265392e+02 2.135007178564533206e+02 2.101765128532425138e+02 2.067633208214674312e+02 2.031770903566796846e+02 1.996391019536368958e+02 1.957534840696089020e+02 1.924313682324501826e+02 1.957943141510407656e+02 1.988424608270320562e+02 2.016379573661477025e+02 2.040184657832205062e+02 2.057090781498029912e+02 2.060861704141478015e+02 2.045355324269458492e+02 2.016315370373006317e+02 1.981947591804329818e+02 1.943092803521180940e+02 1.901255972378788783e+02 1.857397320411911892e+02 1.812213541192868433e+02 1.766250768910775264e+02 1.719923073374724254e+02 1.673556331070185479e+02 1.627409249097429154e+02 1.581683076022140142e+02 1.536524413817628272e+02 1.492024172109250060e+02 1.448213870846721818e+02 1.405062325473763849e+02 1.362476427146305014e+02 1.320289716831633200e+02 1.278248558151149439e+02 1.235481270142981174e+02 1.207207308594402946e+02 1.158809856205898967e+02 1.206083395975117440e+02 1.242923557164465080e+02 1.252664639789185088e+02 1.261814091081511009e+02 1.268847338511928484e+02 1.272966127428327496e+02 1.306187174736627981e+02 1.312895789141746263e+02 1.321761122754540168e+02 1.329069807463119446e+02 1.334640343276526266e+02 1.339227741046634037e+02 1.343437696743245056e+02 1.347015834294980152e+02 1.350263309220316330e+02 1.343874261098391969e+02 1.315640703770569928e+02 1.279584182378083739e+02 1.238923783158104897e+02 1.198320336354627926e+02 1.178622913451285399e+02 1.206899744033912896e+02 1.237308607250176067e+02 1.270427345637866665e+02 1.306093426760311900e+02 1.344072367345280270e+02 1.384145699216106493e+02 1.426103583432534947e+02 1.469736720285133629e+02 1.514785828591829215e+02 1.561030378316526139e+02 1.608603152978836874e+02 1.655696676120882955e+02 1.702393929627938007e+02 1.748390135900966698e+02 1.793206547910415054e+02 1.836154527143508801e+02 1.876357854282243522e+02 1.912484396678295013e+02 1.942048513312361138e+02 1.956187363102511938e+02 1.946436360816743161e+02 1.920524710358105267e+02 1.887107084742666530e+02 1.849095377517325574e+02 1.807984171831152480e+02 1.764718591887270236e+02 1.719821657854933221e+02 1.673575577287591614e+02 1.630157548372866927e+02 1.583622662512215129e+02 1.536599232344660493e+02 1.489237363607568909e+02 1.441723482845719673e+02 1.394180336914596694e+02 1.346720130213922459e+02 1.298062558317805895e+02 1.255039545737892581e+02
1.318639456315846701e+02 1.333422890857700907e+02 1.355270390360416286e+02 1.410907822257631778e+02 1.464461131725642815e+02 1.517638841360118533e+02 1.570682886067486663e+02 1.623809764333935561e+02 1.677107984749154923e+02 1.730343637617945944e+02 1.783258893251706922e+02 1.835627416745129779e+02 1.887239380969848241e+02 1.937873216183172360e+02 1.987267268142444436e+02 2.035090243746532508e+02 2.080902096872474942e+02 2.124067245301542641e+02 2.163596231696144798e+02 2.197809606441236383e+02 2.221214339313468997e+02 2.226254799240234661e+02 2.214967387347933538e+02 2.195827156903712876e+02 2.170527572105742138e+02 2.141395385888949647e+02 2.109623507056257949e+02 2.075977850864363745e+02 2.040871847016896368e+02 2.005369442560034088e+02 1.968672949873097195e+02 1.933043961030656135e+02 1.895057102989027271e+02 1.930350934762289228e+02 1.962107560328297495e+02 1.991149281081593188e+02 2.016183040675893210e+02 2.034129075140740213e+02 2.043325545507254049e+02 2.035761426149294948e+02 2.012440451424481580e+02 1.979727771337817330e+02 1.942538188808890993e+02 1.902254532659720212e+02 1.859812438494862761e+02 1.815871288116810263e+02 1.770931089707806052e+02 1.725375819131827200e+02 1.679508355775246855e+02 1.633566895955378584e+02 1.587731934877814126e+02 1.542124447667045501e+02 1.496794996727329874e+02 1.451704885651248276e+02 1.406710674980170950e+02 1.361597306623237387e+02 1.316247416404727346e+02 1.270429320832295872e+02 1.223806529061060075e+02 1.175181976031161923e+02 1.137558376249760244e+02 1.173658995216150203e+02 1.205868461981028901e+02 1.215339393241568615e+02 1.224589154986281727e+02 1.231341621484140347e+02 1.234993577516396499e+02 1.268517112031147605e+02 1.274470704240018080e+02 1.285267399852018286e+02 1.293123066854160186e+02 1.298483644060604547e+02 1.302878808557294690e+02 1.307073693793396103e+02 1.310920001505430150e+02 1.314949079771566858e+02 1.310119105754956195e+02 1.282329047973560989e+02 1.245486535486955546e+02 1.201438204445703235e+02 1.146256238671721093e+02 1.185541891899397626e+02 1.217327380669057106e+02 1.253511463829204189e+02 1.292897773858052517e+02 1.331914310865876985e+02 1.371834520795818264e+02 1.412804710564722654e+02 1.454787708760923692e+02 1.497771606577648242e+02 1.541716573335958742e+02 1.587054675080869970e+02 1.625074291095515093e+02 1.667593824852805540e+02 1.710582142876408795e+02 1.753189865327774157e+02 1.794839964282038238e+02 1.834952144287570661e+02 1.872572551012692941e+02 1.905938113768747257e+02 1.930049907697091669e+02 1.936561333267808322e+02 1.921178254212158265e+02 1.895297598376451731e+02 1.860896872051387447e+02 1.822155194659903827e+02 1.780448658727005693e+02 1.736655066528139741e+02 1.691402809399895375e+02 1.645063155127978121e+02 1.597697619994018794e+02 1.553312955577468983e+02 1.506246011370192832e+02 1.458919068716318179e+02 1.411439542301961581e+02 1.363953439630489868e+02 1.316546052937526952e+02 1.269292504735537079e+02 1.220951948334100763e+02
1.269434478013459113e+02 1.295313517504089873e+02 1.352613825814944164e+02 1.407916216730517931e+02 1.462947977019472034e+02 1.517768912149805374e+02 1.572348049849063898e+02 1.626651493194359830e+02 1.680619283140848950e+02 1.734139711595451843e+02 1.787070966760045678e+02 1.839253665494813959e+02 1.890507339774614763e+02 1.940615716377562592e+02 1.989302914069662904e+02 2.036195877033939041e+02 2.080760785066146639e+02 2.122209095584123020e+02 2.159295430498242467e+02 2.189785537584885446e+02 2.209596390418527960e+02 2.209678546233960503e+02 2.194889273903514209e+02 2.172864190787190637e+02 2.146792788946560790e+02 2.116780713902174682e+02 2.084301588977293420e+02 2.050097177206446020e+02 2.014663303895056004e+02 1.978253608404111503e+02 1.941795225773662139e+02 1.904474876564770796e+02 1.866453889244542097e+02 1.902741391104417801e+02 1.935471832359478412e+02 1.965458512863196461e+02 1.990835169986665107e+02 2.011746017678270562e+02 2.024568647867706090e+02 2.022276965974600103e+02 2.003079915255624996e+02 1.974309393621734330e+02 1.939453452217790641e+02 1.900773751413748585e+02 1.859554383191758404e+02 1.816578514291993258e+02 1.772367231372253116e+02 1.727305995721051488e+02 1.681698779671941963e+02 1.635796419165535553e+02 1.589809819168602303e+02 1.543912038723113653e+02 1.498220791077058038e+02 1.452734306741286616e+02 1.407150458019073085e+02 1.360538642931826985e+02 1.313544107674686927e+02 1.265993215241534955e+02 1.217748689190699594e+02 1.168535014570843202e+02 1.115820213224675825e+02 1.130766756468881624e+02 1.166462217134727837e+02 1.178114576724733382e+02 1.187864574182062682e+02 1.194261510481909454e+02 1.197291202949592446e+02 1.230589020470789450e+02 1.234990869154097055e+02 1.249492203806712212e+02 1.257910815474546240e+02 1.262629573709289730e+02 1.266658969421047658e+02 1.270747767659082257e+02 1.274814471899469766e+02 1.279697795436546670e+02 1.276919406192409525e+02 1.250594220329093673e+02 1.214751668909920284e+02 1.172042702898751116e+02 1.121537651443523345e+02 1.166898486212578092e+02 1.203707332039299587e+02 1.245427310916843737e+02 1.287937380408498313e+02 1.330783431810795605e+02 1.373641074697110014e+02 1.416563755263109101e+02 1.459630242307111416e+02 1.502856025335288166e+02 1.546153883485196161e+02 1.589247830885437054e+02 1.631279102394358631e+02 1.673184840815349901e+02 1.714610030806040015e+02 1.754593350030338570e+02 1.793504211602355554e+02 1.831038068346852299e+02 1.866726982656467158e+02 1.894823652973475419e+02 1.915796194401128218e+02 1.917085757383364921e+02 1.897927579893722907e+02 1.868814948839050203e+02 1.834681725906525003e+02 1.795156328565241495e+02 1.752833385221810829e+02 1.708515235580919978e+02 1.662792316871738478e+02 1.616120789494472376e+02 1.568780956985825128e+02 1.520694991727860383e+02 1.475707910925089550e+02 1.428416706027997805e+02 1.381059416987351369e+02 1.333701343337991716e+02 1.286444188919136309e+02 1.239334817942626472e+02 1.192415207593155202e+02
1.236749193275165766e+02 1.296756831399129339e+02 1.353626052607554584e+02 1.409625261423060749e+02 1.465355359606981835e+02 1.521177096013319101e+02 1.576577883668598474e+02 1.631402734581802747e+02 1.685586964329614261e+02 1.739067912107012432e+02 1.791762276176110049e+02 1.843557650588566901e+02 1.894302315834912633e+02 1.943790526477058620e+02 1.991741227393534075e+02 2.037764369068260919e+02 2.081303256563077468e+02 2.121527854141359342e+02 2.157062939922597309e+02 2.185238668697769242e+02 2.197994396085992719e+02 2.192439622761792180e+02 2.174761439303508723e+02 2.150657846557959942e+02 2.122528699571100219e+02 2.092068021702354486e+02 2.058937598252230430e+02 2.024182187925402445e+02 1.988282361195233818e+02 1.951572263608763649e+02 1.914219685379408133e+02 1.877067146080297846e+02 1.837969025725966503e+02 1.875094442691328993e+02 1.908589734084761176e+02 1.938680413279561208e+02 1.965965175693939102e+02 1.988619847614460525e+02 2.004161335213502753e+02 2.006441737270847909e+02 1.992934221186579009e+02 1.969461495637561654e+02 1.936157013709942021e+02 1.898499628814509208e+02 1.858132006695676637e+02 1.815853811431419160e+02 1.772127843579259547e+02 1.727314507398357080e+02 1.681717687268691179e+02 1.635609715441098615e+02 1.589260312345195985e+02 1.542983225171421111e+02 1.497227860550240450e+02 1.452727156327681541e+02 1.414244867341466545e+02 1.362315641847322922e+02 1.314898820747089019e+02 1.266743890565030881e+02 1.218928488687494109e+02 1.172019053472029384e+02 1.130683657700169249e+02 1.078758796087847713e+02 1.128100164653406097e+02 1.141565672899544950e+02 1.151857737462395619e+02 1.157711967496979213e+02 1.160033487228571119e+02 1.192179799359009706e+02 1.193030179510349171e+02 1.222562262708629675e+02 1.223594947289827388e+02 1.226972440195477958e+02 1.230508614190173802e+02 1.234406887960705745e+02 1.238601987747785671e+02 1.244253041281362329e+02 1.243815931942902466e+02 1.219831185078841571e+02 1.185956827318712925e+02 1.145758440748274580e+02 1.098886340994529576e+02 1.140631298808517329e+02 1.189234157313370162e+02 1.236257174662548266e+02 1.282549238063998018e+02 1.328202874574569705e+02 1.373238159958953872e+02 1.417724122745638340e+02 1.461738708230339228e+02 1.505338380182212177e+02 1.548538610929049071e+02 1.591302822221170459e+02 1.633585316336907738e+02 1.675483017556438767e+02 1.717201178576790710e+02 1.751455742883540552e+02 1.787041318232143112e+02 1.821663133231845961e+02 1.853590172296869980e+02 1.882452834341117693e+02 1.901040700564566350e+02 1.897440488091523321e+02 1.874905631369056778e+02 1.843669674958271401e+02 1.807269294286631691e+02 1.768024370057935926e+02 1.725035473710786107e+02 1.680175223436316116e+02 1.633983267817063734e+02 1.586897726011899294e+02 1.539272360597490206e+02 1.491327025883955173e+02 1.442892706567096468e+02 1.397650216623282518e+02 1.350439973603730266e+02 1.303320228966534842e+02 1.256308656970159063e+02 1.209459118895868244e+02 1.162788391825434076e+02
1.258380885789056549e+02 1.308684388947226296e+02 1.360951419880094022e+02 1.414584882990385211e+02 1.468987227376236433e+02 1.528058979529216117e+02 1.584027933133120598e+02 1.638575794504810403e+02 1.692155603590698831e+02 1.744914481652207883e+02 1.796850971271999242e+02 1.847878424079823674e+02 1.897843779247745317e+02 1.946525043554995591e+02 1.993614917252970145e+02 2.038685979571284292e+02 2.081116981317110515e+02 2.119941972089510216e+02 2.153461936072740173e+02 2.178025176281086033e+02 2.184694394665569632e+02 2.173760186561347609e+02 2.154410389037262803e+02 2.128475180373196736e+02 2.098843763237626945e+02 2.066788194359955071e+02 2.033398898337934497e+02 1.998147587642504845e+02 1.961805405971881271e+02 1.924693063507217232e+02 1.887054062601725946e+02 1.848999254757339088e+02 1.809647154888971272e+02 1.847431815067603225e+02 1.880916815010399716e+02 1.912380965386309981e+02 1.940656462736127992e+02 1.964504240040898821e+02 1.981668389632365006e+02 1.986918964094658975e+02 1.979443729481048138e+02 1.957091920439975752e+02 1.929944662545105416e+02 1.893078545157115400e+02 1.853813584472150353e+02 1.812436297543461023e+02 1.769281781310167503e+02 1.724709628888147677e+02 1.679019432088996950e+02 1.632448368171853872e+02 1.585174521903891787e+02 1.537306661755319226e+02 1.488845365044250570e+02 1.439585073237694814e+02 1.388609175535751774e+02 1.343263109088399858e+02 1.309020277297116763e+02 1.257980268105515052e+02 1.209060755318115810e+02 1.158937089620544327e+02 1.103728728280069475e+02 1.057825919911997801e+02 1.092261523593308823e+02 1.105770812964946259e+02 1.116785610533903537e+02 1.121758403985744081e+02 1.123484955800933278e+02 1.154326202956467284e+02 1.155112673356236002e+02 1.187179688006761609e+02 1.188391779055622663e+02 1.191227956448038583e+02 1.194364455083220093e+02 1.198016804613038602e+02 1.202204577592662105e+02 1.208300418203297113e+02 1.210016320476282203e+02 1.189303219228940520e+02 1.157476437609987414e+02 1.119965716501139781e+02 1.075846655221895958e+02 1.127528225463757536e+02 1.177922656172170690e+02 1.227622953328496891e+02 1.276370855592554534e+02 1.323951388233738840e+02 1.370275764938218686e+02 1.415435266455750138e+02 1.459597303294308688e+02 1.502907924856148725e+02 1.545488466628424078e+02 1.587429642929287184e+02 1.629106099144888162e+02 1.670860109454781082e+02 1.702043052993533365e+02 1.741570234807706186e+02 1.778977892016312694e+02 1.814007622499880767e+02 1.845549945404001164e+02 1.871591720416901978e+02 1.885776265431201182e+02 1.877165940858527620e+02 1.851804369254577125e+02 1.818651861331559871e+02 1.780771849588017801e+02 1.739735739873563318e+02 1.696984439511809626e+02 1.651529923272574081e+02 1.604849892567297047e+02 1.557348048263742726e+02 1.509374330800774828e+02 1.461216405814180916e+02 1.413047775145147398e+02 1.364634536072270237e+02 1.319480344273997048e+02 1.272653374662181136e+02 1.226021427653372626e+02 1.179543345778753149e+02 1.133222376538971616e+02
1.302009540622332509e+02 1.350669054059817711e+02 1.401541727174157757e+02 1.453416180826517063e+02 1.508799223524177648e+02 1.548623789308522873e+02 1.598600129473352354e+02 1.649494801395913726e+02 1.700682223632304328e+02 1.751724234281981012e+02 1.802322286276146883e+02 1.852226439952897579e+02 1.901182932870438265e+02 1.948896689743343416e+02 1.994996832904594157e+02 2.038992784087808730e+02 2.080193650084506487e+02 2.117535621094611145e+02 2.149149406970745417e+02 2.169485366718157309e+02 2.170609477120789848e+02 2.155806925398581200e+02 2.133153471298644490e+02 2.106213867708359260e+02 2.075163077608176820e+02 2.041931054668899890e+02 2.007269645665726330e+02 1.971890522996499158e+02 1.935170316318608741e+02 1.897712146066085381e+02 1.859742818048543995e+02 1.821443936781901414e+02 1.781478935467479516e+02 1.819294045948565781e+02 1.853812783741323074e+02 1.885900815002034676e+02 1.914802874646050839e+02 1.939332975260088858e+02 1.956196142992433806e+02 1.965894181231573157e+02 1.961689884569493643e+02 1.943709263058440229e+02 1.914805304153335612e+02 1.882238382716627143e+02 1.845446186814497196e+02 1.805595516563818421e+02 1.763407381130209899e+02 1.719384711040816285e+02 1.673893438855055820e+02 1.627203933172922916e+02 1.579512436912329747e+02 1.530950871764684678e+02 1.481589109841580978e+02 1.431435781025275844e+02 1.380451228874799199e+02 1.328466636593987289e+02 1.273366478360407683e+02 1.224113198384904422e+02 1.176018430520175002e+02 1.129220079598892283e+02 1.083954533607930131e+02 1.038343254227572885e+02 1.044545997753023840e+02 1.081429015656903942e+02 1.082815487396501055e+02 1.086310791711985786e+02 1.087615864373693881e+02 1.117533161864416513e+02 1.118248615773846382e+02 1.150115969347307612e+02 1.152534738885841676e+02 1.155368518223834116e+02 1.158224183661931050e+02 1.161581936809463258e+02 1.165608722079415571e+02 1.171739949996485564e+02 1.173429586179296535e+02 1.159630040737353198e+02 1.127472045694221521e+02 1.093533620650612619e+02 1.052559873268032220e+02 1.114475477344192740e+02 1.169252832055779976e+02 1.221584860920534226e+02 1.272180752171000080e+02 1.320639212457590759e+02 1.366759278640649597e+02 1.411034441385802154e+02 1.453985427363471672e+02 1.495803257501282530e+02 1.536742226482553519e+02 1.576163628665751162e+02 1.616981667757633829e+02 1.647047295263174362e+02 1.690543662009750960e+02 1.731335513230490619e+02 1.769812049267729890e+02 1.805300811372214582e+02 1.836596671608658369e+02 1.861271237033006116e+02 1.869350186985886921e+02 1.854782543445824956e+02 1.828550309908779923e+02 1.793654076652751428e+02 1.754351966662980544e+02 1.712094513717758275e+02 1.667801189845934289e+02 1.622521033027546196e+02 1.575293138645785973e+02 1.527350416465933733e+02 1.479019417991000580e+02 1.430594378461475742e+02 1.382315137079072542e+02 1.334312297529024249e+02 1.286297490728921957e+02 1.241574972780200312e+02 1.195418388265969725e+02 1.149480084134101645e+02 1.103640065626022420e+02
1.311760530225048456e+02 1.359919404660265627e+02 1.409162141635639500e+02 1.459120546209219924e+02 1.509318811390036217e+02 1.558275420740080506e+02 1.607792465311225669e+02 1.657709990117280370e+02 1.707762130221125290e+02 1.757686213417509862e+02 1.807234472551662066e+02 1.856159516385541224e+02 1.904188628146607130e+02 1.950992476224318182e+02 1.996149920994491254e+02 2.039087501700721816e+02 2.078963357593389958e+02 2.114412168239096843e+02 2.142839493858529636e+02 2.158769469577493112e+02 2.155475062714698709e+02 2.137801242402237563e+02 2.112784693508635598e+02 2.083259007904020450e+02 2.051377750036344310e+02 2.017003933389430586e+02 1.981456471712282905e+02 1.945044529968237441e+02 1.908281938816611216e+02 1.870560163581343431e+02 1.832369448899308964e+02 1.793826523849522232e+02 1.753479542598927026e+02 1.791844698366340083e+02 1.826741204102103779e+02 1.859164676696638878e+02 1.888335443089788441e+02 1.911884349867625588e+02 1.933225629848657832e+02 1.940414684688918499e+02 1.939346387991967902e+02 1.929440809308399594e+02 1.908280360053098264e+02 1.877927401607147146e+02 1.842638494451214797e+02 1.803783723177130582e+02 1.762233789423363532e+02 1.718580459794016519e+02 1.673248702492131770e+02 1.626555036279739852e+02 1.578742651137295354e+02 1.530005790553698262e+02 1.480509189116641835e+02 1.430407814846138876e+02 1.379872965093601636e+02 1.329132595553974454e+02 1.278553488888497895e+02 1.229142114846444684e+02 1.180883876708078333e+02 1.133930380240519327e+02 1.088627417279509473e+02 1.045562443391493304e+02 1.005812856095483170e+02 1.045453848450813865e+02 1.047706845351802514e+02 1.051073002352180339e+02 1.052325360560295451e+02 1.081724054878073815e+02 1.082360858150411502e+02 1.113707919083140894e+02 1.116745367564378455e+02 1.119578418220244345e+02 1.122154568012077505e+02 1.125146164543560019e+02 1.128871588464844677e+02 1.134823640125018045e+02 1.136778972428093226e+02 1.125282712600076991e+02 1.095331654547960767e+02 1.063329646543899116e+02 1.031237281007386315e+02 1.087791465112734812e+02 1.142749414789212778e+02 1.196765870852185287e+02 1.250256115093860956e+02 1.299220541013916375e+02 1.344460979395235256e+02 1.387920387510425542e+02 1.430465087270716253e+02 1.471253922189243042e+02 1.513144793820863185e+02 1.544824605764166563e+02 1.586214939429049480e+02 1.634476580808747599e+02 1.679050850793537677e+02 1.721090718260631434e+02 1.760293318882066842e+02 1.795962065123758862e+02 1.826774472584868931e+02 1.849648256877766244e+02 1.852723633759183883e+02 1.833737073134398088e+02 1.803976262685374365e+02 1.768678748584106302e+02 1.727957131635220662e+02 1.684464257068466395e+02 1.639062550750020648e+02 1.592383857620119443e+02 1.545268015703598508e+02 1.496815218517443213e+02 1.448092617498581944e+02 1.399379897243249218e+02 1.350932521927090022e+02 1.302950569421783484e+02 1.255518099500743858e+02 1.208290702084548656e+02 1.164341491544926868e+02 1.119112488283075777e+02 1.074003999536654987e+02
1.316803483166549427e+02 1.365419099225466937e+02 1.414643561258665159e+02 1.464274153305580057e+02 1.514075632469759682e+02 1.563804971335130460e+02 1.613528976152258849e+02 1.663213415507487412e+02 1.712747238124243552e+02 1.761979504123370646e+02 1.810737571354678437e+02 1.858823862707496062e+02 1.905989778748490266e+02 1.951889829189162811e+02 1.996057953029192618e+02 2.037954550119738428e+02 2.076676143101037155e+02 2.110659131312099248e+02 2.134314463641131283e+02 2.146338296062265840e+02 2.139540192993867436e+02 2.119927871542478783e+02 2.092918025518984848e+02 2.061177859851587755e+02 2.026891677080537590e+02 1.991918665747128898e+02 1.955623882810110672e+02 1.918457015445575848e+02 1.880761855036437282e+02 1.843076492398280095e+02 1.804815387808155833e+02 1.766254645001307324e+02 1.725731913584469055e+02 1.764518846824198874e+02 1.799636053881081068e+02 1.832119873922096644e+02 1.860088632467908951e+02 1.886827547586192111e+02 1.906290803500962738e+02 1.912472677100587362e+02 1.913075712698611142e+02 1.908344027427390586e+02 1.892244387769550826e+02 1.869563379788021678e+02 1.837032143705176850e+02 1.799983917502820816e+02 1.759604300338853022e+02 1.716732601622619541e+02 1.671930305639321261e+02 1.625601024793295721e+02 1.578049906796247512e+02 1.529525509820903437e+02 1.480246839176817844e+02 1.430421450037480042e+02 1.380258684481917442e+02 1.329978732503318213e+02 1.279816396889609109e+02 1.230007462974538868e+02 1.180637659482357975e+02 1.131727926763746694e+02 1.083272331022853194e+02 1.035257892011440646e+02 9.863075758718240138e+01 1.012569154294180152e+02 1.012257709723444492e+02 1.016083333237658195e+02 1.017579654437562766e+02 1.046702699320043024e+02 1.047229564277335356e+02 1.078265173460058008e+02 1.081345505647884977e+02 1.084017914405135627e+02 1.086240210201601855e+02 1.088770317626628810e+02 1.092054587825053176e+02 1.097638382308207810e+02 1.099669128414613084e+02 1.089477862341606453e+02 1.057735674040562799e+02 1.022760375657731515e+02 1.009013267829905942e+02 1.073314316028025956e+02 1.130514327656839129e+02 1.184891370281372218e+02 1.229318213423538850e+02 1.273457612727408730e+02 1.315723507889381949e+02 1.358268672918777611e+02 1.402789808984962008e+02 1.435864500856491475e+02 1.479565340469373780e+02 1.531205768793094535e+02 1.579095195432672369e+02 1.625531762552502641e+02 1.670115157563175217e+02 1.712345506813403517e+02 1.751612190168669940e+02 1.787000592045924066e+02 1.816912761065612187e+02 1.837980955028423296e+02 1.836135972478644476e+02 1.813144956588362504e+02 1.780637873978080279e+02 1.742648622130629121e+02 1.701592715673036196e+02 1.656813716481267136e+02 1.610259104810883173e+02 1.562527003477066216e+02 1.514104641006014447e+02 1.465709336266485536e+02 1.416512825340560937e+02 1.367461550384820441e+02 1.318805672370590685e+02 1.270771174152410055e+02 1.223521082445327721e+02 1.177085356849308226e+02 1.131054203654646813e+02 1.088225946559274462e+02 1.044153164381059042e+02
1.318278635468555819e+02 1.367971484426388145e+02 1.417846775389507457e+02 1.467791613944623919e+02 1.517705304102490800e+02 1.567510203777963795e+02 1.617165600942620074e+02 1.666603385235826806e+02 1.715687177756296933e+02 1.764275992729439224e+02 1.812233437807600183e+02 1.859427631968844423e+02 1.905694124773580427e+02 1.950683192283131291e+02 1.993549158377284982e+02 2.033857492462841208e+02 2.071146701005164630e+02 2.098371427386264259e+02 2.122234821012654606e+02 2.131873497199822225e+02 2.122561781737929891e+02 2.102378362556476361e+02 2.074280436274383703e+02 2.039749712870145117e+02 2.002508515052838902e+02 1.966609849072501106e+02 1.929798955956916018e+02 1.891776527124571601e+02 1.853271039808211640e+02 1.814710141982998266e+02 1.776740845122055816e+02 1.738588806972507541e+02 1.698359338676930292e+02 1.737406401523042803e+02 1.772509440949369832e+02 1.803714577307286220e+02 1.834067331400545129e+02 1.858965751570498526e+02 1.877138354209467934e+02 1.881878428058027737e+02 1.883305299002397817e+02 1.881031122722837665e+02 1.872787119467421917e+02 1.852241172373712743e+02 1.828275774094044266e+02 1.793890420247763018e+02 1.755308512698684069e+02 1.713597199131194202e+02 1.669623482551416487e+02 1.623944479731407569e+02 1.576929531626537369e+02 1.528859870106290941e+02 1.479973348372889177e+02 1.430482472773571487e+02 1.380579192435330071e+02 1.330429481252446919e+02 1.280162956126006861e+02 1.229843937143530042e+02 1.179428526623430287e+02 1.128727783985497695e+02 1.077331388553475193e+02 1.024455172119713211e+02 9.668304121781291371e+01 9.752845380899573513e+01 9.758944175858714232e+01 9.814177402358994584e+01 9.834019270566560067e+01 1.012328145922134297e+02 1.012682440882478545e+02 1.043513176257238939e+02 1.046389598124527538e+02 1.048774394660598688e+02 1.050553672753411405e+02 1.052516284731359519e+02 1.055214340800942097e+02 1.060241712114468697e+02 1.062214757279036235e+02 1.053648774843603064e+02 1.021129197673424471e+02 9.730705234511805202e+01 1.020258830900001215e+02 1.071044529183339620e+02 1.119991956927385388e+02 1.158511866973707498e+02 1.200499819799370300e+02 1.244965120809438730e+02 1.277344513147521354e+02 1.321789166914261671e+02 1.368015838848725707e+02 1.423404424260007772e+02 1.474551115969856312e+02 1.524389796265832899e+02 1.572700249946549889e+02 1.619345577505714004e+02 1.664008515307920959e+02 1.706220852940745090e+02 1.745303334069164691e+02 1.780187393545933787e+02 1.808934379847549394e+02 1.826899890220272766e+02 1.819695989707861088e+02 1.792919520912377607e+02 1.757785051504264118e+02 1.717695737788574775e+02 1.674329997415783282e+02 1.629174784021782045e+02 1.581383116613792765e+02 1.532529615893951416e+02 1.483080728368996688e+02 1.433443959161496082e+02 1.384257790249319271e+02 1.334767021428728526e+02 1.285826184982712732e+02 1.237668195332625203e+02 1.190494780848198104e+02 1.144433549785859583e+02 1.099455855622250908e+02 1.055077794739042503e+02 1.013760781368801247e+02
1.318340714522675228e+02 1.369250752444409898e+02 1.419890409875184218e+02 1.470178532926989590e+02 1.520108797422196005e+02 1.569721163472829630e+02 1.619085772755178425e+02 1.668207734092795249e+02 1.716669596401145839e+02 1.764326987782421838e+02 1.811151903073471203e+02 1.857079737152683663e+02 1.902165819497766961e+02 1.946908418746303369e+02 1.987588108107368612e+02 2.024074518203523496e+02 2.052722521566306852e+02 2.082491954774463068e+02 2.105584671856113061e+02 2.115653789401772542e+02 2.106525271226175562e+02 2.084627636562914290e+02 2.056829883422888656e+02 2.026290404755238796e+02 1.988533137172069019e+02 1.942231470027558657e+02 1.901133890296821107e+02 1.865293882730379664e+02 1.825480728967701793e+02 1.785850276581387845e+02 1.747182287646523662e+02 1.710244300802293367e+02 1.671598823698126921e+02 1.710656337574227734e+02 1.744438397532354088e+02 1.777424244546653540e+02 1.805993788668351101e+02 1.829783621528742117e+02 1.845198753713883377e+02 1.848625945341678687e+02 1.850569041790697895e+02 1.850227410826798007e+02 1.846314895620110121e+02 1.832998100300216890e+02 1.809368941454104629e+02 1.784411445472109392e+02 1.749375777317200118e+02 1.708636295849273381e+02 1.665539949179503196e+02 1.620735640140636917e+02 1.574535221713033195e+02 1.527190048359859702e+02 1.478931140803809967e+02 1.429971280961396189e+02 1.380502911486717323e+02 1.330693756267326648e+02 1.280678230117969463e+02 1.230554142490920810e+02 1.180383600374017448e+02 1.130205590088136489e+02 1.080068341078784186e+02 1.030101149773762472e+02 9.806882584779742729e+01 9.311152966916604612e+01 9.387951428730499970e+01 9.473747923634854828e+01 9.498568082833749315e+01 9.785323023886334681e+01 9.786116305877324351e+01 1.009222173853654851e+02 1.011860552007156855e+02 1.013893384081775650e+02 1.015151658347235184e+02 1.016440339696825959e+02 1.018398981642670691e+02 1.022654981869744404e+02 1.024334899461070734e+02 1.017387921303018885e+02 9.895503468201489738e+01 9.521213973514132078e+01 1.005571589283571541e+02 1.049479443799311582e+02 1.090428440971310380e+02 1.121021763635081214e+02 1.164200083658811877e+02 1.209930680079483380e+02 1.266796382662467693e+02 1.319203360725383334e+02 1.370303990056851546e+02 1.421536341228675440e+02 1.471985967929391279e+02 1.521397892025017882e+02 1.569499794042220060e+02 1.615995077214204514e+02 1.660504777158167542e+02 1.702517274105581180e+02 1.741298350616011135e+02 1.775684608518637333e+02 1.803499411691441026e+02 1.816044580515203961e+02 1.803258526934674819e+02 1.773076306896989252e+02 1.735434710323811771e+02 1.693273618838657626e+02 1.648065852116250483e+02 1.600769949790062299e+02 1.552498395640014621e+02 1.502403640946658356e+02 1.451839314445370519e+02 1.401195598664999977e+02 1.350822101899842096e+02 1.301296670141158813e+02 1.251941674222643002e+02 1.203547865777375563e+02 1.156336893145242186e+02 1.110485408672393675e+02 1.066096666878961798e+02 1.023100659404618256e+02 9.809492429110521527e+01
1.317313053349371899e+02 1.369651997973199684e+02 1.420778931536466700e+02 1.470806511914419730e+02 1.520044807070696891e+02 1.568773002795903722e+02 1.617343114241341766e+02 1.666902410514897497e+02 1.714238055086965460e+02 1.759968737874107774e+02 1.804681114359645733e+02 1.848308104872196225e+02 1.890310420824141318e+02 1.928111026659864251e+02 1.965726726795726051e+02 1.998216046969896240e+02 2.032422486861655386e+02 2.062530704602234835e+02 2.085590748641031666e+02 2.098112803385550933e+02 2.091307264815995097e+02 2.068430030389524745e+02 2.037380916476236621e+02 2.002231457911434234e+02 1.964271171532833762e+02 1.924034152924884893e+02 1.881472120043197833e+02 1.838058619068134192e+02 1.796520235201136302e+02 1.755472070413908057e+02 1.715634672622922210e+02 1.677631251457231656e+02 1.645838905781200765e+02 1.683495024824502764e+02 1.718463581586274245e+02 1.749532308803495084e+02 1.776750479171439281e+02 1.799876499495326527e+02 1.809647607976342272e+02 1.812826109393835168e+02 1.815241142866636892e+02 1.816417820080619094e+02 1.815121398978101865e+02 1.808505553320634078e+02 1.790227590112742746e+02 1.763778653547701936e+02 1.735752111756777083e+02 1.700288346979940570e+02 1.657793106517734998e+02 1.614349597536110821e+02 1.569466760207178027e+02 1.523287006134959540e+02 1.476033526300675192e+02 1.427935754209792947e+02 1.379205801983999606e+02 1.330034426892521537e+02 1.280590230600678012e+02 1.231022706110049114e+02 1.181469996796418656e+02 1.132079256845496076e+02 1.083046070679847332e+02 1.034682252717187225e+02 9.875346484445039152e+01 9.425877773978801599e+01 9.004258969578447136e+01 9.145176805294089206e+01 9.169915353431110816e+01 9.452574493398404343e+01 9.449315946875007910e+01 9.753260512634641088e+01 9.777532881378103014e+01 9.794064889433063570e+01 9.800788389676883128e+01 9.805921147465092247e+01 9.816511360969876421e+01 9.848824430584228651e+01 9.858573430877595456e+01 9.792490407312079981e+01 9.508156568947202913e+01 9.339759089714557660e+01 9.723436047030249085e+01 1.013442933769545959e+02 1.057843709486960506e+02 1.114503418814750262e+02 1.166526603195398621e+02 1.217542901500853532e+02 1.269158261834032118e+02 1.320493469306979080e+02 1.371390651632124218e+02 1.421839653807989237e+02 1.471622363983683783e+02 1.520486693249360144e+02 1.568142461092744497e+02 1.614247375556777513e+02 1.658374615900532376e+02 1.699956787947031103e+02 1.738176286177141776e+02 1.771710504141917966e+02 1.797961952650554736e+02 1.805322384691367859e+02 1.785579314047362800e+02 1.753990230088473936e+02 1.713788316804037777e+02 1.669538317386839026e+02 1.622431626820573456e+02 1.573347229904011044e+02 1.522979618031901339e+02 1.472243345814540305e+02 1.420402091024265019e+02 1.368666379144113989e+02 1.317320758576756532e+02 1.266655887842752435e+02 1.217194502528258937e+02 1.168390060111929358e+02 1.120997230670881493e+02 1.075180477175205169e+02 1.031101701595685540e+02 9.888808573784660894e+01 9.484919465823941209e+01
1.313736041612929171e+02 1.367981880476663719e+02 1.417949167745158832e+02 1.465680307893996144e+02 1.512486332550938073e+02 1.558728980005487017e+02 1.604490416444571395e+02 1.646814077035232344e+02 1.691007661757211338e+02 1.735302871618004303e+02 1.779037265523658391e+02 1.821759423558038975e+02 1.861608538674760496e+02 1.901201107257309388e+02 1.936694045796038210e+02 1.974259909621210909e+02 2.009204327688525211e+02 2.039803264835234415e+02 2.064911382265440523e+02 2.079763372801134835e+02 2.075796791757003916e+02 2.055594427759807274e+02 2.027437821508419233e+02 1.993936189828235968e+02 1.956709463178146677e+02 1.917095089823265539e+02 1.875978844320298720e+02 1.834090562934442232e+02 1.792294797661333519e+02 1.749921895252720390e+02 1.707783145443053741e+02 1.670775388031414082e+02 1.620524790257804852e+02 1.658524407698749030e+02 1.691224524729588268e+02 1.720601348049806063e+02 1.747000560527383470e+02 1.765275379546517058e+02 1.772196704849470166e+02 1.774899390559635037e+02 1.777695341901450092e+02 1.780044058085103700e+02 1.780774120539510648e+02 1.777455791956397775e+02 1.768522085279097666e+02 1.745933763775840077e+02 1.714765607929056443e+02 1.680401166696982500e+02 1.642834707120851760e+02 1.602410122585206977e+02 1.559767963587468671e+02 1.515392578059517348e+02 1.469649549170834462e+02 1.422837618478544925e+02 1.375210736183013864e+02 1.326988526697551265e+02 1.278361181928587627e+02 1.229491007928434669e+02 1.180511131768856785e+02 1.131520403077636416e+02 1.082570367145245456e+02 1.033634025581143874e+02 9.845339725834253386e+01 9.347924995600075704e+01 8.816912261959726038e+01 8.836285475219040109e+01 8.847220401148311453e+01 9.124328240589859718e+01 9.115510737410498621e+01 9.417920259204802846e+01 9.440776537236554589e+01 9.453405038844410058e+01 9.453699263399819586e+01 9.450155426502485057e+01 9.450138303576160581e+01 9.469439188542928321e+01 9.468680376015198874e+01 9.410629371681854138e+01 9.050809509667162445e+01 9.445453664084666912e+01 9.858837702416823845e+01 1.029513872516423163e+02 1.075450476567059894e+02 1.124066014741762416e+02 1.173567269742549826e+02 1.223478681822926148e+02 1.273679334012789042e+02 1.323927648816051601e+02 1.374011774796965426e+02 1.423736893260925456e+02 1.472878817003855545e+02 1.521178901308643390e+02 1.568333964413595822e+02 1.613978434645989637e+02 1.657653580547820980e+02 1.698749035158594438e+02 1.736379737217648369e+02 1.769082194316521282e+02 1.793809771950297716e+02 1.796603277340128955e+02 1.771123970187831844e+02 1.734664471263453720e+02 1.692630981114031101e+02 1.646356968560338601e+02 1.597235585229573758e+02 1.546186011028194685e+02 1.493928907927224259e+02 1.441013543755328783e+02 1.387981157388660733e+02 1.335078984268135116e+02 1.282656077528455398e+02 1.231014844799944115e+02 1.180423772099505868e+02 1.131195838037260870e+02 1.083493672112998212e+02 1.037521090942094588e+02 9.934679341552792664e+01 9.515236784145068327e+01 9.119093090596990692e+01
1.300137798755868062e+02 1.344616063067744847e+02 1.390874963227436467e+02 1.437052855385569217e+02 1.482845480127245992e+02 1.528304874590199631e+02 1.571590644697120638e+02 1.616117909450807986e+02 1.660502321899627418e+02 1.704636968993499977e+02 1.748189492503095437e+02 1.789699848281823336e+02 1.831153429359324036e+02 1.869350531071901287e+02 1.909683104838915426e+02 1.948281283437679861e+02 1.984031258835393885e+02 2.016581348179701649e+02 2.043517007573206854e+02 2.060704436154634038e+02 2.059391700023527108e+02 2.041237084888818174e+02 2.016926087349154386e+02 1.985192302950485157e+02 1.948048814203102097e+02 1.908675936672623550e+02 1.867678455385309348e+02 1.825825622816487055e+02 1.786269041139537990e+02 1.739712539502676805e+02 1.692438133884895421e+02 1.641633354529770941e+02 1.597074239095355779e+02 1.632490025861991114e+02 1.662855109747578979e+02 1.690724318738147645e+02 1.715014530805760558e+02 1.726554002353455246e+02 1.732568238521261605e+02 1.735104993805604749e+02 1.738262366966956449e+02 1.741519227649625066e+02 1.743875832638421457e+02 1.743296030698467973e+02 1.738888938317646762e+02 1.729105253509344777e+02 1.708097607635016857e+02 1.677449605156227790e+02 1.642197457719542797e+02 1.603588423433388357e+02 1.562410077369868020e+02 1.519183851636622080e+02 1.474342170628585507e+02 1.428233486238422074e+02 1.381148722983025152e+02 1.333336632280084757e+02 1.285012288480774600e+02 1.236361128956807391e+02 1.187540196755098378e+02 1.138677907352636112e+02 1.089874404614916727e+02 1.041206894120210649e+02 9.927490956801061373e+01 9.446216591721925226e+01 8.971166660481020472e+01 8.491488722945838674e+01 8.526818951812556691e+01 8.801301306073062847e+01 8.783666045492587671e+01 9.086066245197578439e+01 9.108570883615611535e+01 9.117184157646690323e+01 9.110491851843580946e+01 9.097505759085107968e+01 9.085341297783524794e+01 9.088609779764226460e+01 9.071364285808782313e+01 9.007568185186639198e+01 8.867754275830847632e+01 9.396696543305277771e+01 9.881420528954153326e+01 1.035675622464112564e+02 1.083283876681233124e+02 1.131456459563806476e+02 1.180159423551504858e+02 1.229268928106316139e+02 1.278646821929484645e+02 1.328124713371838652e+02 1.377515665744943192e+02 1.426616084701927036e+02 1.475198009004110133e+02 1.522999035542250397e+02 1.569706321315459547e+02 1.614931871162916366e+02 1.658190737344648653e+02 1.698843688668634684e+02 1.735965091751058083e+02 1.768008119859477461e+02 1.791671585581970874e+02 1.792419134035645527e+02 1.767262597984092736e+02 1.731797587282553081e+02 1.690663570568686112e+02 1.645802962462067001e+02 1.598409216893106191e+02 1.549309214679476838e+02 1.499084145927734824e+02 1.448211816125999007e+02 1.397089228849215772e+02 1.346032231668949066e+02 1.295313822708962164e+02 1.245171631520378384e+02 1.195822400293391752e+02 1.147481731695913965e+02 1.100331708585805899e+02 1.054534179419414386e+02 1.010224555622395712e+02 9.675100590054199756e+01 9.264737836441543095e+01
