ncols 119
nrows 32
xllcorner 1740
yllcorner 590
cellsize 10.0
2.037294886669541825e+02 2.067236874487882119e+02 2.099048069121977846e+02 2.131283161907701071e+02 2.163807618130310857e+02 2.196615251955780082e+02 2.229708261423402007e+02 2.263084816590273363e+02 2.296738539128594425e+02 2.330657331377496462e+02 2.364821493525020912e+02 2.399201922577045423e+02 2.433758419722636290e+02 2.468439439307910561e+02 2.503171759776508623e+02 2.538484100820776064e+02 2.572786220933999175e+02 2.605699931793474775e+02 2.636380210391217815e+02 2.663620604458328671e+02 2.685571101358617057e+02 2.698647443299395263e+02 2.700709122243217166e+02 2.699507113896245301e+02 2.688543879494218345e+02 2.672078646644042124e+02 2.651850283672682735e+02 2.627655300409468282e+02 2.616209039259728115e+02 2.609238842657832720e+02 2.603602318737436008e+02 2.599268622761431402e+02 2.596352632505695510e+02 2.593509859870776495e+02 2.589995414386096968e+02 2.583807092730502859e+02 2.572037596103911028e+02 2.550253364948120804e+02 2.524012195345566170e+02 2.494375690866683897e+02 2.464780495795499178e+02 2.434489482389753334e+02 2.403743175629330153e+02 2.372729442759651874e+02 2.341597867071500900e+02 2.310466233821034052e+02 2.279425510439754987e+02 2.248543200650303504e+02 2.217865644940026471e+02 2.187419439225370468e+02 2.157211935310590434e+02 2.127230761354908282e+02 2.097443042006899816e+02 2.067798132642850817e+02 2.038242137431947185e+02 2.008637888563736738e+02 1.976314306824187952e+02 1.964396035538623551e+02 1.964489185451388948e+02 1.968543550741387094e+02 1.974724607622363521e+02 2.002768086367366891e+02 2.014689298254379821e+02 2.026765279828576070e+02 2.037037211687187437e+02 2.046026164173810855e+02 2.053963757698557515e+02 2.060916519861927156e+02 2.066866999381192045e+02 2.071764223177220856e+02 2.075549307897840379e+02 2.078163930259838423e+02 2.079560736420406215e+02 2.079715699766644548e+02 2.076976728339259921e+02 2.069555188895106994e+02 2.047538902794876208e+02 2.020309501553745406e+02 1.989789289144187876e+02 1.956098214938609772e+02 1.947950858338669491e+02 1.943691827263037624e+02 1.943302813204299184e+02 1.946221459217589143e+02 1.952375327503903009e+02 1.961753723256123862e+02 1.978272031913784303e+02 2.013732793947319522e+02 2.046295790912630821e+02 2.078186579690338363e+02 2.109825433276139677e+02 2.141369438391303106e+02 2.172895582556013778e+02 2.204439314323745975e+02 2.236007979123506288e+02 2.267584592180578795e+02 2.299363198866072366e+02 2.331000727859271819e+02 2.361514422058492642e+02 2.390153371752824398e+02 2.415985891287983804e+02 2.437481002037711733e+02 2.451884422800454217e+02 2.452066753540840693e+02 2.446413861903684221e+02 2.426336350367040495e+02 2.399898943231346493e+02 2.369447212003213679e+02 2.336369937121850171e+02 2.301598527973423245e+02 2.265814293866376374e+02 2.229548145273018918e+02 2.193225071282137719e+02 2.157510068390359379e+02 2.122138066662087112e+02 2.087142395999007363e+02 2.052581929106246434e+02 2.019329177982545502e+02 1.984927152703339459e+02
1.987557887449556802e+02 2.020205570592015079e+02 2.053258379295275518e+02 2.086568998843252700e+02 2.120142011456141518e+02 2.153993257416791209e+02 2.188130718656078386e+02 2.222559636254363511e+02 2.257285244275773834e+02 2.292311887285737555e+02 2.327640633468117812e+02 2.363266743389682176e+02 2.399179111535993911e+02 2.435349889430628423e+02 2.472322772300441613e+02 2.508694995993243992e+02 2.544220903896041079e+02 2.578276510525849972e+02 2.610010737499496258e+02 2.638173269338963109e+02 2.660798325733888987e+02 2.673579492939474562e+02 2.675438866707032730e+02 2.674167876889108584e+02 2.662704535760605040e+02 2.645641866726648459e+02 2.625034020044559497e+02 2.602865771945571396e+02 2.579545718250080881e+02 2.574904810345784085e+02 2.569420748030633490e+02 2.565232218170913825e+02 2.562618306185675578e+02 2.560392568728479432e+02 2.557864797963725323e+02 2.553175037651345178e+02 2.543886288671786247e+02 2.524293807100101787e+02 2.498162094666176927e+02 2.468526135030595299e+02 2.436275116676415280e+02 2.404496378304898769e+02 2.372372500538569966e+02 2.340083162258901552e+02 2.307767396347286706e+02 2.275534857156834505e+02 2.243469248538441434e+02 2.211631475657320323e+02 2.180061760928724652e+02 2.148781088128185957e+02 2.117791953607392372e+02 2.087078255282556825e+02 2.056604342746144880e+02 2.026314885714766376e+02 1.996145362342436158e+02 1.966110327832260225e+02 1.937223525906803161e+02 1.907571913154849312e+02 1.911897559619441722e+02 1.916725880679972818e+02 1.924347758739961307e+02 1.954682957514748125e+02 1.971534929647729939e+02 1.984588882269260353e+02 1.994904397818640689e+02 2.004066998065539451e+02 2.012253838768426988e+02 2.019485104768542953e+02 2.025716420446406971e+02 2.030886112035994699e+02 2.034940999795047674e+02 2.037836987210570214e+02 2.039537376102413475e+02 2.040034898204558829e+02 2.037802231553525871e+02 2.031213740646045949e+02 2.009150523955623839e+02 1.981445174812061225e+02 1.949864089372455851e+02 1.912852500212684390e+02 1.898233076977595886e+02 1.894167293979779458e+02 1.893938688395064958e+02 1.896937119678210593e+02 1.903116764602542048e+02 1.910212589350340977e+02 1.943288497697546120e+02 1.975698244787957094e+02 2.008563352663975081e+02 2.041204392907343390e+02 2.073706157407353601e+02 2.106177605117621852e+02 2.138697615441530786e+02 2.171317791983410359e+02 2.204066109424061608e+02 2.237168471475531817e+02 2.270360288392782024e+02 2.302794180148721068e+02 2.333914611596396185e+02 2.363056946484244634e+02 2.389204977860139536e+02 2.410757140080187071e+02 2.424753554758130463e+02 2.423814632709195109e+02 2.417553449867197912e+02 2.396311775875627461e+02 2.368782539970104324e+02 2.337255770445971450e+02 2.303079338898506307e+02 2.267154403293939708e+02 2.230140655735058886e+02 2.192551653111814858e+02 2.154806173509920200e+02 2.117250475096139439e+02 2.080472564215306477e+02 2.044234287968833428e+02 2.008617998161926721e+02 1.973612269521128439e+02 1.936276835430032293e+02
1.938923781113177540e+02 1.973359610759240752e+02 2.007552693809357436e+02 2.041910000704218646e+02 2.076532052762196088e+02 2.111441413094680968e+02 2.146647124590649298e+02 2.182160802825890755e+02 2.217999665964458700e+02 2.254184990938269380e+02 2.290738958008793134e+02 2.327683058794739850e+02 2.365026796098031525e+02 2.403318534914060649e+02 2.441310215698557329e+02 2.478851116242719570e+02 2.515472896618295806e+02 2.550560808943154143e+02 2.583250553755891019e+02 2.612236470580646710e+02 2.635431119868198948e+02 2.647894441050605678e+02 2.649730232178350775e+02 2.648525686401753774e+02 2.636640746885240674e+02 2.619010009918823130e+02 2.597585376789315887e+02 2.573536183652378213e+02 2.547427872925594272e+02 2.540347579070432857e+02 2.534529738080549350e+02 2.530360563412318697e+02 2.527954825732145707e+02 2.526279950270017878e+02 2.524723595686411954e+02 2.521540091319943713e+02 2.514579035565133438e+02 2.496954620142127794e+02 2.472058704143037460e+02 2.442168729265155491e+02 2.409655972505558168e+02 2.375187611789149855e+02 2.341540537530784150e+02 2.307849364295019541e+02 2.274243505289330187e+02 2.240820402501670401e+02 2.207654926088883940e+02 2.174800504157844045e+02 2.142290986026885946e+02 2.110141969206022168e+02 2.078351762660597331e+02 2.046901647506224151e+02 2.015754627023827936e+02 1.984850864604627532e+02 1.954094942487299420e+02 1.923319551081368104e+02 1.892178808205133862e+02 1.859723040205519453e+02 1.859151843849474517e+02 1.863992515568932617e+02 1.873680394125192095e+02 1.898907072159215090e+02 1.933783753475515255e+02 1.942514935797815383e+02 1.952452621332108436e+02 1.961752451314727921e+02 1.970187229503225694e+02 1.977705382473178872e+02 1.984222283724526221e+02 1.989659206609555326e+02 1.993970280737492828e+02 1.997128949146679702e+02 1.999112305463188477e+02 1.999929718450597989e+02 1.998158214118614069e+02 1.992311618624706853e+02 1.970268826809720508e+02 1.942312353844441475e+02 1.910822492273199202e+02 1.878592152202854777e+02 1.844210437689871469e+02 1.843616859480285939e+02 1.843701132024800700e+02 1.846759110166447613e+02 1.852951600031666999e+02 1.866662246424338321e+02 1.903899335837120077e+02 1.937873379721362710e+02 1.971386565314474524e+02 2.004736953394268824e+02 2.038049427668397584e+02 2.071426181202876933e+02 2.104950572312365864e+02 2.138686182772110271e+02 2.172883348559631145e+02 2.207339619202531935e+02 2.241312640496516906e+02 2.274383092985189307e+02 2.306055800395077711e+02 2.335609146763744661e+02 2.361998310177417579e+02 2.383546468296152341e+02 2.397081182853421524e+02 2.394878029078822124e+02 2.387991545755125742e+02 2.365610724533929101e+02 2.337061690604265038e+02 2.304559883741035264e+02 2.269403870286599272e+02 2.232461255411690502e+02 2.194367987698311140e+02 2.155620287132235546e+02 2.116622313723708828e+02 2.077715139538672702e+02 2.039190376267101215e+02 2.001586064465804498e+02 1.964729949313403097e+02 1.928908370365517158e+02 1.895548710842986964e+02
1.891991136397530511e+02 1.927077414360621788e+02 1.962170145798550891e+02 1.997548028355732015e+02 2.033231872607764785e+02 2.069219900331627002e+02 2.105519048738997867e+02 2.142149144807284529e+02 2.179141592199643469e+02 2.216536039554213744e+02 2.254378006543602453e+02 2.292706463994526302e+02 2.332069233224627567e+02 2.371345114057886576e+02 2.410453251677697324e+02 2.449038289423153003e+02 2.486647598152949570e+02 2.522667028277153918e+02 2.556202361042141433e+02 2.585871847439037765e+02 2.609531514822458576e+02 2.621800428484588110e+02 2.623745132625128917e+02 2.622737690027628332e+02 2.610547588086768087e+02 2.592455491781717001e+02 2.570406485035947526e+02 2.545297678716160874e+02 2.516038390761673043e+02 2.504710390505447890e+02 2.499001524375747749e+02 2.494825207791515993e+02 2.492518667755994954e+02 2.491318263154654460e+02 2.490729898546288439e+02 2.489054204470478453e+02 2.484130057927267501e+02 2.469332433680259271e+02 2.444965919688586666e+02 2.415809816559466867e+02 2.382807968096981028e+02 2.347889557128163460e+02 2.311554875743368598e+02 2.276321953990822351e+02 2.241303065117927815e+02 2.206586806938649374e+02 2.172235404773212224e+02 2.138293353192954385e+02 2.104787078724467619e+02 2.071726158334484182e+02 2.039104417786852537e+02 2.006900838431342891e+02 1.975079364968503626e+02 1.943585241839545006e+02 1.912330440351792902e+02 1.881137165016748440e+02 1.849453502160598930e+02 1.813898489344213658e+02 1.805060013209386796e+02 1.809916963862489752e+02 1.822005990316432644e+02 1.859151276919749876e+02 1.888750587758395909e+02 1.899396877255220204e+02 1.909684591786491694e+02 1.919230484691527749e+02 1.927939339767332854e+02 1.935767440332925560e+02 1.942582213473691297e+02 1.948282081764226348e+02 1.952833790019484184e+02 1.956234521707928593e+02 1.958478888773596509e+02 1.959590570772929254e+02 1.958236653283513533e+02 1.953047244703321894e+02 1.931043191329152364e+02 1.902804007002191611e+02 1.870667492227176183e+02 1.835879952708350800e+02 1.798412099636608446e+02 1.793004231304386167e+02 1.792876352968319509e+02 1.795893935088519981e+02 1.799326824780897311e+02 1.833149681452050856e+02 1.866708823724443107e+02 1.900848172655468886e+02 1.934899892577638525e+02 1.968925227907790543e+02 2.003030663479687234e+02 2.037317922445793670e+02 2.071875923892848448e+02 2.106972549498720468e+02 2.142455320582909906e+02 2.177666314574739204e+02 2.212285245018044861e+02 2.245931663185131129e+02 2.278068560188460765e+02 2.307961754624340642e+02 2.334532817076623701e+02 2.356021071871302013e+02 2.369011181275183731e+02 2.365378104839852824e+02 2.357753989407746928e+02 2.334262238035952919e+02 2.304791707902546420e+02 2.271437015644494579e+02 2.235433347916990385e+02 2.197611437356194699e+02 2.158583777404844000e+02 2.118829739346462020e+02 2.078740032148877788e+02 2.038641649729511869e+02 1.998814854761091340e+02 1.959501916087742472e+02 1.921187536360958177e+02 1.883742821118071902e+02 1.847496049691287681e+02
1.845838173211939193e+02 1.881210308846355304e+02 1.917250383350155971e+02 1.953695297383580680e+02 1.990470885439102915e+02 2.027559480494259958e+02 2.064973820878379911e+02 2.102747723665609101e+02 2.140930453674737066e+02 2.179583587025431939e+02 2.218767892952164686e+02 2.259028107781643655e+02 2.299345893125343423e+02 2.339692906400377410e+02 2.379798026706127700e+02 2.419323635522189306e+02 2.457823855066565102e+02 2.494666377193090625e+02 2.528897880790520958e+02 2.559109820766476844e+02 2.583221179248913018e+02 2.595454702676593683e+02 2.597585395826525883e+02 2.596832075950751459e+02 2.584547407561743739e+02 2.566091886942914471e+02 2.543677208308642719e+02 2.518562463621368863e+02 2.492474054738904385e+02 2.466032115374854357e+02 2.463042192791601508e+02 2.458792221960376310e+02 2.456423905205261349e+02 2.455602139024472876e+02 2.456013291325282069e+02 2.455988489424116779e+02 2.452780732116001161e+02 2.441469684022053741e+02 2.417823057602927008e+02 2.388776800319621145e+02 2.356151575547706614e+02 2.320578945294145683e+02 2.283655408016170725e+02 2.245759625029811843e+02 2.209194274758929168e+02 2.173066092299482648e+02 2.137430044434558454e+02 2.102318068662574717e+02 2.067747725865980328e+02 2.033721183746009729e+02 2.000226457216256506e+02 1.967238925946527104e+02 1.934722916793933223e+02 1.902632233264561137e+02 1.870907193048897170e+02 1.839464807921779084e+02 1.808215304081908528e+02 1.777935419260032006e+02 1.746915592046806012e+02 1.753921759020605009e+02 1.772967437998440516e+02 1.812844880714539215e+02 1.844355606356910755e+02 1.856037927396852751e+02 1.866800071038202020e+02 1.876643382228370740e+02 1.885649971116888537e+02 1.893826105267076798e+02 1.900959694087889886e+02 1.906918002479641245e+02 1.911691830360987865e+02 1.915311892194017389e+02 1.917794394310044481e+02 1.919174658735325920e+02 1.918197509003191215e+02 1.913586655930356528e+02 1.891630047420607639e+02 1.863155478666828060e+02 1.830598835994901208e+02 1.794990022463306332e+02 1.753979244673659537e+02 1.740876227053235539e+02 1.741590884184473111e+02 1.744895095684776152e+02 1.756200304562149199e+02 1.794850773014308345e+02 1.829927679648031926e+02 1.864579192062927575e+02 1.899182641711866211e+02 1.933879944063899643e+02 1.968787402082435278e+02 2.004011544689041955e+02 2.039831869052298998e+02 2.076136305407897282e+02 2.112336538543949302e+02 2.148186831294076171e+02 2.183388773231442315e+02 2.217529365925709897e+02 2.250066235619333099e+02 2.280249606832663005e+02 2.306963731979679437e+02 2.328353524963975190e+02 2.340711788057721776e+02 2.335403106903020500e+02 2.326621011946567137e+02 2.302147224563315717e+02 2.271947123714322458e+02 2.237916415916344590e+02 2.201224548832695689e+02 2.162672679925026671e+02 2.122856329298686830e+02 2.082242693766268644e+02 2.041212135082182044e+02 2.000081277825865413e+02 1.959114662914103064e+02 1.918529043773329761e+02 1.878484523970985833e+02 1.839322333403043501e+02 1.800783448909654396e+02
1.799145672116980847e+02 1.835781338249308590e+02 1.872988341966426162e+02 1.910571437680682152e+02 1.948465042206823341e+02 1.986666101024635225e+02 2.025207148513294442e+02 2.064143545301434415e+02 2.103548084348104510e+02 2.143497428999650936e+02 2.184532545581027989e+02 2.225717856486950268e+02 2.267064981816030240e+02 2.308366842874634699e+02 2.349369844384524697e+02 2.389745265533398140e+02 2.429034841262972861e+02 2.466553950940096058e+02 2.501325486321651681e+02 2.532019565256060503e+02 2.556572163006412381e+02 2.569006006863323819e+02 2.571365504048210937e+02 2.570900217880543437e+02 2.558597097384456163e+02 2.539937525409362991e+02 2.517152122909500918e+02 2.491434576409990314e+02 2.463481829768271609e+02 2.433728130299721784e+02 2.427560849766367141e+02 2.422431306689662733e+02 2.419736738372753848e+02 2.419170669699513212e+02 2.420621587060718980e+02 2.422598416729009045e+02 2.421395296173345173e+02 2.412558258868185135e+02 2.390773869196650878e+02 2.361866288834331442e+02 2.329054841360690489e+02 2.293601670662975494e+02 2.255907332658047153e+02 2.217321314566107731e+02 2.178133845858509972e+02 2.140466784546395047e+02 2.103431707575950611e+02 2.067055062323327661e+02 2.031342074448300252e+02 1.996285918571514344e+02 1.961866708357554501e+02 1.928053420875378379e+02 1.894806755401280611e+02 1.862083229102241262e+02 1.829841025483741532e+02 1.798049907380944603e+02 1.766706767361313268e+02 1.735691038021448378e+02 1.701256426311529140e+02 1.694248850486555114e+02 1.733793671952816169e+02 1.768231399225213920e+02 1.800294028087341474e+02 1.812766406095260265e+02 1.823978845621850269e+02 1.834109992578756874e+02 1.843423581945795036e+02 1.852008645263556730e+02 1.859492333551038996e+02 1.865701563961505371e+02 1.870674250765019337e+02 1.874488699628173265e+02 1.877186536147409015e+02 1.878811964057792068e+02 1.878176085095511212e+02 1.874072585666087605e+02 1.852156723659925319e+02 1.823457898609699441e+02 1.790626370934738532e+02 1.755386095697658675e+02 1.720440446772372525e+02 1.684414757131000044e+02 1.690118359673784880e+02 1.690802678740134581e+02 1.724860747311656439e+02 1.759133113113020386e+02 1.794122644899739782e+02 1.829155237977515185e+02 1.864304271748219435e+02 1.899688087215552628e+02 1.935425495853051245e+02 1.971804004035608102e+02 2.008745087148436426e+02 2.045719192359839838e+02 2.082538352165253741e+02 2.118965559076429201e+02 2.154675740840492324e+02 2.189253635214943188e+02 2.222149924007949551e+02 2.252599565351848412e+02 2.279452502543633727e+02 2.300762733156640820e+02 2.312495452978035928e+02 2.305094832322903926e+02 2.293561747146803498e+02 2.268964149765996012e+02 2.238455452910692998e+02 2.204009116533840711e+02 2.166820778215625296e+02 2.127699542718141004e+02 2.087241267920664995e+02 2.045909839449035701e+02 2.004080906598316858e+02 1.962066170024530720e+02 1.920125194706513128e+02 1.878464830031621773e+02 1.837218151821120102e+02 1.796363560495117042e+02 1.755781886047466003e+02
1.753076904674087473e+02 1.791182634537266836e+02 1.829655505466853356e+02 1.868404942288813118e+02 1.907414112480519464e+02 1.946717466049937002e+02 1.986379812858203309e+02 2.026486124865307659e+02 2.067127055433334704e+02 2.108841365469440063e+02 2.150761051670457107e+02 2.192928719294749840e+02 2.235186979990042460e+02 2.277345318297922461e+02 2.319159041856935630e+02 2.360289427579155301e+02 2.400228691529195544e+02 2.438263503811951978e+02 2.473488042217466614e+02 2.504607299968386656e+02 2.529369944572141264e+02 2.542678917497059956e+02 2.545205913117035550e+02 2.544958623858780413e+02 2.532698213926162794e+02 2.513941934715008131e+02 2.490988521469392936e+02 2.464950480842721561e+02 2.436123087289975331e+02 2.402653562221094319e+02 2.391445429466206463e+02 2.385657731528437751e+02 2.382448721108994221e+02 2.381997913887788627e+02 2.384505272208805025e+02 2.389112148941925682e+02 2.390176803314106735e+02 2.383568204452467398e+02 2.363083622357963804e+02 2.335246277857804387e+02 2.302193496239513593e+02 2.266355091501141885e+02 2.228592402362318694e+02 2.189154325767990201e+02 2.149204700791160576e+02 2.108968372012662655e+02 2.070413270659450404e+02 2.032661985139243370e+02 1.995715868432388902e+02 1.959555736473036234e+02 1.924151818083998080e+02 1.889463287447408959e+02 1.855441573194843272e+02 1.822035927205234316e+02 1.789203059304901160e+02 1.756925374391262551e+02 1.725252421789379866e+02 1.694434814573534425e+02 1.665997365673297281e+02 1.639045640777642348e+02 1.684161445505741597e+02 1.722800392116356250e+02 1.756523026527242735e+02 1.769766445458836586e+02 1.781355648224343042e+02 1.791713924138862524e+02 1.801322901897394502e+02 1.810422623138229312e+02 1.818299381152658611e+02 1.824743040875199824e+02 1.829883849542005123e+02 1.833865617462706439e+02 1.836757318515444410e+02 1.838608943326394467e+02 1.838288032566483992e+02 1.834635059915334523e+02 1.812748454740929844e+02 1.783781467452045320e+02 1.750476465365218530e+02 1.714478466031431196e+02 1.677034409840936178e+02 1.638019099664375915e+02 1.640245395483074731e+02 1.649101662773554722e+02 1.688252465180507613e+02 1.723788791364549411e+02 1.759124004595749113e+02 1.794590799529144647e+02 1.830311705666315731e+02 1.866412929430733527e+02 1.903189393711170396e+02 1.940592925191270410e+02 1.978145677722698395e+02 2.015705959274829127e+02 2.053084602916445363e+02 2.090021703571834735e+02 2.126190722103949611e+02 2.161172693781695671e+02 2.194411920091192485e+02 2.225133524574253556e+02 2.252173179336318185e+02 2.273570511969446102e+02 2.285150405912064855e+02 2.280145555421884467e+02 2.254184071694626539e+02 2.234738055378876425e+02 2.204352264477209360e+02 2.169769871337960012e+02 2.132278099283881829e+02 2.092746334522497023e+02 2.051788316496966331e+02 2.009873783781947338e+02 1.967378498297210001e+02 1.924613446005003823e+02 1.881840875276851079e+02 1.839280772483245983e+02 1.797103279457492988e+02 1.755375403579674867e+02 1.713741927081219103e+02
1.708244367808762547e+02 1.747802659309690796e+02 1.787529646260274490e+02 1.827408504189432392e+02 1.867487262961733165e+02 1.907852969190304862e+02 1.948611960860284569e+02 1.989872892293875282e+02 2.032176692539032956e+02 2.074713694431106319e+02 2.117551848106838293e+02 2.160574097901547646e+02 2.203639575767537053e+02 2.246566427594207198e+02 2.289100756069960596e+02 2.330855086961855136e+02 2.371285744927945700e+02 2.409736882948520247e+02 2.445336321760067904e+02 2.476617447290145435e+02 2.501497234362090865e+02 2.516614292490714035e+02 2.519228024754490889e+02 2.519005205210447684e+02 2.506766377765739833e+02 2.487997687510110438e+02 2.465064221741943982e+02 2.439186827774629478e+02 2.411097050094111864e+02 2.381954794316444293e+02 2.352544681562394828e+02 2.348512735087423948e+02 2.344516439516655169e+02 2.343984600202333866e+02 2.347398326116346823e+02 2.355920589538895911e+02 2.359457245087736226e+02 2.354776061212289733e+02 2.335492057293537584e+02 2.308200454234533652e+02 2.275738655733414362e+02 2.239415119399342586e+02 2.201131894730023077e+02 2.161485906067964891e+02 2.120628786806699395e+02 2.079581953239986660e+02 2.038520312559487024e+02 1.999278883961279405e+02 1.960994581492946907e+02 1.923645483757041745e+02 1.887188639686478666e+02 1.851570802806935490e+02 1.816728907258957406e+02 1.782595477144718359e+02 1.749108116262863746e+02 1.716226060969629827e+02 1.683960377496292722e+02 1.652434396645912784e+02 1.621974980557382935e+02 1.591607852961627430e+02 1.637762587443093878e+02 1.678236869346591504e+02 1.713345179417624706e+02 1.727199780817256283e+02 1.739027978719322789e+02 1.749497851455400337e+02 1.759352297400277507e+02 1.769170115898261315e+02 1.777490299215549783e+02 1.784130637313225805e+02 1.789397832691871315e+02 1.793518356862792587e+02 1.796585198712458578e+02 1.798650223225104412e+02 1.798631429122483496e+02 1.795396614020795596e+02 1.773548853280707363e+02 1.744298797406117671e+02 1.710458054902216816e+02 1.673604718891906202e+02 1.634680145530124946e+02 1.593374151634725422e+02 1.587629158219596093e+02 1.620192522964794364e+02 1.654001784782815321e+02 1.689316180357863004e+02 1.724977512628153988e+02 1.760913399772518915e+02 1.797236990225453042e+02 1.834254805125043220e+02 1.871951411769914557e+02 1.909898196333971043e+02 1.947992698183175548e+02 1.986084663688420449e+02 2.023964384194148067e+02 2.061370083495471590e+02 2.097972004772400396e+02 2.133346766689404319e+02 2.166933436380718376e+02 2.197952618673940322e+02 2.225237853119518547e+02 2.247341644419526574e+02 2.257096211608613885e+02 2.251245707840382693e+02 2.228537348672527116e+02 2.195518487765762927e+02 2.169891108555002006e+02 2.135296704687887939e+02 2.097672976868292949e+02 2.057870275600623415e+02 2.016544097156354951e+02 1.974171860030561163e+02 1.931131738214740778e+02 1.887733963808233284e+02 1.844242713091796873e+02 1.800891454204268314e+02 1.757899044069710328e+02 1.715502583426562637e+02 1.674101169361447035e+02
1.665051691114420009e+02 1.705975488858295535e+02 1.746850938728568678e+02 1.787748228782876652e+02 1.828802700642318939e+02 1.870162881742648437e+02 1.911966505670088168e+02 1.954763355680057941e+02 1.997798222477671004e+02 2.041161319245027244e+02 2.084770981315559197e+02 2.128529297145794033e+02 2.172306137060929814e+02 2.215912407454909498e+02 2.259046524311539486e+02 2.301278362327678337e+02 2.342106970045811067e+02 2.380902946608532318e+02 2.416634061016181079e+02 2.447944922571215614e+02 2.473528683676760807e+02 2.490662068622542904e+02 2.493470392346372080e+02 2.492978422815301087e+02 2.480645148930484538e+02 2.461880854542956456e+02 2.439049148594597796e+02 2.413419038021961569e+02 2.385696264186715609e+02 2.355963714867512522e+02 2.321637657433337267e+02 2.311610986043959031e+02 2.305852415549168200e+02 2.304993781903436343e+02 2.308512737777765835e+02 2.324608924716594913e+02 2.329659008516388212e+02 2.326435106102304360e+02 2.308199399922756072e+02 2.281316303473298888e+02 2.248989402095870673e+02 2.212949684839863380e+02 2.174019696724398329e+02 2.133757691097248994e+02 2.092586812202792430e+02 2.050596294740216194e+02 2.008695496762555308e+02 1.967019666200536676e+02 1.927287300879829104e+02 1.888650665065055705e+02 1.851064299921962402e+02 1.814459454208135583e+02 1.778755447616694312e+02 1.743861477912020064e+02 1.709684663718623483e+02 1.676143027472138272e+02 1.643183380128817532e+02 1.610797236678587581e+02 1.578989136848676651e+02 1.546706135131447866e+02 1.593414630189422780e+02 1.634926178355871116e+02 1.670992879944351159e+02 1.685183141567895575e+02 1.697057381581832090e+02 1.707457194753406213e+02 1.717401204803890948e+02 1.728387469852179095e+02 1.737177313547884694e+02 1.743929952208717964e+02 1.749267655394351664e+02 1.753498843689153546e+02 1.756726390289289554e+02 1.758998688135360169e+02 1.759285848908099581e+02 1.756469516326112057e+02 1.734706522330809264e+02 1.705200192592861015e+02 1.670848407536725801e+02 1.633260420812925702e+02 1.593426225774137208e+02 1.551364805154083797e+02 1.548177234919318721e+02 1.583993561162185699e+02 1.619685840236296883e+02 1.655622450574696813e+02 1.691716093744109344e+02 1.728137978762393345e+02 1.765243132386170828e+02 1.803063339948269288e+02 1.841222526946338292e+02 1.879654592466599468e+02 1.918242808954360044e+02 1.956817565283421914e+02 1.995166134868331369e+02 2.033022759452977937e+02 2.070053014778151805e+02 2.105828593584155044e+02 2.139784670048921953e+02 2.171137380684882601e+02 2.199122838259044670e+02 2.221160887203727725e+02 2.228674110709441152e+02 2.222413035732957098e+02 2.199269374331735776e+02 2.168832928727843239e+02 2.130975161192797032e+02 2.100787704835327645e+02 2.063065665583957013e+02 2.023127724116382069e+02 1.981548676159767695e+02 1.938835643582919772e+02 1.895364669473627259e+02 1.851442881491525156e+02 1.807329169367349095e+02 1.763254981444088116e+02 1.719446852362511322e+02 1.676162301255712634e+02 1.633762287869800502e+02
1.623873802208439088e+02 1.665983014395684734e+02 1.707777268685805723e+02 1.749507588670247458e+02 1.791410234089392191e+02 1.833671333795563783e+02 1.876855831918697390e+02 1.920260536903935531e+02 1.963994219535534285e+02 2.008007554773449783e+02 2.052243982434461316e+02 2.096623080415401716e+02 2.141013971873862261e+02 2.185184713392958429e+02 2.228787891384317845e+02 2.271423605728116684e+02 2.312608384230460388e+02 2.351561735433606941e+02 2.387338774981505765e+02 2.419245122672843422e+02 2.445973418423688486e+02 2.464731647626787776e+02 2.467940637057143078e+02 2.466617903666908944e+02 2.454091365532506188e+02 2.435311446262807635e+02 2.412597148941391936e+02 2.387263766116101635e+02 2.360175623060726480e+02 2.331962490016674394e+02 2.303409529842152779e+02 2.272479912217349636e+02 2.266083600260679418e+02 2.264981089559621239e+02 2.271474484105028182e+02 2.287313298377637238e+02 2.301551199154511380e+02 2.298584343015495222e+02 2.281343936345665213e+02 2.254738029143229312e+02 2.222433988260277431e+02 2.186280568992395104e+02 2.147419584028421298e+02 2.106396223153736003e+02 2.064538021095171700e+02 2.022151888250364493e+02 1.979286464429901855e+02 1.936760780385943406e+02 1.894677181126149605e+02 1.854649818402490382e+02 1.815844886338060746e+02 1.778189982464054708e+02 1.741584419015563299e+02 1.705911193410281896e+02 1.671040899290645427e+02 1.636843078404175174e+02 1.603200627451691673e+02 1.570016928804798226e+02 1.537179937943454320e+02 1.503699938115103976e+02 1.550838288854532721e+02 1.592923462527844549e+02 1.629557273938816593e+02 1.643776123102503561e+02 1.655475032915047677e+02 1.665535368761296979e+02 1.675014126699712449e+02 1.688371337286629341e+02 1.697500674161064182e+02 1.704178780353322793e+02 1.709517706478551986e+02 1.713836431661576967e+02 1.717216196880408177e+02 1.719696944856642347e+02 1.720306893188105448e+02 1.717949487396735719e+02 1.696363236646542418e+02 1.666665110719908967e+02 1.631848921283495315e+02 1.593576591780673937e+02 1.553011484745074711e+02 1.510603344469072056e+02 1.511723194814679232e+02 1.549708038129391525e+02 1.586629461590842425e+02 1.622952362872389926e+02 1.659357673956841666e+02 1.696387889207108515e+02 1.734154557405048536e+02 1.772340373229904742e+02 1.810914785928808044e+02 1.849791743301206850e+02 1.888835142028599705e+02 1.927870666491087377e+02 1.966680076822811998e+02 2.004991589253349957e+02 2.042464638754568966e+02 2.078665807962000542e+02 2.113023156908848250e+02 2.145095112759578910e+02 2.173170641319577783e+02 2.194774782273329095e+02 2.200650206994576479e+02 2.193931310537923309e+02 2.170013143392438337e+02 2.139001350381585382e+02 2.103474157535633253e+02 2.062237126890509842e+02 2.028614971806111953e+02 1.988542220416503881e+02 1.946834222621509127e+02 1.903885765803816241e+02 1.860095292583303888e+02 1.815758887902442211e+02 1.771123517350168299e+02 1.726403126933701060e+02 1.681802741664027110e+02 1.637546773574227075e+02 1.593905983081369584e+02
1.585171366571193516e+02 1.627960957570680023e+02 1.670308031708195244e+02 1.712660144382634257e+02 1.755278523693086470e+02 1.798741483407112014e+02 1.842388160973746665e+02 1.886334681138806673e+02 1.930556842425026787e+02 1.975038326703712812e+02 2.019752526207984147e+02 2.064631945113734730e+02 2.109514862818504071e+02 2.154127132986340598e+02 2.198144083054478415e+02 2.241175223952189413e+02 2.282590908685550346e+02 2.321684223093931507e+02 2.358094520741711051e+02 2.391067441319075613e+02 2.418998646674397719e+02 2.439015365430081204e+02 2.442917006624275587e+02 2.439061429975183160e+02 2.426798233807374743e+02 2.407981178488148828e+02 2.385370490803481971e+02 2.360257192808522007e+02 2.333597341198027380e+02 2.306182402872113641e+02 2.278806773994789410e+02 2.252466042731032871e+02 2.224295996446642221e+02 2.223035284035395875e+02 2.234659518644834861e+02 2.258027226210301990e+02 2.271382568448016741e+02 2.270761088170870607e+02 2.255020737472994483e+02 2.228588381021220926e+02 2.196206612027754943e+02 2.159834952803756778e+02 2.120681884806537312e+02 2.079560720158388847e+02 2.036852696320926555e+02 1.993722723155968879e+02 1.950397963246151960e+02 1.906900398099680558e+02 1.863974696129855602e+02 1.821694201874287558e+02 1.781576256405453762e+02 1.742796407531627665e+02 1.705247452378842468e+02 1.668785219290730595e+02 1.633241844506632106e+02 1.598434227854858989e+02 1.564181697217146905e+02 1.530321424880827408e+02 1.496694483142011336e+02 1.462343412188343166e+02 1.509782507261683691e+02 1.552173148976774257e+02 1.589045363145004046e+02 1.602990742593440245e+02 1.614305449126328540e+02 1.623700050132203501e+02 1.630462407267515914e+02 1.652049922708111751e+02 1.658680042929437377e+02 1.664871494000452117e+02 1.670144045284966978e+02 1.674540204394314742e+02 1.678070657423695025e+02 1.680764990957606813e+02 1.681723057881671650e+02 1.679907624829122028e+02 1.658646231314655211e+02 1.628864544579473375e+02 1.593667181462081430e+02 1.554706793337804243e+02 1.513119876323225981e+02 1.469912289913328607e+02 1.477801535457286093e+02 1.518616810545349551e+02 1.555065548407827123e+02 1.591196047286031785e+02 1.627930238768121285e+02 1.665443487349200780e+02 1.703459963357674667e+02 1.741976784445165549e+02 1.780935596885310588e+02 1.820230050214350399e+02 1.859717693426594280e+02 1.899216973762056853e+02 1.938501728345281947e+02 1.977292030186205238e+02 2.015240139891976980e+02 2.051902695105536907e+02 2.087007438013270075e+02 2.119277737496408065e+02 2.147239414748742377e+02 2.168481982671552544e+02 2.173034437219609742e+02 2.165711801060514858e+02 2.140962723563726229e+02 2.109297761053417730e+02 2.073242555145259871e+02 2.034143683688569411e+02 1.990488095862687032e+02 1.954241732814999182e+02 1.912392648603301666e+02 1.869330272551158032e+02 1.825325754919510644e+02 1.780691703568478204e+02 1.735654219162171898e+02 1.690400634696805184e+02 1.645096263387754334e+02 1.599916311503158681e+02 1.555073533875794283e+02
1.548989303118519842e+02 1.591652770939642778e+02 1.634245608082273122e+02 1.677080007781019333e+02 1.720712490985255840e+02 1.764493649237530803e+02 1.808517964367667048e+02 1.852764774544093598e+02 1.897249172022267203e+02 1.942003239773116547e+02 1.987036351460763797e+02 2.032272043395634569e+02 2.077519036341284107e+02 2.122524756603353069e+02 2.166968444584725830e+02 2.210316262954613649e+02 2.252000511810502701e+02 2.291836712023734037e+02 2.329354268073052765e+02 2.363489065634821600e+02 2.392605632739858379e+02 2.413688082046276122e+02 2.420691617632239456e+02 2.407986953686027505e+02 2.398690270818907493e+02 2.379562999893729511e+02 2.357123388946442049e+02 2.332146199558540900e+02 2.305674989438606417e+02 2.278562011273658356e+02 2.251556046291715347e+02 2.225349817941333299e+02 2.200937895979776329e+02 2.176930329422815191e+02 2.206068477074945520e+02 2.227286715794793395e+02 2.241984427717754329e+02 2.243263654901375617e+02 2.229497776235307640e+02 2.203035984330063286e+02 2.170444026251869900e+02 2.133745724694357193e+02 2.094189865191021056e+02 2.052630111116911564e+02 2.009683833852477903e+02 1.965630430662867241e+02 1.921515143728046837e+02 1.877509893946553063e+02 1.833619549367978436e+02 1.790525896714383123e+02 1.748273888547895751e+02 1.708286114595968854e+02 1.669739029596644002e+02 1.632477312224721970e+02 1.596295452547649063e+02 1.560954949053297298e+02 1.526204301780422554e+02 1.491810960895410574e+02 1.457574286722824581e+02 1.422547088137373521e+02 1.470138917642408956e+02 1.512595084362136504e+02 1.549405519342125217e+02 1.562802474978377631e+02 1.573612050602885972e+02 1.582282335570399425e+02 1.587710505761324953e+02 1.616965343173098688e+02 1.620400416563823001e+02 1.625904981892099386e+02 1.631116321143353218e+02 1.635603669362078847e+02 1.639289718827499769e+02 1.642201286722192606e+02 1.643528673739991461e+02 1.642375928354197470e+02 1.621661777647458393e+02 1.591944422816220026e+02 1.556529793278239140e+02 1.517053024992999326e+02 1.474340427458363365e+02 1.427457943096924566e+02 1.456517388073743007e+02 1.489109551983357278e+02 1.524031550744843457e+02 1.560103630062951083e+02 1.597132185177978556e+02 1.634777039165966244e+02 1.673033475529564100e+02 1.711864388709961702e+02 1.751192248321942770e+02 1.790904611279445646e+02 1.830851046631142651e+02 1.870840394867176428e+02 1.910636075136873728e+02 1.949948476890482709e+02 1.988417023236718535e+02 2.025865768032614369e+02 2.061264455126278676e+02 2.093616229912005338e+02 2.121538373265818791e+02 2.142393217862978645e+02 2.145686011163893454e+02 2.137597727856414735e+02 2.112020243214405752e+02 2.079743563938716591e+02 2.043190264300546914e+02 2.003663897875228201e+02 1.961988089378352811e+02 1.916584387915229115e+02 1.878320784802972128e+02 1.835130463223629533e+02 1.791037381626656213e+02 1.746222953207431203e+02 1.700924995800941986e+02 1.655297801990363951e+02 1.609454767961608752e+02 1.563495366042740784e+02 1.517568615076119158e+02
1.514093017544724660e+02 1.556482119572351053e+02 1.599315187716628657e+02 1.643006878490101030e+02 1.686859178059882254e+02 1.730891289490153611e+02 1.775036574914286405e+02 1.819310551306442960e+02 1.863802252896932714e+02 1.908617612427376002e+02 1.953793056118880429e+02 1.999247192005976217e+02 2.044815632121859608e+02 2.090244273730907310e+02 2.135069157606377246e+02 2.178808370929769467e+02 2.221366166891769183e+02 2.262411080831069228e+02 2.301154839127187302e+02 2.336495824004382484e+02 2.366589231367170214e+02 2.388416416072760171e+02 2.394965188686138333e+02 2.387268291948688557e+02 2.364966226916042444e+02 2.350444867731325189e+02 2.327764205236990733e+02 2.302871210215835163e+02 2.276408531609094155e+02 2.249299481204830045e+02 2.222292338911646539e+02 2.195877003457426042e+02 2.170052123712210914e+02 2.143287286951737087e+02 2.173468939337297456e+02 2.197061876529078575e+02 2.213313655074836106e+02 2.216058291995723266e+02 2.205046580865693215e+02 2.178352453048413508e+02 2.145320896275743507e+02 2.108153582264171177e+02 2.068073864190737368e+02 2.025951872047451161e+02 1.982435310187604216e+02 1.938018366589328707e+02 1.892915143919785805e+02 1.848080966279175357e+02 1.803650281682622563e+02 1.759617011584881823e+02 1.716606574570800205e+02 1.674632037376832443e+02 1.635017879398590424e+02 1.596929212566192575e+02 1.560143059955705667e+02 1.524366924494580076e+02 1.489266765161600858e+02 1.454514374899741540e+02 1.419840351189095315e+02 1.384286328311270324e+02 1.431825276853224125e+02 1.474076131828987570e+02 1.510522382594882629e+02 1.523142338441510049e+02 1.533441216261068973e+02 1.541662688343839989e+02 1.546914292830530542e+02 1.575433134180110812e+02 1.581300740386655548e+02 1.587076672887275492e+02 1.592395103498347169e+02 1.597012636065736046e+02 1.600862001486488850e+02 1.603986480499804941e+02 1.605676082688130180e+02 1.605308087827909844e+02 1.585514858710691897e+02 1.555988751119983249e+02 1.520558423398850891e+02 1.480941573444507355e+02 1.438043268508812389e+02 1.391512019021344884e+02 1.424212416843645315e+02 1.457801869632677096e+02 1.492984824319404709e+02 1.529352334725662956e+02 1.566455689885179936e+02 1.604265471993300309e+02 1.642762944269425702e+02 1.681904349783952171e+02 1.721612200829571293e+02 1.761768211183910182e+02 1.802211883202829483e+02 1.842739656491826850e+02 1.883102560259338816e+02 1.922995083197774306e+02 1.962298383989019328e+02 2.000136025181801926e+02 2.035774322525089985e+02 2.068294001221561302e+02 2.096193869696611785e+02 2.116619868613358051e+02 2.118488457708417059e+02 2.108975743231391959e+02 2.082899751807431130e+02 2.050205912956955672e+02 2.013265845385384409e+02 1.973391841013815338e+02 1.931391415258795803e+02 1.887830456940536408e+02 1.841161862832765337e+02 1.801348245574208704e+02 1.757156334739184160e+02 1.712296687334732610e+02 1.666882404362436603e+02 1.621079422634854268e+02 1.574952036623275262e+02 1.528488806063496668e+02 1.481669552263948333e+02
1.479496958987834319e+02 1.522087806564274217e+02 1.565730368021346806e+02 1.609651062283760155e+02 1.653734411452176687e+02 1.697782586414183754e+02 1.741728370859519259e+02 1.785689559354280505e+02 1.829900768091657994e+02 1.874554539068877261e+02 1.919723806086259970e+02 1.965374859149334554e+02 2.011334717249025630e+02 2.057193463530503834e+02 2.102521273915201618e+02 2.147258298667294127e+02 2.191132576230579048e+02 2.233505487007373631e+02 2.273567592275885261e+02 2.310068104851416138e+02 2.341123907720407260e+02 2.363666839085857418e+02 2.370848963603992274e+02 2.360647397771621172e+02 2.343611042595585161e+02 2.316311212704273998e+02 2.297802000784590746e+02 2.272514443145873884e+02 2.245928613170785013e+02 2.218604026229061787e+02 2.191400648751467486e+02 2.164941135450492879e+02 2.139110687211835113e+02 2.111981136865430813e+02 2.143050891755625003e+02 2.168071907142291934e+02 2.185750779343158570e+02 2.190021452830342810e+02 2.180479225247994748e+02 2.154868426754461268e+02 2.121147800916776021e+02 2.083248432179484553e+02 2.042478424046398686e+02 1.999651140618979355e+02 1.955421903518938223e+02 1.910309453985221353e+02 1.864727208087757049e+02 1.818848345298154925e+02 1.773560798964188336e+02 1.728973619639902779e+02 1.685071134698645778e+02 1.642423313015343922e+02 1.601004914627962421e+02 1.562035826004712362e+02 1.524654304780216592e+02 1.488542031953256242e+02 1.453280421868102508e+02 1.418403662185658334e+02 1.383504876252360418e+02 1.347575480635530312e+02 1.394748553116024539e+02 1.436414616696605719e+02 1.472176630567292079e+02 1.483885089673300115e+02 1.493729746027938745e+02 1.501655175040166625e+02 1.506776793934420198e+02 1.535596729954360740e+02 1.542341595869478681e+02 1.548471915856542864e+02 1.553977320064067840e+02 1.558753888311366609e+02 1.562770330705517949e+02 1.566092250566261157e+02 1.568074424410581287e+02 1.568404533038740283e+02 1.550466207896243134e+02 1.520998537775657269e+02 1.485683606595494268e+02 1.446189080412415535e+02 1.403462931177821531e+02 1.357317239564058582e+02 1.391695973830889272e+02 1.426340605807178008e+02 1.462099477593268375e+02 1.498599739573770080e+02 1.535830311404957058e+02 1.573810917123479953e+02 1.612549717160990213e+02 1.652019209415359171e+02 1.692142593960662396e+02 1.732792833341437984e+02 1.773795656738855655e+02 1.814932384838212727e+02 1.855934729336276519e+02 1.896717101936914105e+02 1.936504222771986008e+02 1.974722160129599331e+02 2.010699145693291428e+02 2.043446916893667833e+02 2.071397362617578040e+02 2.091520857109081817e+02 2.094026058682018174e+02 2.075699217641005134e+02 2.053395677562306787e+02 2.020567312476231052e+02 1.983409781969037624e+02 1.943277742444479088e+02 1.901028595998800768e+02 1.857220805585738788e+02 1.812270725122232875e+02 1.764695547888627800e+02 1.723703193180210462e+02 1.678791050810068555e+02 1.633404782048114612e+02 1.587609034498025267e+02 1.541502651314511354e+02 1.495018805303126328e+02 1.447825895129584808e+02
1.445333860555889487e+02 1.488801609841863751e+02 1.532829181637459897e+02 1.577145599385721368e+02 1.621325956537965851e+02 1.665047033231992941e+02 1.708302905019411639e+02 1.751521471691732756e+02 1.795160036175548157e+02 1.839469265161287410e+02 1.884633448388268846e+02 1.930635906787577767e+02 1.977105987521656800e+02 2.023617215315091755e+02 2.070093858298034490e+02 2.116264636156321615e+02 2.161564064411820425e+02 2.205351784664763102e+02 2.246722826758270344e+02 2.284399163066674987e+02 2.316491612398945676e+02 2.339602004030926707e+02 2.346238879695507364e+02 2.336835183790599615e+02 2.317082323142602434e+02 2.294053476507359903e+02 2.263223456769808593e+02 2.241666339715419838e+02 2.214460563753289648e+02 2.186700215528754541e+02 2.158966485089851517e+02 2.132294835926291512e+02 2.107471106861060548e+02 2.082089537436693831e+02 2.114278238406523087e+02 2.140385650901635017e+02 2.159380522951216790e+02 2.165438680671134648e+02 2.156937652874507023e+02 2.131614232732179630e+02 2.098292003369791132e+02 2.059348391767905468e+02 2.017591118794043155e+02 1.973865431408155473e+02 1.928757422712344010e+02 1.882786751396441218e+02 1.836387337475742640e+02 1.789922939058114366e+02 1.743545192596101856e+02 1.698089455700519466e+02 1.653643201035394554e+02 1.610176604192570551e+02 1.568202697648762580e+02 1.527653629987489410e+02 1.489637884422859884e+02 1.453247732788965720e+02 1.418030955319279087e+02 1.383367178525114696e+02 1.348576755728840055e+02 1.312478896157239490e+02 1.358715413970886630e+02 1.399181447662247137e+02 1.433993097862123420e+02 1.444878028617602581e+02 1.454393893775752247e+02 1.462130482260396320e+02 1.467178161004298431e+02 1.496538859746837318e+02 1.503709265384845821e+02 1.510146188142642245e+02 1.515864823476251502e+02 1.520814188687404283e+02 1.524996067719225437e+02 1.528498774402339677e+02 1.530679087235356519e+02 1.530772565910710057e+02 1.517640311144477039e+02 1.486741300926488520e+02 1.451684437616590628e+02 1.412512694493905769e+02 1.370138787027323986e+02 1.324346816062541450e+02 1.359830915737344412e+02 1.395275602143600224e+02 1.431262123331823091e+02 1.467864093879024097e+02 1.505181986527609581e+02 1.543312429993749788e+02 1.582306147063960680e+02 1.622146035986092443e+02 1.662748085187143090e+02 1.703969805146627152e+02 1.745618841302888029e+02 1.787453407516790094e+02 1.829405411480905741e+02 1.870766323779562299e+02 1.911061775309830466e+02 1.949761056334173190e+02 1.986139814738948814e+02 2.019174409405333392e+02 2.047247102188671875e+02 2.067273106027883500e+02 2.069102254512397110e+02 2.048815745805112556e+02 2.020309542417673754e+02 1.990869708868695511e+02 1.953586249406669992e+02 1.913295986997044622e+02 1.870849226186665817e+02 1.826851877608494306e+02 1.781710067962583537e+02 1.735742905736534851e+02 1.687540650056975267e+02 1.645678564808052329e+02 1.600300444473010657e+02 1.554637088839168086e+02 1.508744377627123754e+02 1.462717101718101276e+02 1.416399853464207865e+02
1.411991390024981854e+02 1.456096147502882729e+02 1.500916673435368693e+02 1.545722501579865877e+02 1.589801168397280833e+02 1.632480747936685361e+02 1.674182398585124076e+02 1.716322756058725645e+02 1.759161460684350118e+02 1.803037019098010205e+02 1.848453508079382175e+02 1.895128746894110066e+02 1.942504340777188077e+02 1.990404440688182603e+02 2.038499037102531872e+02 2.086237024231378427e+02 2.133063522812532540e+02 2.178283660721435524e+02 2.220978334938234013e+02 2.259905500904157236e+02 2.293054311210124752e+02 2.316592067311915457e+02 2.322800580641329304e+02 2.311800332414524917e+02 2.292750365640041821e+02 2.267244632803858053e+02 2.240018445392275908e+02 2.206650049490845618e+02 2.182684644082908676e+02 2.153952922690735932e+02 2.125202260980960034e+02 2.097345938435602477e+02 2.072708585999222350e+02 2.053638217509038668e+02 2.087154398378926885e+02 2.114345083332747492e+02 2.131830589851961406e+02 2.143586156547786743e+02 2.134660615902868699e+02 2.109504582743849426e+02 2.075893164876383423e+02 2.036834809558890242e+02 1.993716416899235071e+02 1.948769131795555722e+02 1.902569175780410262e+02 1.855551710697492922e+02 1.808147093860562222e+02 1.760745882168604339e+02 1.713689650272396250e+02 1.667117932779865725e+02 1.621815818262602704e+02 1.577841813760951766e+02 1.535145685152457418e+02 1.494191107821895059e+02 1.454869414201880318e+02 1.418166870447369092e+02 1.383114100285403367e+02 1.349090979387794675e+02 1.315033512660865540e+02 1.279164620454732386e+02 1.323140736096147521e+02 1.361424166117840571e+02 1.395457233965591115e+02 1.405999939227197899e+02 1.415373806389968934e+02 1.422998072832333776e+02 1.427994350731644317e+02 1.458001393860914447e+02 1.465403741938768860e+02 1.472109636323982613e+02 1.478054036019897524e+02 1.483179606029634101e+02 1.487520169693749494e+02 1.491202108797699566e+02 1.493625321157909411e+02 1.494203728091823393e+02 1.482898921748549697e+02 1.454115434840686873e+02 1.418217572764893362e+02 1.379599777391267992e+02 1.337821385393594937e+02 1.292506766423624924e+02 1.328813889082017283e+02 1.364514202160295611e+02 1.400523581977484184e+02 1.437064549817734473e+02 1.474381814228103451e+02 1.512652100953990271e+02 1.551944873787292352e+02 1.592232117370073183e+02 1.633408721999375359e+02 1.675309516387581255e+02 1.717715083337454871e+02 1.760565793821959630e+02 1.803196079338258642e+02 1.845192780986122045e+02 1.886107946343214792e+02 1.925365643283300585e+02 1.962211434088899011e+02 1.995575058595667315e+02 2.023749487387924830e+02 2.043403930631705805e+02 2.043571741951967340e+02 2.023399567522835980e+02 1.993132158709516659e+02 1.958123167442294630e+02 1.923839241392798840e+02 1.883402452127273250e+02 1.840823331040899689e+02 1.796663099956484189e+02 1.751370884823317908e+02 1.705252903423657926e+02 1.658563226017318186e+02 1.609965938937121734e+02 1.567500795789800065e+02 1.521894612370127220e+02 1.476213208200559848e+02 1.430583831947210172e+02 1.385394617691123926e+02
1.378522720948418510e+02 1.424099781730688505e+02 1.470350135896322854e+02 1.515735522760283231e+02 1.560056164769866598e+02 1.598713176513058727e+02 1.638479175314552947e+02 1.679908266357379603e+02 1.721348081275692437e+02 1.764839185507187267e+02 1.811314690710426305e+02 1.859338243307544758e+02 1.908458740316292790e+02 1.958234732235013382e+02 2.008104550960394192e+02 2.057549403684955678e+02 2.105994392774111361e+02 2.152728922843909629e+02 2.196858450681862109e+02 2.237121632584365898e+02 2.271432520663032335e+02 2.295098322247751810e+02 2.299968770323099534e+02 2.287999989107334500e+02 2.267397221388430353e+02 2.242320821681663858e+02 2.212820174755616165e+02 2.182536950378487575e+02 2.147282354377991282e+02 2.121238084944302500e+02 2.090862509672789997e+02 2.060508505857508510e+02 2.032309857105299784e+02 2.027081194279275280e+02 2.062850290988783684e+02 2.087765386949248523e+02 2.110004116551824893e+02 2.121244173241102544e+02 2.113920374787466301e+02 2.089033299251990172e+02 2.054834371433931040e+02 2.014941091885147841e+02 1.971235925329380905e+02 1.924644775145254982e+02 1.877027626144210330e+02 1.828723048322154057e+02 1.780079995849123975e+02 1.731519879477653205e+02 1.683420959849998724e+02 1.636104070132811046e+02 1.589698973726091822e+02 1.544918791699754479e+02 1.501763515683733488e+02 1.460198249056932980e+02 1.420655373480829837e+02 1.382977663110739002e+02 1.347995918629413268e+02 1.314748328963074187e+02 1.282562906753025516e+02 1.248079298584262489e+02 1.285760489923279124e+02 1.321483139140692629e+02 1.356260162752191434e+02 1.367252371515768061e+02 1.376657632731045453e+02 1.384204240174288145e+02 1.389137472780832070e+02 1.419825813963257133e+02 1.427366802471689482e+02 1.434348448798601510e+02 1.440540106443891943e+02 1.445837260689707193e+02 1.450319774040756613e+02 1.454175588795544627e+02 1.456873545653357951e+02 1.458033934301180921e+02 1.448181696233739046e+02 1.420040568457110908e+02 1.385765894136843315e+02 1.346963066890218101e+02 1.306271834479222775e+02 1.261846052733356345e+02 1.298485024142460418e+02 1.334066150122986869e+02 1.369727486915149939e+02 1.405984534808639239e+02 1.443241382750028379e+02 1.481694320238868841e+02 1.521381277332462503e+02 1.562235403157440885e+02 1.604118711362157228e+02 1.646834791226626464e+02 1.690332136265455460e+02 1.733973189555085526e+02 1.777377002654243370e+02 1.820139741816400374e+02 1.861774472644330842e+02 1.901683003969318975e+02 1.939076692227222622e+02 1.972824540010706187e+02 2.001095349942212636e+02 2.020235795013457221e+02 2.018762694204347667e+02 1.997371952974186229e+02 1.966864925652517115e+02 1.930692485885445251e+02 1.891347073401471164e+02 1.853615354125273029e+02 1.810884561847435066e+02 1.766611788882930796e+02 1.721182969097693274e+02 1.674944920677198184e+02 1.628137151313486299e+02 1.580969903994769368e+02 1.532177095391913895e+02 1.489332543926985863e+02 1.443688604855900337e+02 1.398153945082553662e+02 1.352861964485358044e+02
1.392223331310476055e+02 1.436691030224480699e+02 1.474537123454297216e+02 1.508371493933881311e+02 1.527040207237018024e+02 1.560950979955088656e+02 1.601132513696309161e+02 1.644104374747556108e+02 1.678249078456669565e+02 1.724896609073520608e+02 1.773643133443711406e+02 1.823906196342757653e+02 1.875159738442565072e+02 1.926931547156968918e+02 1.978756883304284884e+02 2.030122113503431081e+02 2.080427241755942021e+02 2.128923980014438087e+02 2.174744414359210509e+02 2.216682874738665134e+02 2.252882489911086452e+02 2.275770968198324908e+02 2.278131204870133786e+02 2.264513036023783172e+02 2.243057915934398636e+02 2.216545221786734885e+02 2.187341293261052897e+02 2.154986961989098688e+02 2.122417416434624329e+02 2.085636329025407179e+02 2.057458719133304896e+02 2.024339720923734660e+02 1.987264079535167411e+02 2.016047757843789157e+02 2.038935565258770737e+02 2.065765534913777515e+02 2.087160907243078611e+02 2.099879225613449023e+02 2.095142298129514700e+02 2.071231436636669798e+02 2.035748944688897950e+02 1.994389213101189569e+02 1.949295889977335037e+02 1.901647764340953017e+02 1.852300521653775434e+02 1.802223863908903922e+02 1.751952571684834083e+02 1.701920936599053960e+02 1.652507329508580085e+02 1.604044993646615751e+02 1.556835878644005788e+02 1.511108354307805826e+02 1.467130268008571363e+02 1.425094609508325050e+02 1.385131093209410835e+02 1.347380283444283293e+02 1.311901662069978443e+02 1.278874258441978355e+02 1.248292668161156200e+02 1.219915518601282685e+02 1.238780080680627691e+02 1.279088301894275332e+02 1.316997753573817818e+02 1.328817074268221461e+02 1.338278578418846507e+02 1.345724352489188789e+02 1.350546352072368279e+02 1.381918864728236827e+02 1.389513457184199012e+02 1.396844850679462979e+02 1.403327364425801704e+02 1.408779432649986916e+02 1.413370179554266883e+02 1.417381210819115438e+02 1.420365458666734355e+02 1.422097533096955715e+02 1.413389290400585026e+02 1.385532341491361592e+02 1.351547258991355704e+02 1.314454675195244988e+02 1.274935754489527966e+02 1.232520786674567006e+02 1.268921851138320847e+02 1.303651369610715847e+02 1.338461871422900913e+02 1.374296427776329494e+02 1.411546905567325609e+02 1.450312050832548607e+02 1.490546506432942806e+02 1.532127214261774100e+02 1.574877118178422108e+02 1.618761962015883284e+02 1.663179801060223610e+02 1.707760632725891128e+02 1.752098605632751003e+02 1.795752470523363229e+02 1.838227394552752401e+02 1.878906835515154228e+02 1.916963385856086859e+02 1.951188432458489785e+02 1.979577525153533486e+02 1.997999436384163516e+02 1.994529288415617145e+02 1.971715893715160348e+02 1.940280081842579136e+02 1.903764991590289242e+02 1.863677822788717151e+02 1.821290243882423567e+02 1.781031557286097495e+02 1.736613594086136914e+02 1.691092966066984502e+02 1.644744312604487391e+02 1.597845353818760827e+02 1.550589486188969204e+02 1.503154420322999840e+02 1.454334088538014100e+02 1.411277379414787561e+02 1.365699243803727825e+02 1.320323324277858319e+02
1.379235017592481540e+02 1.412746671407543886e+02 1.444956266654175749e+02 1.459027639758610349e+02 1.479928133108639088e+02 1.519732441821802524e+02 1.562386525333282350e+02 1.608175449906629524e+02 1.667816365666424758e+02 1.722705807819960455e+02 1.775799849414556206e+02 1.828124144670362625e+02 1.879983309256958250e+02 1.931386573721296145e+02 1.982153933725126649e+02 2.031962756148454616e+02 2.080356631127920082e+02 2.126721916025851442e+02 2.170057730129526874e+02 2.208877337128465967e+02 2.240522159048906872e+02 2.258860957879208229e+02 2.257152627507015552e+02 2.241546562052911895e+02 2.218865285542898960e+02 2.191652800754131079e+02 2.161173455827582188e+02 2.129075321786253312e+02 2.094676484998646799e+02 2.060382302830498702e+02 2.022349190270024621e+02 1.992023038689466148e+02 1.955648822528327742e+02 1.984437392374495062e+02 2.014882641638529606e+02 2.041720165235398099e+02 2.064178613609915942e+02 2.078955017074797809e+02 2.078139058113551982e+02 2.058851748238036521e+02 2.029516691149614758e+02 1.990513860255420013e+02 1.948221529007865058e+02 1.903540475709034752e+02 1.857281825394940711e+02 1.810033366097103169e+02 1.762288208744643043e+02 1.714464410687275517e+02 1.666912521042098376e+02 1.619928235139422270e+02 1.573761165667484079e+02 1.528618820446925781e+02 1.484678251293793494e+02 1.442087863610470322e+02 1.400978592623743282e+02 1.361511231996092874e+02 1.323961931709073099e+02 1.288791598512282519e+02 1.263077675813060949e+02 1.225168438044127583e+02 1.184635216574247920e+02 1.238703431442355765e+02 1.279232628020248654e+02 1.290925241919871951e+02 1.300277359322116411e+02 1.307552002374908398e+02 1.312177362208483373e+02 1.344196654062500897e+02 1.351718236031180425e+02 1.359595868643886547e+02 1.366443808414716727e+02 1.372007861843193552e+02 1.376646874097483249e+02 1.380777092960604762e+02 1.384050034166436376e+02 1.386369722031830918e+02 1.378656946555354068e+02 1.350681988977065657e+02 1.316073698364292568e+02 1.278564294487830324e+02 1.242422957219016268e+02 1.204994862589564519e+02 1.239827815632231420e+02 1.272382926919733848e+02 1.306121167163518066e+02 1.341671376264055198e+02 1.379130379197568743e+02 1.418420378188373832e+02 1.459397750953615400e+02 1.501877177298583774e+02 1.545839667695422861e+02 1.590758056518692740e+02 1.636347083019701358e+02 1.682100116427075136e+02 1.727515481744119938e+02 1.772199292739037730e+02 1.815669068935905273e+02 1.857288980805482765e+02 1.896190148037034078e+02 1.931075384967274431e+02 1.959679997730049763e+02 1.976871981358526114e+02 1.970699376438912509e+02 1.946315184569155576e+02 1.913915920178594376e+02 1.876672237429116592e+02 1.836211890473720700e+02 1.793365365011166546e+02 1.748783955345148797e+02 1.706652204948432825e+02 1.661003681919095811e+02 1.614590446516293412e+02 1.567613516835582459e+02 1.520300936757791987e+02 1.472810027973584113e+02 1.425287912734882241e+02 1.376574974091033994e+02 1.333417855536800971e+02 1.287945618301193917e+02
1.347369104817243510e+02 1.383276097846589892e+02 1.396451629260798484e+02 1.417381528607301959e+02 1.470251764353347141e+02 1.519960266676971230e+02 1.569738678620968528e+02 1.620609814416707763e+02 1.673482687993751483e+02 1.726672119104001126e+02 1.779605233615568238e+02 1.832059912628330949e+02 1.883893142715771489e+02 1.934943472242191831e+02 1.984986913988547599e+02 2.033709844050609945e+02 2.080674380530807070e+02 2.125249457812166725e+02 2.166459620476423424e+02 2.202667799417771164e+02 2.230539386778509083e+02 2.242738523011347809e+02 2.236529759445892012e+02 2.218940637438599879e+02 2.194960725248710673e+02 2.166821501200413707e+02 2.135797748774726301e+02 2.102598348748705632e+02 2.068481042715503975e+02 2.032673761130284902e+02 1.997258749780039579e+02 1.958660266077933443e+02 1.925897561888350538e+02 1.958689088853506632e+02 1.989131857961714616e+02 2.017029124425288842e+02 2.040760814000094570e+02 2.057569344178443487e+02 2.061274006648995396e+02 2.045838230116006571e+02 2.016921414168925821e+02 1.982602529306701911e+02 1.943785020399457721e+02 1.901976922927158000e+02 1.858140036010931908e+02 1.812972702196987029e+02 1.767022172176079664e+02 1.720703264697838506e+02 1.674342492338215322e+02 1.628199199313856695e+02 1.582475314155090871e+02 1.537318157077539240e+02 1.492819383727277227e+02 1.449011177015428871e+02 1.405862901646925422e+02 1.363282098045581847e+02 1.321103064059171572e+02 1.279074517825490602e+02 1.236475090873763918e+02 1.207606957198593420e+02 1.160238362721900671e+02 1.206487226847230403e+02 1.243271844239506265e+02 1.253512233632436761e+02 1.262660681470301398e+02 1.269694958132572822e+02 1.274003739938271025e+02 1.306562139949658388e+02 1.313778959602372822e+02 1.322643992882057091e+02 1.329960146232584464e+02 1.335535166341543061e+02 1.340124852605636931e+02 1.344317977767061620e+02 1.347876759339554269e+02 1.350867945100794714e+02 1.344277176220892045e+02 1.316136698462710797e+02 1.280161980599980325e+02 1.239596720011313664e+02 1.199063437873001874e+02 1.180147579300751488e+02 1.208160343611013303e+02 1.238633239330238212e+02 1.271781647460230857e+02 1.307464834610383093e+02 1.345452347322297157e+02 1.385527341360084961e+02 1.427480503224566633e+02 1.471102447022875879e+02 1.516135858448494957e+02 1.562358086593717701e+02 1.609865716005969603e+02 1.656904264404717253e+02 1.703541708595925286e+02 1.749467993106897268e+02 1.794201550145465376e+02 1.837050850979047425e+02 1.877137049452863096e+02 1.913125365205896173e+02 1.942526085276108745e+02 1.956559507115782424e+02 1.946835070745824794e+02 1.921009468941734326e+02 1.887659319763022836e+02 1.849702932583657287e+02 1.808638840399185028e+02 1.765413423687996612e+02 1.720564268461448307e+02 1.674392221109854972e+02 1.630885391667053739e+02 1.584375942920040075e+02 1.537374878346229536e+02 1.490030962805685419e+02 1.442531210511542383e+02 1.394998306532626202e+02 1.347545116662353450e+02 1.299048175392446183e+02 1.255868364520884768e+02
1.318908651671368091e+02 1.334220661921915223e+02 1.356716181428669756e+02 1.411729193597086578e+02 1.465268888942729575e+02 1.518425973175745298e+02 1.571450774283684382e+02 1.624561570733912390e+02 1.677846388380254155e+02 1.731068257529326502e+02 1.783968848331778929e+02 1.836321531127705100e+02 1.887915931104732010e+02 1.938529593096479289e+02 1.987899607323047917e+02 2.035693098846130056e+02 2.081468343313717639e+02 2.124589103709769802e+02 2.164064939621585495e+02 2.198216368886209011e+02 2.221601184547317587e+02 2.226708294644986381e+02 2.215553935491472259e+02 2.196467695418981236e+02 2.171233815625810450e+02 2.142153159058302379e+02 2.110420189657312164e+02 2.076804010895274075e+02 2.041732591564639279e+02 2.006238575748336359e+02 1.969589473257857151e+02 1.933920131779693179e+02 1.896654155949125311e+02 1.931095483270032389e+02 1.962816380654321904e+02 1.991801834769937898e+02 2.016763405369781594e+02 2.034671719549155569e+02 2.043757410199668811e+02 2.036169885133586206e+02 2.012867284840953914e+02 1.980221953585348160e+02 1.943086063836317976e+02 1.902845583356302086e+02 1.860438251446548747e+02 1.816525303560002840e+02 1.771607824859721063e+02 1.726070776105093785e+02 1.680217941976820839e+02 1.634288405460099227e+02 1.588463571515614774e+02 1.542865381141591570e+02 1.497545441422137174e+02 1.452466123406135523e+02 1.407484649571618718e+02 1.362384771934660534e+02 1.317050443903472399e+02 1.271250760363544998e+02 1.224651824856572659e+02 1.176245777454291783e+02 1.138965348464306686e+02 1.174039792368401862e+02 1.206230680515453315e+02 1.216191245608566760e+02 1.225433862574492849e+02 1.232187237298626741e+02 1.236031097654754376e+02 1.268876604689578329e+02 1.275361309019648530e+02 1.286142242840423648e+02 1.294009777884768084e+02 1.299376992288688655e+02 1.303774373118946528e+02 1.307953170545193018e+02 1.311781049238168464e+02 1.315566601261360802e+02 1.310508289386845320e+02 1.282808148148851615e+02 1.246037426190186892e+02 1.202042704221562985e+02 1.147882982102706393e+02 1.185884840496753014e+02 1.217755386312870485e+02 1.253902524164616352e+02 1.293248950267954456e+02 1.332286859589418668e+02 1.372229670217245996e+02 1.413219519630843308e+02 1.455219622562459563e+02 1.498218547512854855e+02 1.542176845314147045e+02 1.587528861598977699e+02 1.625833103447662040e+02 1.668320194851692975e+02 1.711293797156648111e+02 1.753874557644257663e+02 1.795487867702158269e+02 1.835551806537946220e+02 1.873108467672142297e+02 1.906385332826474439e+02 1.930450008494349561e+02 1.936940601094283352e+02 1.921642523781689533e+02 1.895782374797227021e+02 1.861448822853114393e+02 1.822761228413554875e+02 1.781099642768904516e+02 1.737344653571149706e+02 1.692125226187795022e+02 1.645824040678221536e+02 1.598529348852588043e+02 1.554056938302716162e+02 1.507011913235478744e+02 1.459704729776817942e+02 1.412241383325306003e+02 1.364768239355472588e+02 1.317370432555539708e+02 1.270123694976094413e+02 1.221937498221361551e+02
1.270287869985719738e+02 1.296759762946539638e+02 1.353465420029100414e+02 1.408765709127090702e+02 1.463782095993420569e+02 1.518585218255549307e+02 1.573146285001561182e+02 1.627432765544447477e+02 1.681385214156121037e+02 1.734891535847617661e+02 1.787809196225079518e+02 1.839977939879954363e+02 1.891216386800003306e+02 1.941307357014211163e+02 1.989974088101232326e+02 2.036842699602818243e+02 2.081378527773820508e+02 2.122791060449500549e+02 2.159833203800985189e+02 2.190268298912861837e+02 2.209991458447015020e+02 2.210153060878000986e+02 2.195482696245219358e+02 2.173546775054213356e+02 2.147506070666846369e+02 2.117542195358982156e+02 2.085102108185672023e+02 2.050926893738267722e+02 2.015514572998133360e+02 1.979132825555709303e+02 1.942678120520277218e+02 1.905387251212578121e+02 1.868054723311167038e+02 1.903483638192723504e+02 1.936180123909284987e+02 1.966112285734760690e+02 1.991466940520922435e+02 2.012298312826696076e+02 2.025018157017605915e+02 2.022682745168611973e+02 2.003553777260796096e+02 1.974853266268969492e+02 1.940053229020298602e+02 1.901418880169304657e+02 1.860236365992694800e+02 1.817289584906234268e+02 1.773100899531076777e+02 1.728056989922801279e+02 1.682462970879701629e+02 1.636570687731653493e+02 1.590591953872034026e+02 1.544700770590563366e+02 1.499016290227486081e+02 1.453539996257796645e+02 1.407977361624656965e+02 1.361379609919092672e+02 1.314400964581312223e+02 1.266867049842006026e+02 1.218640717686040347e+02 1.169433885280416234e+02 1.117462330935534283e+02 1.131288132033925820e+02 1.166851453131165073e+02 1.178962993914254582e+02 1.188705391979468402e+02 1.195105756240410528e+02 1.198329678054671064e+02 1.230929732032862205e+02 1.235908450674734098e+02 1.250430095076185637e+02 1.258790326503962973e+02 1.263521939607205411e+02 1.267553494943911403e+02 1.271627082450430066e+02 1.275676765442653675e+02 1.280328497735076496e+02 1.277292962733789636e+02 1.251055030293587862e+02 1.215277326795796284e+02 1.172608901919333704e+02 1.123084183818149739e+02 1.167435491023957326e+02 1.204538720226988318e+02 1.246221010528476825e+02 1.288735304697552806e+02 1.331580215072132773e+02 1.374433188385197013e+02 1.417351170465150005e+02 1.460412830090933198e+02 1.503632623432241360e+02 1.546921867935168677e+02 1.590001958834356799e+02 1.632007541240854778e+02 1.673893285159641380e+02 1.715290563895218838e+02 1.755233168931334546e+02 1.794099780752732727e+02 1.831577963034818026e+02 1.867191303578688633e+02 1.895309929000687816e+02 1.916186787857597835e+02 1.917471819885651314e+02 1.898396170420550391e+02 1.869353407036326473e+02 1.835233410217833523e+02 1.795761362900962297e+02 1.753482002915310431e+02 1.709200439131392955e+02 1.663509163251537188e+02 1.616864498248894222e+02 1.569556095881704891e+02 1.521538154802478005e+02 1.476464916412103321e+02 1.429193116844559484e+02 1.381853695931244204e+02 1.334510472163674706e+02 1.287265343172583130e+02 1.240165004235905855e+02 1.193251779131543486e+02
1.238192763467524742e+02 1.297631336774797717e+02 1.354482579405371325e+02 1.410461123448955902e+02 1.466174291338328146e+02 1.521982401654204295e+02 1.577364325239192340e+02 1.632170094094815056e+02 1.686336738395433770e+02 1.739801583916863592e+02 1.792480401463137696e+02 1.844259541692722451e+02 1.894986035403369442e+02 1.944452955232237628e+02 1.992378082811464424e+02 2.038370135914774153e+02 2.081871010097833334e+02 2.122049102848614268e+02 2.157527949379370398e+02 2.185638665776328651e+02 2.198397058446256551e+02 2.192930761738909382e+02 2.175360913655618731e+02 2.151341109580150146e+02 2.123278034353319583e+02 2.092834658575755782e+02 2.059740186610071930e+02 2.025013624358742561e+02 1.989134818922905197e+02 1.952440364220583717e+02 1.915111071737759687e+02 1.877948402739102676e+02 1.839572778623596037e+02 1.875833065700025486e+02 1.909295845861394696e+02 1.939375301210409646e+02 1.966600325915136125e+02 1.989179992107932264e+02 2.004625510947935823e+02 2.006848333609879660e+02 1.993395449633270857e+02 1.969890290893393683e+02 1.936658959208253066e+02 1.899059552202550663e+02 1.858739282169488547e+02 1.816498445415196556e+02 1.772801906666888385e+02 1.728011902811173002e+02 1.682433679902380561e+02 1.636340431292163089e+02 1.590002080219365155e+02 1.543731447032071173e+02 1.497974467249817963e+02 1.453492339000911500e+02 1.414616926152812084e+02 1.362741927920259002e+02 1.315385459683553222e+02 1.267272428733890450e+02 1.219486674050928627e+02 1.172619891397130374e+02 1.131020164717504173e+02 1.080242781546793225e+02 1.128434076179023577e+02 1.142405442923538033e+02 1.152692395885150489e+02 1.158555966904641537e+02 1.161071971992332834e+02 1.192499810422195310e+02 1.194087819168682216e+02 1.223000547792680521e+02 1.224489027166681296e+02 1.227864599349279047e+02 1.231402317138393698e+02 1.235286656999645487e+02 1.239466780965237973e+02 1.244898706139378532e+02 1.244172792894743793e+02 1.220276471224762957e+02 1.186464325260577937e+02 1.146304303561859683e+02 1.100442829499895225e+02 1.141601124098034035e+02 1.190037576884277257e+02 1.237037935443281924e+02 1.283312634247982373e+02 1.328951007631743266e+02 1.373971563074813673e+02 1.418442645770699357e+02 1.462441310048181151e+02 1.506022978902399529e+02 1.549201733446252263e+02 1.591939018132228227e+02 1.634186703204030664e+02 1.676038504090047070e+02 1.717689194469977281e+02 1.752172871842525410e+02 1.787745961915755686e+02 1.822333723016443798e+02 1.854206946601202617e+02 1.882935403602926385e+02 1.901410466084863060e+02 1.897828930448580707e+02 1.875376114027324661e+02 1.844208803656068767e+02 1.807865679106504615e+02 1.768628109483230162e+02 1.725682154949594178e+02 1.680857304845456213e+02 1.634695329362402276e+02 1.587635931378913483e+02 1.540032783030729604e+02 1.492113771700338418e+02 1.443745097979892762e+02 1.398418421801341083e+02 1.351225707346323475e+02 1.304122265772728895e+02 1.257124317553265342e+02 1.210285857368068321e+02 1.163623437411523867e+02
1.259338379668931225e+02 1.309675517037053680e+02 1.361949488794480203e+02 1.415582414528265929e+02 1.469976934055591471e+02 1.528888493873969310e+02 1.584820335430631815e+02 1.639344158117959296e+02 1.692905235665325279e+02 1.745647983736571405e+02 1.797568805640098049e+02 1.848579363062000880e+02 1.898525259144597328e+02 1.947183377759598102e+02 1.994245379740343367e+02 2.039282843514409649e+02 2.081673652050697001e+02 2.120451085711270593e+02 2.153915701727280521e+02 2.178418711253598588e+02 2.185120901431083098e+02 2.174313389786106256e+02 2.155014798031729129e+02 2.129159263342261568e+02 2.099591946913578795e+02 2.067587068210694099e+02 2.034205327291267054e+02 1.998979809818739852e+02 1.962657990261715213e+02 1.925560784853475980e+02 1.887933454250566285e+02 1.849885394494345121e+02 1.811253825322120292e+02 1.848165803265167142e+02 1.881655856303543146e+02 1.913074482711582789e+02 1.941293045653096954e+02 1.965069061823147081e+02 1.982140353648795212e+02 1.987382700071880208e+02 1.979862570449323869e+02 1.957610192005303134e+02 1.930379813422444215e+02 1.893584664181830703e+02 1.854376958060472589e+02 1.813043288613961010e+02 1.769923762992607124e+02 1.725380256473877978e+02 1.679713977554250448e+02 1.633163477120411358e+02 1.585908182222744074e+02 1.538058436430181928e+02 1.489617154814752951e+02 1.440383665854272692e+02 1.389542394540361840e+02 1.344248526910512282e+02 1.309411259413477637e+02 1.258358091397560941e+02 1.209430571976705693e+02 1.159300481388518023e+02 1.104339976365970273e+02 1.059208420329293432e+02 1.092588578505321664e+02 1.106724448191082502e+02 1.117610549395950983e+02 1.122604332036710275e+02 1.124524429581618818e+02 1.154645240489507927e+02 1.156163099721792378e+02 1.187522785366284097e+02 1.189274801347811916e+02 1.192116316013362649e+02 1.195257023127380052e+02 1.198897503082538947e+02 1.203072681266889248e+02 1.208961260054885685e+02 1.210355333274328729e+02 1.189740814409878027e+02 1.157970622065141129e+02 1.120497356622541645e+02 1.077439654459251841e+02 1.128349289278666703e+02 1.178728045117234586e+02 1.228408516253035145e+02 1.277134508741820440e+02 1.324693519590220205e+02 1.370996763326256200e+02 1.416135182770047720e+02 1.460275324361149956e+02 1.503561788538410724e+02 1.546114138414922081e+02 1.588020544679797297e+02 1.629653141800771152e+02 1.671343828922360331e+02 1.702921379852479333e+02 1.742280666848893702e+02 1.779647587940663414e+02 1.814626666227235887e+02 1.846103418514088048e+02 1.872056366131316452e+02 1.886134018845499725e+02 1.877549118437637219e+02 1.852273967631549283e+02 1.819190341747405455e+02 1.781366909527337441e+02 1.740377702173950922e+02 1.697629065801642696e+02 1.652209514333845846e+02 1.605558587517180911e+02 1.558081667775524863e+02 1.510129917123731786e+02 1.461990713411956051e+02 1.413844772246609409e+02 1.365495069339587246e+02 1.320258722645961882e+02 1.273447571437366292e+02 1.226830282950397191e+02 1.180364434977014270e+02 1.134053546488216853e+02
1.302324685717327100e+02 1.350990662627592371e+02 1.401869509995017893e+02 1.453745523874969194e+02 1.509144005266117574e+02 1.549440392470475558e+02 1.599342950619262922e+02 1.650238946255934991e+02 1.701420972295918261e+02 1.752453844763344364e+02 1.803039628706376050e+02 1.852928181344115615e+02 1.901865187219872837e+02 1.949554765273582859e+02 1.995624909786185697e+02 2.039583460481863142e+02 2.080737631740197457e+02 2.118021961211821065e+02 2.149566453007317079e+02 2.169862672058359294e+02 2.171056338088101541e+02 2.156370089143932205e+02 2.133806608699308924e+02 2.106899703576499974e+02 2.075911187494689329e+02 2.042729203134795455e+02 2.008106011193942209e+02 1.972725881488758830e+02 1.936022853407993125e+02 1.898578799388177458e+02 1.860620633483756592e+02 1.822320571095676200e+02 1.783087775202577063e+02 1.820052429752178682e+02 1.854547037322074914e+02 1.886591469332900601e+02 1.915438647290890515e+02 1.939899243640666100e+02 1.956773270830474587e+02 1.966333373458395783e+02 1.962104178654799398e+02 1.944183804270638518e+02 1.915426513707044194e+02 1.882912070157612732e+02 1.846160964206761435e+02 1.806343147536946105e+02 1.764181437565399051e+02 1.720180309334230060e+02 1.674707043173273178e+02 1.628033224240818129e+02 1.580356216856275751e+02 1.531808986033834969e+02 1.482462323766107204e+02 1.432325387998374424e+02 1.381359045785321200e+02 1.329409612555027707e+02 1.274510854225685819e+02 1.225249954584212446e+02 1.177145948647506941e+02 1.130332658331233091e+02 1.085035770082938313e+02 1.039907497460681185e+02 1.045401809802782225e+02 1.081781683632508901e+02 1.083665985867728381e+02 1.087162708084963612e+02 1.088656602258914319e+02 1.117855565187061160e+02 1.119296723607789659e+02 1.150447543305871108e+02 1.153411709172415840e+02 1.156253548540980063e+02 1.159115898758126662e+02 1.162464045167226629e+02 1.166480436825139009e+02 1.172413593768578437e+02 1.173824467580183608e+02 1.159994120563787448e+02 1.127963239309299439e+02 1.094035602770441642e+02 1.054078116224234662e+02 1.114882986152092741e+02 1.169662765226583900e+02 1.221991796044435858e+02 1.272585568331299584e+02 1.321044169583860537e+02 1.367173985980170698e+02 1.411463840894127202e+02 1.454429434075950098e+02 1.496259708194304494e+02 1.537212170694523934e+02 1.576636282154850903e+02 1.617489509192255923e+02 1.648057506684378097e+02 1.691276614600416224e+02 1.732028097367445127e+02 1.770457722161549157e+02 1.805887296871200363e+02 1.837107661225074366e+02 1.861681694000971845e+02 1.869715121337645201e+02 1.855221551719402271e+02 1.829018346420430703e+02 1.794191200128047967e+02 1.754945293089499216e+02 1.712734242626536911e+02 1.668479462586576005e+02 1.623198394972169467e+02 1.575999443754462845e+02 1.528081122192848227e+02 1.479771298418957315e+02 1.431365098148976642e+02 1.383101883324376615e+02 1.335118990364881313e+02 1.287165510457038522e+02 1.242362511868989543e+02 1.196219740264068889e+02 1.150294145090442726e+02 1.104464913424457251e+02
1.312542767378568840e+02 1.360704312664752536e+02 1.409948214511840092e+02 1.459903783245769091e+02 1.510094470213299189e+02 1.559027004698143060e+02 1.608540643908426375e+02 1.658453600696665262e+02 1.708498731064042886e+02 1.758412785190924978e+02 1.807947609766653443e+02 1.856855468219553984e+02 1.904863285726204367e+02 1.951641297724461310e+02 1.996767801916364817e+02 2.039668850469836912e+02 2.079501644526627331e+02 2.114898315967237181e+02 2.143261348858136728e+02 2.159153839751714941e+02 2.155940228033501285e+02 2.138371902293797291e+02 2.113440812866907379e+02 2.083986264206761518e+02 2.052128521357628301e+02 2.017805347979111161e+02 1.982294970373055492e+02 1.945908609466522989e+02 1.909137064602418548e+02 1.871425534994549764e+02 1.833244017701880466e+02 1.794697800580941305e+02 1.755089302848373620e+02 1.792597397072742069e+02 1.827470018622082932e+02 1.859850793077084177e+02 1.888968140171360801e+02 1.912535885188998179e+02 1.933705624643279748e+02 1.940920156808848560e+02 1.939821749068318297e+02 1.929869486670887682e+02 1.908701481755853990e+02 1.878421671194523412e+02 1.843191144799876895e+02 1.804384286682328877e+02 1.762873814741797105e+02 1.719253275773256462e+02 1.673949182793376451e+02 1.627279387748732233e+02 1.579488207858819067e+02 1.530770776684272221e+02 1.481292401717067264e+02 1.431208159385157899e+02 1.380688766050487857e+02 1.329960563958041746e+02 1.279382651531313968e+02 1.229971893707031825e+02 1.181711764622386625e+02 1.134751338149174700e+02 1.089431606283620795e+02 1.046335306606311235e+02 1.007266819259881885e+02 1.045753590836262248e+02 1.048568936125103193e+02 1.051929116898699448e+02 1.053366283328940227e+02 1.082048792798973693e+02 1.083409802778709263e+02 1.114043676132336458e+02 1.117620935896509593e+02 1.120461908474687078e+02 1.123046200318981533e+02 1.126030264216696111e+02 1.129747436947418464e+02 1.135510165087509336e+02 1.137218008437949095e+02 1.125650671386800639e+02 1.095794757929922127e+02 1.063814957431711719e+02 1.032768347113167238e+02 1.088519957113233971e+02 1.143442498985355371e+02 1.197381420290639085e+02 1.250753385943876879e+02 1.299707561509278264e+02 1.344966572066786625e+02 1.388444688330708345e+02 1.431002461566416457e+02 1.471788326472724009e+02 1.513722439670749509e+02 1.545947371089583839e+02 1.587271675931446566e+02 1.635267643662034232e+02 1.679798509360473133e+02 1.721793885444316459e+02 1.760943250581875077e+02 1.796545914211158674e+02 1.827273929429420321e+02 1.850037980106903319e+02 1.853093389897339591e+02 1.834185045499223463e+02 1.804490663228146730e+02 1.769213972282140901e+02 1.728548374850042819e+02 1.685101729056543149e+02 1.639738439643819561e+02 1.593091826730864398e+02 1.545972583948086196e+02 1.497544292153584138e+02 1.448842642619260062e+02 1.400148299050908065e+02 1.351717285015889445e+02 1.303749005318635170e+02 1.256334019570125946e+02 1.209165165453208459e+02 1.165136407656467270e+02 1.119918712544965871e+02 1.074821035027740521e+02
1.317584831322065781e+02 1.366198474934961951e+02 1.415419726885470766e+02 1.465045355231511621e+02 1.514839682462531982e+02 1.564559435797502260e+02 1.614274617691745561e+02 1.663949609082009431e+02 1.713472166101273046e+02 1.762690376278130202e+02 1.811430724945804229e+02 1.859494884891035156e+02 1.906633580833356518e+02 1.952500611638706971e+02 1.996628503015541867e+02 2.038476533077935073e+02 2.077141992308859528e+02 2.111055269929713631e+02 2.134740978982699744e+02 2.146728707704329224e+02 2.140017191646595904e+02 2.120498889883665470e+02 2.093573880881845923e+02 2.061906284713660114e+02 2.027683193381365072e+02 1.992737970892604267e+02 1.956470134860639973e+02 1.919323258169126234e+02 1.881642556346323545e+02 1.843941963865696607e+02 1.805684852085751970e+02 1.767117963697010623e+02 1.727340516961710364e+02 1.765264474009686069e+02 1.800357713981316010e+02 1.832799432929985244e+02 1.860791537948580583e+02 1.887390656368525015e+02 1.906768192177838159e+02 1.913033822259471322e+02 1.913616965777400196e+02 1.908773121366015744e+02 1.892725454737426105e+02 1.869985617432269009e+02 1.837526615491065627e+02 1.800535599182543649e+02 1.760204190803770814e+02 1.717372264871467848e+02 1.672602828297507358e+02 1.626301120823129907e+02 1.578773711274619700e+02 1.530270264259493160e+02 1.481010523870846782e+02 1.431202380159308518e+02 1.381055116423314075e+02 1.330788532364320815e+02 1.280636948895366345e+02 1.230837237075467385e+02 1.181475500701687196e+02 1.132572591742752621e+02 1.084121044396294593e+02 1.036094116509608227e+02 9.877149654602399664e+01 1.012855885779629403e+02 1.013138306214190152e+02 1.016941016679766108e+02 1.018618809659610491e+02 1.047027948536068891e+02 1.048279895347410786e+02 1.078603252329850619e+02 1.082221423727295218e+02 1.084901196847489757e+02 1.087132509245134315e+02 1.089656934383790912e+02 1.092935122044073069e+02 1.098338216545474921e+02 1.100145023123498760e+02 1.089843575799706343e+02 1.058231644800784466e+02 1.023389629474635854e+02 1.010676364684749586e+02 1.073887568088236435e+02 1.131014806683016474e+02 1.185309706347542971e+02 1.229869513927083204e+02 1.274020636653629595e+02 1.316281729962166196e+02 1.358874411116242698e+02 1.403407174861597753e+02 1.437060650261560397e+02 1.480691838813429513e+02 1.532028927702822898e+02 1.579878256299059274e+02 1.626288888659635745e+02 1.670838833159222929e+02 1.713027294020816953e+02 1.752242237923551897e+02 1.787565843944479980e+02 1.817394305240710821e+02 1.838348119928646724e+02 1.836507651718337968e+02 1.813595550768862665e+02 1.781155616160201873e+02 1.743223426995583907e+02 1.702181649136774979e+02 1.657448962380655360e+02 1.610932956336018833e+02 1.563233162484349066e+02 1.514837999503125445e+02 1.466437717596969321e+02 1.417262471284927017e+02 1.368229577156810990e+02 1.319589836186385128e+02 1.271569445568920287e+02 1.224330548858088861e+02 1.177909580753602086e+02 1.131933122334195190e+02 1.089025278209961840e+02 1.044961021951808817e+02
1.319063174243291883e+02 1.368749847057489148e+02 1.418618712587804964e+02 1.468556436298082133e+02 1.518461923610140900e+02 1.568257224651519550e+02 1.617901605391548969e+02 1.667326526290807749e+02 1.716394865405332553e+02 1.764965160765422922e+02 1.812899979005532600e+02 1.860066562931426972e+02 1.906299515318242470e+02 1.951249639200947001e+02 1.994067387534867635e+02 2.034314041100296890e+02 2.071533203504803566e+02 2.098854993805987021e+02 2.122628761507807553e+02 2.132268151696541736e+02 2.123088360265240340e+02 2.102949852450533399e+02 2.074906810715316965e+02 2.040521561486755502e+02 2.003437448235818295e+02 1.967519555631477886e+02 1.930637462490246605e+02 1.892644573110581234e+02 1.854151889791513952e+02 1.815598950411383896e+02 1.777606677232655841e+02 1.739439641992041174e+02 1.699962700758105996e+02 1.738143080837512002e+02 1.773221628963707417e+02 1.804452491245727117e+02 1.834688215957345676e+02 1.859522630674749735e+02 1.877608638581785385e+02 1.882488940752904512e+02 1.883902176795466801e+02 1.881536880397319180e+02 1.873214207502648208e+02 1.852763289706273042e+02 1.828695377047263548e+02 1.794380360559093788e+02 1.755862169360019323e+02 1.714198240895712502e+02 1.670261952818683540e+02 1.624613674929227898e+02 1.577624827333486337e+02 1.529578026677296805e+02 1.480712057782653233e+02 1.431240024640688944e+02 1.381354231161010944e+02 1.331220862140658028e+02 1.280969808256984663e+02 1.230666071934446819e+02 1.180266878096254004e+02 1.129584900357051254e+02 1.078211367905063298e+02 1.025349669614021195e+02 9.684836348597775668e+01 9.756504871897352871e+01 9.767872854802139670e+01 9.822708869258244135e+01 9.844367504524066703e+01 1.012652371683537496e+02 1.013734164998306255e+02 1.043850069502627349e+02 1.047266279192928948e+02 1.049658129729695162e+02 1.051447071920033949e+02 1.053405683736469172e+02 1.056099913888445059e+02 1.060955414219055513e+02 1.062724419368036877e+02 1.053997767984838845e+02 1.021559804802811868e+02 9.746118680118037503e+01 1.020681865780419884e+02 1.071418799564942219e+02 1.120371772199572291e+02 1.159075981941297755e+02 1.201119068499147602e+02 1.245596802871249196e+02 1.278613020659643809e+02 1.322997613160546564e+02 1.369240926920127777e+02 1.424275330696937658e+02 1.475384413424388015e+02 1.525202126348577565e+02 1.573487254636193029e+02 1.620103618689026916e+02 1.664731774440383276e+02 1.706901641607038584e+02 1.745931478416928258e+02 1.780748803650849936e+02 1.809407553539008120e+02 1.827243132619910568e+02 1.820065953560651906e+02 1.793370444736308400e+02 1.758303669941184637e+02 1.718271185552867450e+02 1.674954287213086275e+02 1.629808146131451565e+02 1.582055471954905954e+02 1.533234755350764260e+02 1.483813548076790312e+02 1.434200365493180129e+02 1.385008365278005726e+02 1.335536482320349307e+02 1.286611974544003658e+02 1.238468058516839960e+02 1.191306337672810258e+02 1.145253287938082991e+02 1.100286876855632272e+02 1.055958008494388025e+02 1.014560004154905357e+02
1.319093264950083437e+02 1.369993245307876748e+02 1.420622129717216922e+02 1.470898976421283066e+02 1.520817138448754235e+02 1.570415522911878554e+02 1.619763682852964450e+02 1.668866024238946295e+02 1.717301997282605726e+02 1.764928562393752145e+02 1.811717472864424963e+02 1.857601417672192952e+02 1.902629354732885645e+02 1.947296586494889539e+02 1.987978756525433255e+02 2.024484033426914777e+02 2.053279276737799819e+02 2.082953809851215681e+02 2.105992799115975913e+02 2.116052383343013616e+02 2.107038845011123840e+02 2.085247089783321996e+02 2.057485997121785317e+02 2.026832046472094362e+02 1.989030178445744355e+02 1.943001212012635222e+02 1.902350443564155285e+02 1.866207488272632986e+02 1.826377449823047527e+02 1.786748944142738651e+02 1.748078598468884195e+02 1.711072959248612051e+02 1.673182672267585644e+02 1.711380508553973527e+02 1.745198724143324966e+02 1.778085197879036343e+02 1.806605813317407865e+02 1.830332589626868298e+02 1.845668065723125153e+02 1.849280463658544704e+02 1.851214014385290341e+02 1.850798578725967332e+02 1.846774011340606876e+02 1.833461052957666482e+02 1.809939391543881300e+02 1.784841800632115962e+02 1.749816089730824729e+02 1.709148890431838481e+02 1.666104098825459516e+02 1.621340134866160838e+02 1.575172801199087189e+02 1.527855820155126025e+02 1.479621705497919777e+02 1.430684217545715171e+02 1.381236405939187648e+02 1.331446305894919533e+02 1.281448474519935417e+02 1.231340709098867165e+02 1.181185078528496888e+02 1.131020187834243416e+02 1.080892979576650674e+02 1.030929001028386409e+02 9.814921486220858071e+01 9.326890602275770448e+01 9.396712126665562437e+01 9.482129713378913038e+01 9.508850787804978211e+01 9.788540658754813251e+01 9.796648314901635501e+01 1.009557235277479350e+02 1.012737970361939404e+02 1.014777680721398525e+02 1.016046151682228924e+02 1.017332354874499174e+02 1.019289495108634043e+02 1.023382770215060873e+02 1.024877214565440369e+02 1.017741055188904653e+02 9.899285066827467006e+01 9.535013343731846192e+01 1.005933097250388357e+02 1.049947955187160176e+02 1.091055161413850811e+02 1.122319333262667698e+02 1.165461270281223136e+02 1.211222339581578780e+02 1.267687486633127918e+02 1.320056406688217692e+02 1.371136772887816164e+02 1.422360805544092273e+02 1.472791855273420936e+02 1.522181609631697938e+02 1.570257187595124719e+02 1.616721195965946833e+02 1.661193138303839589e+02 1.703159230372835680e+02 1.741882237809628862e+02 1.776194292999273330e+02 1.803910901945938861e+02 1.816384355494353144e+02 1.803622120464468424e+02 1.773526265457697662e+02 1.735953943272138531e+02 1.693849788527564613e+02 1.648690203533187741e+02 1.601436488029464726e+02 1.553170503717022086e+02 1.503109203220081440e+02 1.452573090883257976e+02 1.401953566035846279e+02 1.351601009374953151e+02 1.302069447857072362e+02 1.252731455988504905e+02 1.204351946073192607e+02 1.157152803921582063e+02 1.111310126134226124e+02 1.066925594339304268e+02 1.023935843155658034e+02 9.818253029007988175e+01
1.317953337823596485e+02 1.370269756688326197e+02 1.421371812021378105e+02 1.471372029382462188e+02 1.520579098432022818e+02 1.569269967871380231e+02 1.617790849406731013e+02 1.667279821984569139e+02 1.714619027000252061e+02 1.760362973310658106e+02 1.805083399985461767e+02 1.848715814365112067e+02 1.890729963404869522e+02 1.928608743934477729e+02 1.966223722857351675e+02 1.998833314830248469e+02 2.032952461567365674e+02 2.063011277657199400e+02 2.086050889306195302e+02 2.098516577482168941e+02 2.091764408771164767e+02 2.069019293713074319e+02 2.038138137675007044e+02 2.003100006539397668e+02 1.965187842225032853e+02 1.924991200348259213e+02 1.882441763946887932e+02 1.839246125536554928e+02 1.797752496503534871e+02 1.756725797806244316e+02 1.716886729955582496e+02 1.678928575612810903e+02 1.647418896565097270e+02 1.684255883668198805e+02 1.719150321714081144e+02 1.750181943405834204e+02 1.777352138238197483e+02 1.800346988458907731e+02 1.810181567115728285e+02 1.813517641329092385e+02 1.815926997146221140e+02 1.817039611853216456e+02 1.815645755701996222e+02 1.808936680644201829e+02 1.790738246241767797e+02 1.764392005564152726e+02 1.736252453541213470e+02 1.700723764179547288e+02 1.658296686867158201e+02 1.614903186388762322e+02 1.570060507144260669e+02 1.523914349522483178e+02 1.476689869008536675e+02 1.428617756731575525e+02 1.379910926860194706e+02 1.330760576916953255e+02 1.281335427215022094e+02 1.231784844345534680e+02 1.182246485900532491e+02 1.132866712332417336e+02 1.083839717285223259e+02 1.035474735165803111e+02 9.883132555748387915e+01 9.433244742119053683e+01 9.018595216644868628e+01 9.153216341438259462e+01 9.180130897998914463e+01 9.455755579384165799e+01 9.459866148008701714e+01 9.756594372259316117e+01 9.786310868755731462e+01 9.802909756907800443e+01 9.809739514137712035e+01 9.814860583280592721e+01 9.825458572000387392e+01 9.856236157129060871e+01 9.864289998873810816e+01 9.796156799011322391e+01 9.513113991220205889e+01 9.355156733902423127e+01 9.735630723821086008e+01 1.014743499438777263e+02 1.059188309513310742e+02 1.115419704770603175e+02 1.167405149929720949e+02 1.218404979154388030e+02 1.270018227162104409e+02 1.321340470249321299e+02 1.372222433235124299e+02 1.422655551777714606e+02 1.472419714554695815e+02 1.521262308633805276e+02 1.568892342007042942e+02 1.614966360067769813e+02 1.659055897492814893e+02 1.700591259426079773e+02 1.738751515090488340e+02 1.772208699983655151e+02 1.798354567205988985e+02 1.805657986915032893e+02 1.786001142924928899e+02 1.754442509815600886e+02 1.714308327084599455e+02 1.670114992875213886e+02 1.623056097746353146e+02 1.574013338113610416e+02 1.523682830942520070e+02 1.472950402574971065e+02 1.421136180798820305e+02 1.369424497927880395e+02 1.318099795302022414e+02 1.267453219953445114e+02 1.217986221005215981e+02 1.169195563784195429e+02 1.121814466558640788e+02 1.076006580851455112e+02 1.031932532947959658e+02 9.897101676697798212e+01 9.493195028791669188e+01
1.314128665908883420e+02 1.368303123220515545e+02 1.418288872086820334e+02 1.466043039687992291e+02 1.512865186832420363e+02 1.559120238449251019e+02 1.604895801002739120e+02 1.647311338313066074e+02 1.691508357084970839e+02 1.735808234794009195e+02 1.779545875222481186e+02 1.822272889936934064e+02 1.862179873379955666e+02 1.901769861585725891e+02 1.937367173289831896e+02 1.974850670281536225e+02 2.009751457271309789e+02 2.040331976019713238e+02 2.065387141827177402e+02 2.080173303940536584e+02 2.076237649739707081e+02 2.056121096004704611e+02 2.028043375579420342e+02 1.994603151560656613e+02 1.957422538944619248e+02 1.917845937761840958e+02 1.876751960725994479e+02 1.834888142537421629e+02 1.793118428774556605e+02 1.750754669725570807e+02 1.708670032284421723e+02 1.671275506845994414e+02 1.622096244070064870e+02 1.659215078129851690e+02 1.691897531279976477e+02 1.721239876070991954e+02 1.747542030368497308e+02 1.765738422541220700e+02 1.772782553164857404e+02 1.775623549262040228e+02 1.778416035773159365e+02 1.780706976834901809e+02 1.781351184528333249e+02 1.777960628239409004e+02 1.768935524183343944e+02 1.746466762576785641e+02 1.715470373897910008e+02 1.681185032418734977e+02 1.643655791575365583e+02 1.603259469122821486e+02 1.560639702076284436e+02 1.516282603710513115e+02 1.470554881343513216e+02 1.423756067831091912e+02 1.376140654022976264e+02 1.327928588606116023e+02 1.279310194229551172e+02 1.230447760028447135e+02 1.181474346523254866e+02 1.132488908944666264e+02 1.083543667798733452e+02 1.034613421003804632e+02 9.855235935748115139e+01 9.357867447031743779e+01 8.833304765950371973e+01 8.844439767155040499e+01 8.857416427915296708e+01 9.127472628211560846e+01 9.126083691080060589e+01 9.421241752683538095e+01 9.449550417873288666e+01 9.462243787344755219e+01 9.462647814091860710e+01 9.459102365694020875e+01 9.459114152545060961e+01 9.476970813097409518e+01 9.474682228148671470e+01 9.413790467869451106e+01 9.064997525368904974e+01 9.453126196017240090e+01 9.866833994404022690e+01 1.030333988597152199e+02 1.076289051056079131e+02 1.124926220552215028e+02 1.174427423124766108e+02 1.224332964280981741e+02 1.274525631744700291e+02 1.324762901165380811e+02 1.374833600412083570e+02 1.424543213101930235e+02 1.473667158343502308e+02 1.521946126291237533e+02 1.569075967186963112e+02 1.614689781566166289e+02 1.658327039217864467e+02 1.699374910758771478e+02 1.736944768107084087e+02 1.769567402390860309e+02 1.794184485740486252e+02 1.796936077471973761e+02 1.771594506980576682e+02 1.735269971132769058e+02 1.693340055395492811e+02 1.647163199846093846e+02 1.598130771429630386e+02 1.547161336041254458e+02 1.494975305366435236e+02 1.442120872440486608e+02 1.389135715624184400e+02 1.336275311470523945e+02 1.283889074252130911e+02 1.232279862240649067e+02 1.181715513560030928e+02 1.132507068380708688e+02 1.084820013661061324e+02 1.038856899940879970e+02 9.948063365251034895e+01 9.528571735066172721e+01 9.132301365824856987e+01
1.300491690426097762e+02 1.345065171569256393e+02 1.391331712862902634e+02 1.437522948109397589e+02 1.483328305460858019e+02 1.528800082269638381e+02 1.572157876303044759e+02 1.616691343561021768e+02 1.661079943899306102e+02 1.705217207834140538e+02 1.748772094564239410e+02 1.790329879581093451e+02 1.831779616456318820e+02 1.870071465155369026e+02 1.910327638171661135e+02 1.948887061019858322e+02 1.984621413229938582e+02 2.017123858990836425e+02 2.044001053427962518e+02 2.061118798698836088e+02 2.059826010888786527e+02 2.041765789649489022e+02 2.017415322219590621e+02 1.985689950790698788e+02 1.948621358230740270e+02 1.909305477152129527e+02 1.868351300633436836e+02 1.826554602146826483e+02 1.786784243964386292e+02 1.740304368321113486e+02 1.693094380159346883e+02 1.642565507644835918e+02 1.598674083491423517e+02 1.633163714274653273e+02 1.663514589098808756e+02 1.691312393592667718e+02 1.715474697196653153e+02 1.727085128419763862e+02 1.733196880245281193e+02 1.735857995238483511e+02 1.739013104435238120e+02 1.742216764771822852e+02 1.744497691363965544e+02 1.743859078967055609e+02 1.739377962633866161e+02 1.729505544556309076e+02 1.708500293258872773e+02 1.677929002417449169e+02 1.642736577769876476e+02 1.604176715295729991e+02 1.563039030672287595e+02 1.519846860379141447e+02 1.475034143874721053e+02 1.428950511392648082e+02 1.381887778939017153e+02 1.334095331138700260e+02 1.285788636329833139e+02 1.237153305691014680e+02 1.188346370650303072e+02 1.139496119624982384e+02 1.090702565977994283e+02 1.042042865910856619e+02 9.935904963755425001e+01 9.454638417510278714e+01 8.979345230060980043e+01 8.507420315909033093e+01 8.536772530034981799e+01 8.804397912320649766e+01 8.794257713458215164e+01 9.089378959287422788e+01 9.117327332427208830e+01 9.126005805771720247e+01 9.119426775710512345e+01 9.106445319709318653e+01 9.094327075148119377e+01 9.096229436812765812e+01 9.077618871706816606e+01 9.011510403191923047e+01 8.884039627493964986e+01 9.405680392958254288e+01 9.890254363244494584e+01 1.036543191153658086e+02 1.084144220657719444e+02 1.132313560973862252e+02 1.181011756365536058e+02 1.230114349774715663e+02 1.279483377793636691e+02 1.328950467546350467e+02 1.378328708398802860e+02 1.427414345167768204e+02 1.475978959112141240e+02 1.523759390095519564e+02 1.570441706548017180e+02 1.615636434770363508e+02 1.658856798691504650e+02 1.699461136820251568e+02 1.736520348889652041e+02 1.768482037355808814e+02 1.792033716496809177e+02 1.792749523555272617e+02 1.767680937817974325e+02 1.732288369580565188e+02 1.691213548715838613e+02 1.646399911397958817e+02 1.599043437960276890e+02 1.549973001615528574e+02 1.499771465997790472e+02 1.448917800063722154e+02 1.397810005174048911e+02 1.346764466794938073e+02 1.296054712232927955e+02 1.245918776204631087e+02 1.196573567397825997e+02 1.148235083940154624e+02 1.101085489760481693e+02 1.055286564719831546e+02 1.010973475817453249e+02 9.682531496909797397e+01 9.272086401053969951e+01
