ncols 119
nrows 32
xllcorner 1080
yllcorner 560
cellsize 10.0
8.708791638544362279e-02 1.338169453303482970e-01 8.521872092854737568e-02 1.362660158300565971e-01 8.625975581362420319e-02 8.824813654270909080e-02 8.898173844042807368e-02 8.957538597805347891e-02 9.011983017242036764e-02 9.061954149030317096e-02 9.106868888047082999e-02 9.145386311452514960e-02 8.749836875542803261e-02 8.279358848991806574e-02 7.851904398492470794e-02 7.398675420533139258e-02 7.040556861387042842e-02 6.580782473397504828e-02 5.341340949541639044e-02 5.840765421932096052e-02 7.560051891080879494e-02 8.320826606918596546e-02 8.738946852674461807e-02 8.942553518017087866e-02 8.967673633485762075e-02 8.987439224906491886e-02 9.003713269140101172e-02 9.018737142569377419e-02 9.034457569882178851e-02 9.051817666384970318e-02 9.060641522486774513e-02 9.039699555579175372e-02 9.047753467854520448e-02 9.059128425621271186e-02 9.127516882268126019e-02 9.167096246315778463e-02 9.185221642525906449e-02 9.193320211629774086e-02 9.198770100155065355e-02 9.204588012994635582e-02 9.209268638265985518e-02 9.204090500714487422e-02 9.172674640618094788e-02 9.005948423260057289e-02 7.855143978455181308e-02 6.958888200970940463e-02 4.916990004562312583e-02 5.643642658196116463e-02 6.200966932581498947e-02 6.643625483408321930e-02 7.002702862909879200e-02 7.625886863377870362e-02 7.883210478863755810e-02 8.350514457744248609e-02 8.815849627968805335e-02 8.909747893366820604e-02 1.244692316067751020e-01 7.964721150084858037e-02 8.103705021421481192e-02 7.839041776611198331e-02 7.773026664353224757e-02 7.714685365508058834e-02 7.611968192475547512e-02 8.493904573011165637e-02 8.665814811090100100e-02 1.297308742751055177e-01 8.086646372991819487e-02 8.377901259703358916e-02 8.478422507311264567e-02 8.552764742176463542e-02 8.621446760009233989e-02 8.689180532043638827e-02 8.757006315277565678e-02 8.824024726452150968e-02 8.888135073541253428e-02 8.946766659559576840e-02 8.997590470213756575e-02 9.038791055247512307e-02 8.632286330239685723e-02 8.404809234425673903e-02 8.138339323803332748e-02 7.825948481147720903e-02 7.460030089869489067e-02 7.035403397062005293e-02 6.560811417546323632e-02 6.072586228298281624e-02 5.606475178809883220e-02 6.393713562049928301e-02 8.760168469734805341e-02 6.393257108718020110e-02 7.469206317099626180e-02 8.186040231249469556e-02 8.702381464242898990e-02 8.982954570958105733e-02 1.386870368448956947e-01 1.046167448613969375e-01 1.027631429698518117e-01 1.029898908129124879e-01 9.943839724176822825e-02 9.662717435156030488e-02 9.012799084047339038e-02 8.181876963339214381e-02 6.223720344178843011e-02 6.119001130309997816e-02 6.724349504778202868e-02 7.064653277153511157e-02 7.678023704899075708e-02 8.171221197916768431e-02 9.087858493084885469e-02 9.112149226065338614e-02 9.124713457957983609e-02 9.128287990786308759e-02 9.121275486349783579e-02 9.103485305422237550e-02 9.075725271608667266e-02 9.039454874457303335e-02 8.996415323323858626e-02 8.948216086740301556e-02 8.895899914664108510e-02
8.884233891519019433e-02 1.343752253714259881e-01 1.273491173318218039e-01 8.888853771048144115e-02 8.800431436736048940e-02 8.901089281374136020e-02 8.988213780501792816e-02 9.060145140075767656e-02 9.122137843210127717e-02 9.176942654756276019e-02 9.225623865198206985e-02 8.864708043610186605e-02 8.439811493898616290e-02 8.065298176933033414e-02 7.667735917940973756e-02 7.371573181500677696e-02 6.991339583286852732e-02 6.001508657549575743e-02 5.259265175638813683e-02 6.196093302153257709e-02 7.711215162697768188e-02 8.486320059632840307e-02 8.874326550083008747e-02 9.055146415506072632e-02 9.069852036907573301e-02 9.081973795873868327e-02 9.092705433958628292e-02 9.104451149806658261e-02 9.120748440087526887e-02 9.142622623406597426e-02 9.141258855940762040e-02 9.071696614179509954e-02 9.160288985531717110e-02 9.121649087033900649e-02 9.226721162168299850e-02 9.271587405138026483e-02 9.292256015541694447e-02 9.304612631212294538e-02 9.316689098407136826e-02 9.330960184014901182e-02 9.344291831489727473e-02 9.342530846966473623e-02 9.279366729896471044e-02 1.013134340171694125e-01 5.255395746560218712e-02 7.159505592059839385e-02 4.826436532159261023e-02 5.577418454462010344e-02 6.153698427142028499e-02 6.608878347485692972e-02 6.973612917820999624e-02 7.271378473179763990e-02 7.820003165285539792e-02 8.032213994063543139e-02 8.418518077752305817e-02 8.600707052554153187e-02 1.382121823087027468e-01 8.356198222478411486e-02 8.185782317561032806e-02 7.909900256106847105e-02 7.833123537918476598e-02 7.777117944902428581e-02 7.768372801166273378e-02 3.963192855389634228e-02 1.386941017568685819e-01 8.335889281896323444e-02 8.405547640749333471e-02 8.517127900109207339e-02 8.592669271651021123e-02 8.657025159555507832e-02 8.719476841598938766e-02 8.783450911948036122e-02 8.849874220234864308e-02 8.917897275487472741e-02 8.985429587714477417e-02 9.049891207823569650e-02 9.108640049124522298e-02 8.746894766824324374e-02 8.556017111774383288e-02 8.328247017604263613e-02 8.055660372942614889e-02 7.729173812337669647e-02 7.340859011196036732e-02 6.895922725608404080e-02 6.428745843887699596e-02 5.975340359522285372e-02 5.528885108285813005e-02 6.569843734564956295e-02 8.850847618839957631e-02 6.279937940485301462e-02 7.350355553286955224e-02 8.129913738095213838e-02 8.668377399126084293e-02 9.075741591853603296e-02 9.412613248735708649e-02 1.377696373736145286e-01 1.026484320103821929e-01 1.040540566666147831e-01 1.010355679059097567e-01 9.846922324714491026e-02 9.233251719307772332e-02 8.424281364276728357e-02 6.668413002914012899e-02 5.708542614612452382e-02 6.484979845866069292e-02 7.014081639307538640e-02 7.324390365377125844e-02 7.885022148130710340e-02 8.344273898895962494e-02 9.204120840046156604e-02 9.216289013474944503e-02 9.217749707533962056e-02 9.211170067059705480e-02 9.195282368160684339e-02 9.170092227218966385e-02 9.136507667783272391e-02 9.095933294983880868e-02 9.049766435199602110e-02 8.998795616334409608e-02
9.094508226967994158e-02 1.365288721263998029e-01 1.342039868738436614e-01 8.503982369394993968e-02 8.846569311769908461e-02 8.986964632735497394e-02 9.082611687405212075e-02 9.159567459503559217e-02 9.225412734842004803e-02 9.283684333988101445e-02 8.953397745507586658e-02 8.567687352128493250e-02 8.237923795609664035e-02 7.887326130642099975e-02 7.642521814457697849e-02 7.327281476872100907e-02 6.499968127587149591e-02 5.932504948515435195e-02 5.174339298546263427e-02 6.443431669537262596e-02 7.810730332145482402e-02 8.680607201542123175e-02 9.001367961997214229e-02 9.153732377428251688e-02 9.156734997423583711e-02 9.160365898273366281e-02 9.164884494330763354e-02 9.173299824309243122e-02 9.190899115798580044e-02 9.216447865970367470e-02 9.178956789777543979e-02 9.521703842532064366e-02 9.384068160908226597e-02 9.156584692487140797e-02 9.334489972643300604e-02 9.368113713130332698e-02 9.386669170288780562e-02 9.402398836447714570e-02 9.419568732017433166e-02 9.438755741392988730e-02 9.456519961028594934e-02 9.458606742220565522e-02 9.386945364455087648e-02 1.017281796397279670e-01 5.202547304524127170e-02 7.294741188246559038e-02 4.738519345390499599e-02 5.512339479534340836e-02 6.104341721307582347e-02 6.568897697935228985e-02 6.938343351578279972e-02 7.236526775040112713e-02 7.482787342156305144e-02 7.969237602992408631e-02 8.151105488727111714e-02 8.522581115395540252e-02 8.878175789288855757e-02 1.317146531891829342e-01 8.145168987707002151e-02 7.954760540436996152e-02 7.872080077364625172e-02 7.813456815335413641e-02 7.795636516087674217e-02 3.677618440932910182e-02 1.386294401519153896e-01 8.490622794314071908e-02 8.584357762794703195e-02 8.639616093512864081e-02 8.690425034471734034e-02 8.741864731254428422e-02 8.796570779367435255e-02 8.856128839398864916e-02 8.920883562958370483e-02 8.989858194020389215e-02 9.061111991374004582e-02 9.131978949073729646e-02 8.809165438073979226e-02 8.652457991396139692e-02 8.463299161087728395e-02 8.232570655799879844e-02 7.949689352622993366e-02 7.604210865053026569e-02 7.197543419321723868e-02 6.761213245245839554e-02 6.330989000689118962e-02 5.897169356743828944e-02 5.457184228759005828e-02 6.740762495845313562e-02 8.945891048973864113e-02 6.161820181706683525e-02 7.230111795274500597e-02 8.011559823262986990e-02 8.590262998679421003e-02 9.020056835032648490e-02 9.461562040698298648e-02 1.367527106855605801e-01 1.035925130541113515e-01 1.050582807602871011e-01 1.025562967527703234e-01 1.003172670910897485e-01 9.454010106039760497e-02 8.615294355184205388e-02 6.995041495341786097e-02 5.652289783864367090e-02 6.129176631104950312e-02 6.805825439924398368e-02 7.279101795760251070e-02 7.558758202884068023e-02 8.070126251440987164e-02 8.495039850776038570e-02 9.300273930367185249e-02 9.299786198404942639e-02 9.289964882849111039e-02 9.273330044228117464e-02 9.248946690529635806e-02 9.217042869120528614e-02 9.178589435288976583e-02 9.134776085171489313e-02 9.086366172604290470e-02
9.065047715814893159e-02 1.535377770844622014e-01 8.627522534299583712e-02 8.829257428890449622e-02 8.982576457455612728e-02 9.092285399438133908e-02 9.181018323956832705e-02 9.257146257026348246e-02 9.324437904385951548e-02 9.021521738141713431e-02 8.669421056693149552e-02 8.377011724876250176e-02 8.065506563691057784e-02 7.862995231945595076e-02 7.601418680620863899e-02 6.895626232652365961e-02 6.439875743340155168e-02 5.860569440126978114e-02 5.089506669960822127e-02 6.598754809975906910e-02 8.011863537312252648e-02 8.970221730092102497e-02 9.115197823008826250e-02 9.238041344100647589e-02 9.229646609607632113e-02 9.224512189631500769e-02 9.222694649131013556e-02 9.227764348930278526e-02 9.244805130033302565e-02 9.272474346899373110e-02 9.303955355916168624e-02 5.799148132753514928e-02 1.072866150666240692e-01 9.098800123283740104e-02 9.477107380629912203e-02 9.460046756990250771e-02 9.470800544484128669e-02 9.488348322276948799e-02 9.507877830388282436e-02 9.527793157492371601e-02 9.547028886499241140e-02 9.559327713945957317e-02 9.531639320087441358e-02 1.012719642603628761e-01 5.099800324871361923e-02 7.392993514056410420e-02 4.669465731020917137e-02 5.457859275232485041e-02 6.059301320836284893e-02 6.528406767613699480e-02 6.899502994691851521e-02 7.197932526882269699e-02 7.442770621124623898e-02 7.648440904676173657e-02 8.086292609639038342e-02 8.269288539441635444e-02 8.783824646322885288e-02 1.320013536529355824e-01 8.296630407700057719e-02 7.995552092344759831e-02 7.890710628646564750e-02 7.828973413513806712e-02 7.809185647436572841e-02 3.526322638801022979e-02 1.386681681230946539e-01 8.606053753948104956e-02 8.701978617449716846e-02 8.732324531819435354e-02 8.765032057759930550e-02 8.804707580593086613e-02 8.852254255244135228e-02 8.907891884143392947e-02 8.971254327383000604e-02 9.041363853019449004e-02 9.116336189446998250e-02 8.823026447143750284e-02 8.693620012934394348e-02 8.538357331165485897e-02 8.347162366800117694e-02 8.108102353888156644e-02 7.808453098662093694e-02 7.445699395745568328e-02 7.047284142755895486e-02 6.648456453352975803e-02 6.239615212587549392e-02 5.807875350882801130e-02 5.491720200123657858e-02 6.743637028695823044e-02 9.056839806457589459e-02 6.061241783200722877e-02 7.105794437273087183e-02 7.879045210325769100e-02 8.447939699702311511e-02 8.851337488047227031e-02 9.015856453559846495e-02 1.465801766944610507e-01 1.060510134181892189e-01 1.057400918509194404e-01 1.039030987625832181e-01 1.021173035573563620e-01 9.687938985114874502e-02 8.751506014382232079e-02 7.231493839610222962e-02 5.577979868744810388e-02 6.077171123270752595e-02 6.485719626153800543e-02 7.095513554867756423e-02 7.517681391606836905e-02 7.766745876569836060e-02 8.232535102674218286e-02 8.623934199593952243e-02 9.377310197577715112e-02 9.364105606272700444e-02 9.343197617905563135e-02 9.317027587040793701e-02 9.285030433496718749e-02 9.247638746955816336e-02 9.205772430542957796e-02 9.160238757612075566e-02
9.061747959171798095e-02 1.536708350185604366e-01 8.816188915227771150e-02 9.011082448888690921e-02 9.109034761796040713e-02 9.196784801913353291e-02 9.277834215670277551e-02 9.352136714045572452e-02 9.073736008278297793e-02 8.750799222660296528e-02 8.489480887277771337e-02 8.209972449197397437e-02 8.041600093478584732e-02 7.824005833464120485e-02 7.213925100222084996e-02 6.841142487730372812e-02 6.376379678378969740e-02 5.786784570372133230e-02 5.007496400970238432e-02 6.752347466396695086e-02 5.298860068960288550e-02 1.006797102202472288e-01 9.182312050743665632e-02 9.307497825822093340e-02 9.290117031651379254e-02 9.276274162325040540e-02 9.268498162290236819e-02 9.269786346852824932e-02 9.279602454354604624e-02 9.281234419199409225e-02 9.248443256760380260e-02 5.178763108757204053e-02 1.073643507814110304e-01 9.491619823382012322e-02 9.725691275403292035e-02 9.538842720778692441e-02 9.544076582624617944e-02 9.561874147575991079e-02 9.579694502578128823e-02 9.596002586456849059e-02 9.615359992726001115e-02 9.640969947610975033e-02 9.792982151489117160e-02 1.058089462742574788e-01 4.816944630703895447e-02 7.470427551157597656e-02 4.620164390546429439e-02 5.415683456974099141e-02 6.020602320448990158e-02 6.489212277101062687e-02 6.858528669643319808e-02 7.155733914049343392e-02 7.400381721842543004e-02 7.604908587849597279e-02 7.773956262338768686e-02 8.129338556424520190e-02 8.013699559223340374e-02 1.450958938206912685e-01 8.675986985250135064e-02 8.004120129262971839e-02 7.885014069656089142e-02 7.825506452364250354e-02 7.828956287229850430e-02 3.329287779985059398e-02 1.389259901927417662e-01 8.684724649515408734e-02 8.781068298561262031e-02 8.794770013956432209e-02 8.812986767538445732e-02 8.843722219412383789e-02 8.886547943917366688e-02 8.939807869944972618e-02 9.002515037621813820e-02 9.073699664063814008e-02 8.799133813345176580e-02 8.687196742486269496e-02 8.557167858979497499e-02 8.398861192615827975e-02 8.199670699174622934e-02 7.945264373885407849e-02 7.629641354880541126e-02 7.275638610964289821e-02 6.917117302926292788e-02 6.546446758152850431e-02 6.148719103687593640e-02 5.831421043693856693e-02 5.737604006842148691e-02 6.393071935665448069e-02 9.120919657364159883e-02 5.992735667103626235e-02 6.991072533841329040e-02 7.741334894471148254e-02 8.300142706414731508e-02 8.709670023105132997e-02 9.018566124098288672e-02 9.403371847909255954e-02 1.413793271818602759e-01 1.051547515104538644e-01 1.049233027269882296e-01 1.036961016876512681e-01 9.960041656891131800e-02 8.925590709248046317e-02 7.390641310620058024e-02 5.492761866983811997e-02 6.000201602107901183e-02 6.445047740400255964e-02 6.803991432431184816e-02 7.354935408308442557e-02 7.729306597742229001e-02 7.948974578560996651e-02 8.372837901920593406e-02 8.732031985306588917e-02 9.436476692690283496e-02 9.410883414776732847e-02 9.379536729899151659e-02 9.344872670232549916e-02 9.306659783249142393e-02 9.265426131234613671e-02 9.221919277626985934e-02
9.080963302344462196e-02 1.544201910360319119e-01 8.931117986714792734e-02 9.131380738010594356e-02 9.214177572451701104e-02 9.292894976516379024e-02 9.370277047457860331e-02 9.113285486478356345e-02 8.816155406917350335e-02 8.581214190794271557e-02 8.327777473946185172e-02 8.186239882587666161e-02 8.003955282859538667e-02 7.470805706003356972e-02 7.163211052961497571e-02 6.783407106533942410e-02 6.309820367343553504e-02 5.708978661002966221e-02 4.918103452621508387e-02 4.924849686108954266e-02 7.818163113287934785e-02 1.013720820449338228e-01 9.261651452367523907e-02 9.372191319488420991e-02 9.340502417718155037e-02 9.317261040690111296e-02 9.304244446073965669e-02 9.301516751039642927e-02 9.300207932822378287e-02 9.274310529827030358e-02 9.244290823619898123e-02 5.188838424072620553e-02 1.093220247623161445e-01 5.160559518362595188e-02 1.112678615460864634e-01 9.562723711017558081e-02 9.603440281489093733e-02 9.618798983226013732e-02 9.627730804584415381e-02 9.633936888411812061e-02 9.651893854492071823e-02 9.655130137238024379e-02 1.169564555796885341e-01 6.230214275156061021e-02 4.923893556325686233e-02 7.570533130786477605e-02 4.587901119580623660e-02 5.385964996218978174e-02 5.987851170848160209e-02 6.450976914605190127e-02 6.815294325907898798e-02 7.109656457168057886e-02 7.354211586756904950e-02 7.562060457518382517e-02 7.741427926662183823e-02 7.895021432886506485e-02 8.231454804208736264e-02 8.313820645642809593e-02 1.379159477216095608e-01 7.855081355752302485e-02 7.852231159052208698e-02 7.798827951875536568e-02 7.875148632485255706e-02 3.136828825196317366e-02 1.388895381800577811e-01 8.748533419016421564e-02 8.830505701348889680e-02 8.824216908486597066e-02 8.831253533110566822e-02 8.859144686822183201e-02 8.901568823914769724e-02 8.954612441877551898e-02 9.017130558834064724e-02 8.752268679132649276e-02 8.647698496675181035e-02 8.532292229098684122e-02 8.397003986275178300e-02 8.229692098500587805e-02 8.015583778154850014e-02 7.746343773319841475e-02 7.440676708482879542e-02 7.130700446753916733e-02 6.811002640475005698e-02 6.467839917575222974e-02 6.195509029106972820e-02 6.089128441793770913e-02 5.966933650290460328e-02 5.897291300855820456e-02 9.038106953506963581e-02 5.939625475175205893e-02 6.886254379632814060e-02 7.605374838788513114e-02 8.147444397946364270e-02 8.547297506963413838e-02 8.817784712423418214e-02 8.882182051536452461e-02 1.499793626868521634e-01 1.060680981968746273e-01 1.057421668560274280e-01 1.047694554618927437e-01 1.104580914692837867e-01 6.339225323693332970e-02 7.616504460182964287e-02 5.401698055831521267e-02 5.900054804835011546e-02 6.378131284517234156e-02 6.772898228308989188e-02 7.086638039127461652e-02 7.584292447818080651e-02 7.914844082511757195e-02 8.106930271264090049e-02 8.492255578017204876e-02 8.820783943960509854e-02 9.479378040507663306e-02 9.442181469239388503e-02 9.401518410803411108e-02 9.359782749621196885e-02 9.316933650151391910e-02 9.273467245477076681e-02
9.112319927913152540e-02 1.552442209767558312e-01 9.007113426774297771e-02 9.221627591017983461e-02 9.304077558661404124e-02 9.381474134182488100e-02 9.142314078884361539e-02 8.868175967514357882e-02 8.656449578559879954e-02 8.424826963458528772e-02 8.304093900160164354e-02 8.149316655152333277e-02 7.677959701442420293e-02 7.422204800220820464e-02 7.109226128167608905e-02 6.722736049015762272e-02 6.239563951318059104e-02 5.625553397771868025e-02 4.822835441590121036e-02 5.461417967528692241e-02 5.266891435646692265e-02 1.062083658066280967e-01 9.344439940723403559e-02 9.434404149433778253e-02 9.381150851519357015e-02 9.348139322976009580e-02 9.330873549559187685e-02 9.323897468465952576e-02 9.308489176736121917e-02 9.244448400587645942e-02 9.230369833352942976e-02 5.165557517558821282e-02 1.100728507483258733e-01 5.038175057376473309e-02 1.104930606723650427e-01 9.625428732748807226e-02 9.655271407029927810e-02 9.651146375458695414e-02 9.638250417852006757e-02 9.623144451878899719e-02 9.650207256883913676e-02 9.743880576008601135e-02 1.153920240809834380e-01 6.224398158507801759e-02 4.939972701775420527e-02 7.645431224194397524e-02 4.570931201188085935e-02 5.365159811998299055e-02 5.957521959055779581e-02 6.411295668743538512e-02 6.768600486375780934e-02 7.059016130080637830e-02 7.302398295219580948e-02 7.511217489340653308e-02 7.695362993437626642e-02 7.870537101617550158e-02 8.062204892890725838e-02 8.413741197441217123e-02 1.368417171343249417e-01 7.854777010603183895e-02 7.820843607875016534e-02 7.733412422799534891e-02 7.894771537807415696e-02 2.996679711796719492e-02 1.382258624274996517e-01 8.800160045284859123e-02 8.842360874935273340e-02 8.808350483577208345e-02 8.820621968459736728e-02 8.856468145913633239e-02 8.903038178137984149e-02 8.957043163090679105e-02 8.697213532685171833e-02 8.592641073235539328e-02 8.482273873494465544e-02 8.359477737543855036e-02 8.213753651396880906e-02 8.031049914885333985e-02 7.802014378471250344e-02 7.542293978489195139e-02 7.282580606115283961e-02 7.019967818900256507e-02 6.742752114325327450e-02 6.537680481864659165e-02 6.476775077915516987e-02 6.348388222943959769e-02 6.017903754838920677e-02 5.514432128658443288e-02 8.819007256903767245e-02 5.859736029461211360e-02 6.777271456738651056e-02 7.467985406436729312e-02 7.997192144832232508e-02 8.397786956293873395e-02 8.684156937454957925e-02 8.837561689771478157e-02 8.797222402425300403e-02 1.517321233153353932e-01 1.058654836851415371e-01 1.062311811154434821e-01 1.105497686795474249e-01 8.733492168561736435e-02 5.687246055582864668e-02 5.288096425986570787e-02 5.767868227984283142e-02 6.285239170229614536e-02 6.715314407398004226e-02 7.063001420842607292e-02 7.335740303082342872e-02 7.785425944603496795e-02 8.076162401470990404e-02 8.242553724543844051e-02 8.592442492631849338e-02 8.892092256756979618e-02 9.508106372266822426e-02 9.460458976409719112e-02 9.411764783117730626e-02 9.364213503135782046e-02 9.317803344636022000e-02
9.151733147946472524e-02 1.560356215583159067e-01 9.069220957158485863e-02 9.299394230273033690e-02 9.386588555790226218e-02 9.162969248264153654e-02 8.908830820306586074e-02 8.717918766654851603e-02 8.505490057189346587e-02 8.401349159987057946e-02 8.267691196256447828e-02 7.845532808769539734e-02 7.630270208912728891e-02 7.370083837242018265e-02 7.051877905960336756e-02 6.657548534691994091e-02 6.162701795012989758e-02 5.533087886530996258e-02 4.730954015668051293e-02 4.811861237119074985e-02 6.380466313679893087e-02 1.056487038542094636e-01 9.515566499850504345e-02 9.497738680216143148e-02 9.410167502652347360e-02 9.368562520100001678e-02 9.348332663562104738e-02 9.337104551910062333e-02 9.307793112970065563e-02 9.165380380475128541e-02 9.991445801008842775e-02 5.065314234537156290e-02 1.100883861142295805e-01 4.941048143429219164e-02 1.089417598942130222e-01 9.755956137898066927e-02 9.692442187796082576e-02 9.648826068428631442e-02 9.600463025639333070e-02 9.550949940143460548e-02 9.592248710476702911e-02 9.968555928382386022e-02 1.224863155197029735e-01 5.951104871617175773e-02 4.880197872338429971e-02 7.685221710773346149e-02 4.557522142395275394e-02 5.343013847975665309e-02 5.922663984706573459e-02 6.366024784929132097e-02 6.716495474136577326e-02 7.003528721237019250e-02 7.245771798135342001e-02 7.453097231242580833e-02 7.630374966107388024e-02 7.785831031927942236e-02 7.957509082456382110e-02 8.281045174598138103e-02 1.360381721349031847e-01 8.050734912376476815e-02 7.790361837356703234e-02 7.596636776386379852e-02 8.915976600477112934e-02 4.075670450882456358e-02 1.369400116416213120e-01 8.870345570359151888e-02 8.732805066889023915e-02 8.750631263043889829e-02 8.797732357114444735e-02 8.848130762217812362e-02 8.899168374782479018e-02 8.644912593048922900e-02 8.537446085509570182e-02 8.426044360524249932e-02 8.307648672351530816e-02 8.174460447631946847e-02 8.013883084773423815e-02 7.816188246444862042e-02 7.594516598179028299e-02 7.378325612223124441e-02 7.167607364619829613e-02 6.953601813742642246e-02 6.818002063343019115e-02 6.817478589464524841e-02 6.725545899455015464e-02 6.419277357376312887e-02 5.937656337828387670e-02 5.293252538836840104e-02 8.663930241807415999e-02 5.828472150647334010e-02 6.654514149235987719e-02 7.321919071913096655e-02 7.848217473829870172e-02 8.260391027643555761e-02 8.575863863099199291e-02 8.796164312083858128e-02 8.902746295188512793e-02 8.853318857441862255e-02 1.520578964345254969e-01 1.080604546724257126e-01 1.208565455841466990e-01 6.765791603382670383e-02 5.665317944564131347e-02 5.194459167007080963e-02 5.584672617959768326e-02 6.168227634657955788e-02 6.633876741515136455e-02 7.014408627827600773e-02 7.318724977181914615e-02 7.554693686658287000e-02 7.961092168395285384e-02 8.215527621143398074e-02 8.358022377009077797e-02 8.675464089141320112e-02 8.948317063507220392e-02 9.525027648760094057e-02 9.467993426042169147e-02 9.411996244097686759e-02 9.358874202282629895e-02
9.199185015493821505e-02 1.568567446850958058e-01 9.129119131662177811e-02 9.374763457125717681e-02 9.177294695779120159e-02 8.941021451884106908e-02 8.768085863194445551e-02 8.572851607126190376e-02 8.482755020943422153e-02 8.365759484819940139e-02 7.982846900847444249e-02 7.798475461604104098e-02 7.579493135791656733e-02 7.315480319423052491e-02 6.991459539027816694e-02 6.587413891519693088e-02 6.075326965403880092e-02 5.407611305825425069e-02 4.647073258891239872e-02 4.768248688670772423e-02 5.637479907539125201e-02 1.126118377609643395e-01 9.862860088778992174e-02 9.541625156101361804e-02 9.421665679260923798e-02 9.377873295861886838e-02 9.356488614356590905e-02 9.342314128153103581e-02 9.318711062966882064e-02 9.279316431636318308e-02 5.187856865339231238e-02 9.931367434720247966e-02 1.114404995735284731e-01 4.632621647616726873e-02 1.145336738670564708e-01 1.002933831729255626e-01 9.692292365821575384e-02 9.611555814414785015e-02 9.531047605220718810e-02 9.454313033370237429e-02 9.499987904720934295e-02 1.245225688256001995e-01 6.888915092129094253e-02 6.029809861076840249e-02 4.803416822487001359e-02 7.686084208372791216e-02 4.527116266865660599e-02 5.305649462113198878e-02 5.874927578440859721e-02 6.310291193083701622e-02 6.656495273022076942e-02 6.942636553774557406e-02 7.186137318089599879e-02 7.394574912886762996e-02 7.567661342565600024e-02 7.697317527841424090e-02 7.751267048241028412e-02 7.523558391171274173e-02 1.494030930762424159e-01 8.514196236709248300e-02 7.724778841081292313e-02 7.668932056923731533e-02 3.460284958146035011e-02 8.642853759155545712e-02 1.449349600164957785e-01 8.174408779116699997e-02 8.592118727888115037e-02 8.716900359617679728e-02 8.789711011246109651e-02 8.846441348220539236e-02 8.601569593122854185e-02 8.491930289708017610e-02 8.376987005142566556e-02 8.258402262424448248e-02 8.132446209898334943e-02 7.988625065750122600e-02 7.816726019759788480e-02 7.626727214593582993e-02 7.445708590854376030e-02 7.275854504140126522e-02 7.111811104683112006e-02 7.032529402469785140e-02 7.084519734555982939e-02 7.034670541899286367e-02 6.768789950443564185e-02 6.346381167037772053e-02 5.777151982697577293e-02 5.157689824860657579e-02 5.299659251662478671e-02 9.673320542197391680e-02 5.866027198868359327e-02 7.165647776156698623e-02 7.701787563297279871e-02 8.133803751914288338e-02 8.480556997343710601e-02 8.748058649967696554e-02 8.934027318876967827e-02 9.050733198784445543e-02 9.171652020898984903e-02 1.590834572338977182e-01 7.537395434909716085e-02 6.780086915531426117e-02 5.686100828387701672e-02 5.171728468458552941e-02 5.318453186971919266e-02 6.027801065232610278e-02 6.539286297982802032e-02 6.947828215640863836e-02 7.280535533549647997e-02 7.544868785433009317e-02 7.747286272932882301e-02 8.114015976653685125e-02 8.335128247684939207e-02 8.455658983480569824e-02 8.743774374379359449e-02 8.992054892895073870e-02 9.532179380331509688e-02 9.465909581090761749e-02 9.401862676930350382e-02
9.000659772796784641e-02 1.576826303145526520e-01 9.191805779472728144e-02 9.176896082127401766e-02 8.968358867159575976e-02 8.810756812092300494e-02 8.629935306202519973e-02 8.551834011994902118e-02 8.448677841219105755e-02 8.097730666387792375e-02 7.936478510037862921e-02 7.748707004737720450e-02 7.527010052893869096e-02 7.259475621499490716e-02 6.930139875757006240e-02 6.518357558258591755e-02 5.996886947418086922e-02 5.233104502857741785e-02 4.618253900670712953e-02 4.790277860526079984e-02 5.732695441212555532e-02 6.513793112307054989e-02 1.215765105924069556e-01 9.464628032634567201e-02 9.409692762349036732e-02 9.377171656020052981e-02 9.356106630678083513e-02 9.338080219098221502e-02 9.314260749895036939e-02 9.291272587792759330e-02 5.023134640609558388e-02 6.002237115760526015e-02 1.199211158917630055e-01 4.665643159653527772e-02 5.729836802086132885e-02 1.233687369400034844e-01 9.576391794051933304e-02 9.563635044623390591e-02 9.489429075820965398e-02 9.443075259794354859e-02 9.738438123780809863e-02 1.329698929068981739e-01 6.733321184758517264e-02 5.967084753747994852e-02 4.702396604865229091e-02 7.659999289625531171e-02 4.466135629357878556e-02 5.243090039531261154e-02 5.807465547074162210e-02 6.239762112676675715e-02 6.585949643576612111e-02 6.874759012825924775e-02 7.122795983668443742e-02 7.336864905497267331e-02 7.516554045075202195e-02 7.657146687616084302e-02 7.751203138157852779e-02 7.786185267775877494e-02 7.807747934750583485e-02 1.403842447997800391e-01 7.396130611433364421e-02 7.532469183702328319e-02 3.042433510355452980e-02 1.439438856146417200e-01 8.353647539410305467e-02 8.511306430280470015e-02 8.650792196318776717e-02 8.739884785296098135e-02 8.804952809204916186e-02 8.571981752904221652e-02 8.461365634041720374e-02 8.341217218938484779e-02 8.218739812021906566e-02 8.096888924863296366e-02 7.968930893300510410e-02 7.823667077944590487e-02 7.666788737286611699e-02 7.520857239315530129e-02 7.387485942902498326e-02 7.263214142256628481e-02 7.225099740690277272e-02 7.312623740320982335e-02 7.291656777690561086e-02 7.059857723228538107e-02 6.687726246387985796e-02 6.193447862000964893e-02 5.643492091533718752e-02 5.045899059855560309e-02 5.553030157608072198e-02 5.555712766195697316e-02 1.020321600036703524e-01 6.525416423809698996e-02 7.567949144311074405e-02 8.023312477051794400e-02 8.401022914021380461e-02 8.702041412031658041e-02 8.915097437946491177e-02 9.046622471928397746e-02 9.093201158212145530e-02 1.548844058038036930e-01 7.368231858207312246e-02 6.753418768421706742e-02 5.727234075955674186e-02 5.448544291861354832e-02 4.876810082959082138e-02 5.788582178269701534e-02 6.420873850912624248e-02 6.869964284140560318e-02 7.227045152908695425e-02 7.516457602942366867e-02 7.744257438925464254e-02 7.915858007350223824e-02 8.246206129856972766e-02 8.437176296893970917e-02 8.538236814238162053e-02 8.800209311387713340e-02 9.025650551646556552e-02 9.530458289725407539e-02 9.453348331279522176e-02
8.933643480884218002e-02 1.584302724686473540e-01 9.018968724556919447e-02 8.984732848951160200e-02 8.850192348314561697e-02 8.680873802981657616e-02 8.611937926146057132e-02 8.520336136739320443e-02 8.196287387419985693e-02 8.052480556365700093e-02 7.887594406005737913e-02 7.697452192403234084e-02 7.473361031075707872e-02 7.202649106749446639e-02 6.868843653809862670e-02 6.451874366799702221e-02 5.853170198797733037e-02 4.635787760428669579e-02 5.061658280384317976e-02 4.781045634796853711e-02 5.750433668399437814e-02 6.496833711622714003e-02 1.217286525775406053e-01 9.429955380876135773e-02 9.397863734668750191e-02 9.371844063357331889e-02 9.349814540074363745e-02 9.327581521427670552e-02 9.302701978649217940e-02 9.287794630518464434e-02 4.973126746585188052e-02 5.781066672214588142e-02 1.196445018012036177e-01 4.650739192900564534e-02 5.644962133320935438e-02 1.219792282597843142e-01 9.531982122664402202e-02 9.567184649021870380e-02 9.540809486534411465e-02 9.542329002780765290e-02 1.289551824353882548e-01 7.908274368155790435e-02 7.134121960386148598e-02 5.968305725948636065e-02 4.592697642187895668e-02 7.625631232766885703e-02 4.375037388881542616e-02 5.150902889764116810e-02 5.716298031777540534e-02 6.151611882269132636e-02 6.502684444083982329e-02 6.797675590096682874e-02 7.052625327678778422e-02 7.274288692611380336e-02 7.463346946788336489e-02 7.618837791951288407e-02 7.743908558741292858e-02 7.849783132134681429e-02 7.908544385378590835e-02 1.386610563949747799e-01 7.179243229549946148e-02 7.455446479738621346e-02 2.820795985349895674e-02 1.404373376915568628e-01 8.552039428325584891e-02 8.651207179535601310e-02 8.719451392495625175e-02 8.786094261300590735e-02 8.564248290165402122e-02 8.451898505382116067e-02 8.322659485192701601e-02 8.188332944203093045e-02 8.062838456060676673e-02 7.950566580623912027e-02 7.837192852418678468e-02 7.720730690903232496e-02 7.620267154295982948e-02 7.532899968228411181e-02 7.452370582414150069e-02 7.453108303652591915e-02 7.567610112217226792e-02 7.561174270479109616e-02 7.345973700766521286e-02 7.002805134406253629e-02 6.554514428496886758e-02 6.056811046422423683e-02 5.529543928441656153e-02 4.928930134682152353e-02 4.964699354460702652e-02 6.513509226844682587e-02 6.313089992244705351e-02 1.061662190543560397e-01 7.046688429166146628e-02 7.937048868027780923e-02 8.344110874273993894e-02 8.676515434828691031e-02 8.901794252488355597e-02 8.976014635254225826e-02 8.911229086495836560e-02 1.530132036008333696e-01 7.238066280143561071e-02 6.696846143189796874e-02 5.751377670704185818e-02 5.645190524034263829e-02 4.842638779635698165e-02 5.427823598864048998e-02 6.209400831357012041e-02 6.769407769468717417e-02 7.162335646718114013e-02 7.473701749406634620e-02 7.724123082332930157e-02 7.918598171454231671e-02 8.062352470321104692e-02 8.360207129487193245e-02 8.524833248923976980e-02 8.609098217164112832e-02 8.847314417351320737e-02 9.050288346037246856e-02 9.519096118882848512e-02
8.873688640028565278e-02 1.590887948671554086e-01 8.845264974755441545e-02 8.879457896243936332e-02 8.729142116808684404e-02 8.666842334928373526e-02 8.584119520801603009e-02 8.283092943061054481e-02 8.153041989705213377e-02 8.004924626193857251e-02 7.837359260665525962e-02 7.645035907560121524e-02 7.418634293209451502e-02 7.145050510136616295e-02 6.808376151931004594e-02 6.330344018340343382e-02 5.353467368875282351e-02 4.587156021159854991e-02 5.379525044966391306e-02 4.772714171720671139e-02 5.745090983232872817e-02 6.478056256262963719e-02 1.222683093071939980e-01 9.418549985431860783e-02 9.391168740457718489e-02 9.365327854938740315e-02 9.340115346832751630e-02 9.312986053904474815e-02 9.285066671536047755e-02 9.270672290979056762e-02 4.924032637443483823e-02 5.762176858476988905e-02 1.194303476888556870e-01 4.599281958120331193e-02 5.576288257752860800e-02 1.207451919415140074e-01 9.593937282979775327e-02 9.652621462915653150e-02 9.696258005921287726e-02 9.954473528192887832e-02 1.392439902838890631e-01 6.970725704545938095e-02 6.880316364704719412e-02 5.881076300191050849e-02 4.472810562822614189e-02 7.567279759926449911e-02 4.254013506898037672e-02 5.027321137819106694e-02 5.600171942912558765e-02 6.044794886691171737e-02 6.405428452881868628e-02 6.709345395558528879e-02 6.972199302989449954e-02 7.201092636708701644e-02 7.397999502587243592e-02 7.564361088334393968e-02 7.706724776543505406e-02 7.838697091671487094e-02 7.916290643076703826e-02 1.383681546404598728e-01 7.016261493849527964e-02 7.460599722781577348e-02 2.550008136985668084e-02 1.378444934202669170e-01 8.594713195229498892e-02 8.705558281909335505e-02 8.792860096555606131e-02 8.590444176970263301e-02 8.477301632417813537e-02 8.332848531956581206e-02 8.173140026320543927e-02 8.017918219570546734e-02 7.908926886275452484e-02 7.843059384944442436e-02 7.772281395598007459e-02 7.727235979317363668e-02 7.708413162903297866e-02 7.688782597629092996e-02 7.737109156481324079e-02 7.881670033835014300e-02 7.885982704352995087e-02 7.678543245375850368e-02 7.350674090177032605e-02 6.927037471347552433e-02 6.452606473201918935e-02 5.951556790939869362e-02 5.400368293231980893e-02 4.807328566301138917e-02 5.058661918390622292e-02 5.926005861948846487e-02 7.175556721612098843e-02 6.911577174752663033e-02 1.095138483904474214e-01 7.513475383503756544e-02 8.309246647486304149e-02 8.678063336511737669e-02 8.943785962710867898e-02 8.995160025524918945e-02 8.575101996388440062e-02 1.511856035805320408e-01 7.098474888704731089e-02 6.612397520972890241e-02 5.408250724826120515e-02 5.863931293366012737e-02 4.804073904347615220e-02 5.421007955237088644e-02 5.886773234452026549e-02 6.576738911709144320e-02 7.074478888099026974e-02 7.419235215331568267e-02 7.690516559853299849e-02 7.905683378088808333e-02 8.070101353245461018e-02 8.189760126340045465e-02 8.459457565535855039e-02 8.601070467385590890e-02 8.670155526416470360e-02 8.885607227340297509e-02 9.065347862999126316e-02
8.819799224745566990e-02 1.596885311406665842e-01 8.753364424903394003e-02 8.766731873419721099e-02 8.718566452146712942e-02 8.643039918080330786e-02 8.361643313445654702e-02 8.242966324019659896e-02 8.107772382222812324e-02 7.956275288731116946e-02 7.786127982120666369e-02 7.591493631342241533e-02 7.362703381210794484e-02 7.087302149759033831e-02 6.701372280368310397e-02 5.890614392434822405e-02 5.318412359177681487e-02 4.533102700494679588e-02 5.612856585895072137e-02 4.775864597181078697e-02 5.736906378499184028e-02 6.456175737573632833e-02 1.229260562286053349e-01 9.419111651434441956e-02 9.389528044497766346e-02 9.359265664605709301e-02 9.328752739227243185e-02 9.295693236504588841e-02 9.262333014251528107e-02 9.244204535562743075e-02 4.879297339756324264e-02 5.722643094498097716e-02 1.193404867212636139e-01 4.505932417342902591e-02 5.505720565456988930e-02 1.191094500865275407e-01 9.810819918225627267e-02 9.793917219185961642e-02 9.815140595573638993e-02 1.346918291583998062e-01 7.580458411764702531e-02 7.280373530993841658e-02 6.779156544576063481e-02 5.772156608343092382e-02 4.353712859601025637e-02 8.426677860310607948e-02 4.077133048888255396e-02 4.868274791519116435e-02 5.458543159010748047e-02 5.919350962033673863e-02 6.293763061700234640e-02 6.608596705651846592e-02 6.879363085809493683e-02 7.114043052441974824e-02 7.316491774215899691e-02 7.490674423771878643e-02 7.645490847394652290e-02 7.794718822633311950e-02 7.885397875666812217e-02 1.384712790274822969e-01 6.819620246551592879e-02 8.741490988604670720e-02 2.808853993084259315e-02 1.328586960372865888e-01 8.448665681350769896e-02 8.753898289194309013e-02 8.624962427195721759e-02 8.533926601349246799e-02 8.383161177060627356e-02 8.187382757349510876e-02 7.996157516368712637e-02 7.759012500593992501e-02 7.819266910099133272e-02 7.822504365955675054e-02 7.793507092523600799e-02 7.875596671287599104e-02 7.963420598328579958e-02 8.062180052396823726e-02 8.229830832112375316e-02 8.234862261183026333e-02 8.029534202498921081e-02 7.717130253084666935e-02 7.321818950615836818e-02 6.872201200710197078e-02 6.388284061984333961e-02 5.855035226547897209e-02 5.275285895616593085e-02 4.692986151792214594e-02 4.914799282156132737e-02 6.142772337130689153e-02 6.691862700525323671e-02 7.695288514772682942e-02 7.421133035006333145e-02 1.124649906832310836e-01 7.954556198669293643e-02 8.684598601095759596e-02 9.033237714697811560e-02 9.227648119986897601e-02 8.752105008844630885e-02 1.475013589567369665e-01 6.989208987555617369e-02 6.233687331404766385e-02 6.893281654266852909e-02 4.679707062929272521e-02 4.722874323544912906e-02 5.379161977067516143e-02 5.886820859363072617e-02 6.277232514424267718e-02 6.898540048002643754e-02 7.344593404560495475e-02 7.647185675906677249e-02 7.880212892202617669e-02 8.061673212368208885e-02 8.199314691598780236e-02 8.298727312051190630e-02 8.543386556129821396e-02 8.663921859872722453e-02 8.718996086023270142e-02 8.912202328316959354e-02
8.770350200663888651e-02 1.601585642767921758e-01 8.652163219445657694e-02 8.756867431981218974e-02 8.697508254604650879e-02 8.434275832670512507e-02 8.325422346657371242e-02 8.201058076898985749e-02 8.061760090291299197e-02 7.907029736576610957e-02 7.734105148090776594e-02 7.536869678121858873e-02 7.306393245307611639e-02 6.990128231853880159e-02 6.304429230151784025e-02 5.861749588879001938e-02 5.274477314226109353e-02 4.461372262019824148e-02 4.262472209191418837e-02 6.745056382808609086e-02 5.736019788184038015e-02 6.433912292160842705e-02 1.234724218633090898e-01 9.424356083736527834e-02 9.391815041904905126e-02 9.354249091236239988e-02 9.316763652980711297e-02 9.276797685587911957e-02 9.235561643576988000e-02 9.209366504192827152e-02 4.839624488443792366e-02 5.686134447511038970e-02 1.195171116171033221e-01 4.395222410466834845e-02 5.089472870376651747e-02 1.274270783657670547e-01 1.026031398480314466e-01 9.929183408102931763e-02 1.016312922119590595e-01 1.454567813817719268e-01 6.985050978338767924e-02 7.057468812846676154e-02 6.599766939536798327e-02 5.653904757510579832e-02 4.311629352557235645e-02 4.050496482476109023e-02 8.787896057182134624e-02 4.678664152115282610e-02 5.294221976302022903e-02 5.776660120364042472e-02 6.169006191303686576e-02 6.497223465231460882e-02 6.776389396331909676e-02 7.015499254181487010e-02 7.221263345322377625e-02 7.401479530469244617e-02 7.568173810176667682e-02 7.735741452961027165e-02 7.847647394965451273e-02 1.388752357215431166e-01 6.918824780317023304e-02 3.010330611661148417e-02 8.098221369677238712e-02 1.513545323996031700e-01 1.212394954912792422e-01 1.221353296865189952e-01 1.192112578707882342e-01 1.138715160489971318e-01 1.053181084337842521e-01 9.155717368194576933e-02 7.079180807847862411e-02 7.677366183801706545e-02 7.934861987851019038e-02 7.894644782278233131e-02 7.739599170626783320e-02 8.287677588662686889e-02 8.385029193715902440e-02 8.526890798746340761e-02 8.492667040377024912e-02 8.274064152985383114e-02 7.980917470226885080e-02 7.631926087953197491e-02 7.233726258111210228e-02 6.794655193984985853e-02 6.308084286741785784e-02 5.763551654118836964e-02 5.153580642113501226e-02 4.559641994297480155e-02 4.936050617982769978e-02 6.065215393171135422e-02 6.901209450777689991e-02 7.279923454448224140e-02 8.138766567272559538e-02 7.875037206066387574e-02 1.149923571438472847e-01 8.353206538424401417e-02 9.061798038387010312e-02 9.573108478671896182e-02 1.054907968667217616e-01 1.516024975210623349e-01 6.311150690754384340e-02 7.388104939433232099e-02 5.701082947289715097e-02 4.625053138436309441e-02 4.600475777497982366e-02 5.302721917872087881e-02 5.852851454875177689e-02 6.279500534288086355e-02 6.614758827137709463e-02 7.177713647648530093e-02 7.577844978261073783e-02 7.824792753248696608e-02 8.011243116592650648e-02 8.157756680356369194e-02 8.267944282930916877e-02 8.346988253343048947e-02 8.563449598640987537e-02 8.668081555773335389e-02 8.706817582465947725e-02
8.726284497952753461e-02 1.606092060388445153e-01 8.623658623075797225e-02 8.734597712883682141e-02 8.500352571828433124e-02 8.401795143536835986e-02 8.287410635426947780e-02 8.158639155481467453e-02 8.015625762727129899e-02 7.857607914124907500e-02 7.681612161092969682e-02 7.482301356172446627e-02 7.216778668882865844e-02 6.626019553885102720e-02 6.278342736693169612e-02 5.827344638077121275e-02 5.224932627766348120e-02 4.388676198929881284e-02 4.676056471124551139e-02 4.954192114980959100e-02 7.385335346971415305e-02 6.397474749234025038e-02 1.237286147414178167e-01 9.429947598260079999e-02 9.396825256976820695e-02 9.350159660187777610e-02 9.304595699664253150e-02 9.257322612398127815e-02 9.205997344128064030e-02 9.164985161983787987e-02 4.809561897158758786e-02 5.666372068419550656e-02 1.199665777191708804e-01 4.362139354494803944e-02 5.215376609245262612e-02 5.956099801106942704e-02 1.341659021017150566e-01 9.831749978722803540e-02 1.393382969236655056e-01 7.630948560506999045e-02 7.242118867365035517e-02 6.979050843574066687e-02 6.442898503975370839e-02 5.533044612517859506e-02 4.239525311990949979e-02 3.999755253909689778e-02 4.582218673977710155e-02 9.054982011985546198e-02 5.112078897802540406e-02 5.620269200017466438e-02 6.037742505788185055e-02 6.385609933093737423e-02 6.677427619412067139e-02 6.920717541456622435e-02 7.125783700427745782e-02 7.307838490454734992e-02 7.484277096426865394e-02 7.669777731318810909e-02 7.801952242286527839e-02 1.389993606965194972e-01 6.845875327551546874e-02 2.526108223081134641e-02 1.395769726526749632e-01 2.630419793684445409e-02 4.101226317136065502e-02 3.227431058860792679e-02 2.486612513565990279e-02 2.117988054614522789e-02 2.275889966441203491e-02 2.470402590884663782e-02 7.555313614286143786e-02 8.253697662682274450e-02 8.145565723340840447e-02 8.055100104898171853e-02 1.343418101398619335e-01 1.269559673825150503e-01 1.272959757992046526e-01 1.254058204083102479e-01 1.219458084900185285e-01 1.173006816286151360e-01 1.115685143278701413e-01 1.046797425821575783e-01 9.647957600423048841e-02 8.687359670181238336e-02 7.589183902399704307e-02 6.342596862354472897e-02 4.953934589741616767e-02 4.345524094066025023e-02 5.012348836772165250e-02 6.134973976644282623e-02 6.849203062160312550e-02 7.483165699385983805e-02 7.767305063010369881e-02 8.522664053813683305e-02 8.259179936253069343e-02 1.166547288919966840e-01 8.643755679349363064e-02 9.167868809768925376e-02 1.629365885838444938e-01 5.407150505572148186e-02 7.896367817359165042e-02 6.409330427314950673e-02 5.681387979647898462e-02 4.640469922233378397e-02 4.380415355919815151e-02 5.148588881697926944e-02 6.517756033436132579e-02 7.683237117628338719e-02 8.686118988239235894e-02 9.557245354316835917e-02 1.039819279084391035e-01 1.110184728839376800e-01 1.166364870652685792e-01 1.210934181687088884e-01 1.246173858243841137e-01 1.274142566123693532e-01 1.296991314716953725e-01 1.316697552346643707e-01 1.330510135340087496e-01
8.685860355481236916e-02 1.610485529546413497e-01 8.594949985542983673e-02 8.547297192041244940e-02 8.470509776062454255e-02 8.367068256208740062e-02 8.248708329231171921e-02 8.116364415354331008e-02 7.969964458635508953e-02 7.808597691485373582e-02 7.630058025485464412e-02 7.399771851297878844e-02 6.879423079157336030e-02 6.600070200257998621e-02 6.247826278483638307e-02 5.788873017817724315e-02 5.178525227150674454e-02 4.341791706750630642e-02 4.303636006137165348e-02 5.676973045600713225e-02 5.787282366540441592e-02 7.739608203206277404e-02 1.245364907687267070e-01 9.437482875126601556e-02 9.403587353325093545e-02 9.346208171596562253e-02 9.292104945638779423e-02 9.238336523779765164e-02 9.175728626221607565e-02 9.109728713397205468e-02 4.790110075941908518e-02 5.678978165654272048e-02 1.205046124180215172e-01 4.346145437090281893e-02 5.226453517327792758e-02 5.956510916557096469e-02 1.331494650817490744e-01 1.008427771873675188e-01 1.529048848237570257e-01 7.300995676322794004e-02 7.180171807480514867e-02 6.884039204697606218e-02 6.300165534485623053e-02 5.417420141797001792e-02 4.171681668115870267e-02 3.966835285907761161e-02 4.526817030205860376e-02 4.994725568130672921e-02 9.230698004729201434e-02 5.461793405722564776e-02 5.915456557135409521e-02 6.299572828428677551e-02 6.615658785873639036e-02 6.866555146713963775e-02 7.059094345849144247e-02 7.227790387186894261e-02 7.404211018992572224e-02 7.601057728673760172e-02 7.749280583651657617e-02 1.389387610564263020e-01 6.884278464880989878e-02 2.257696671242857833e-02 1.347066774687980806e-01 5.070994291731065196e-02 2.681744164344567957e-02 2.510692621541292524e-02 2.927683133630259657e-02 3.254605562534416269e-02 2.458397141084212381e-02 7.362989111882063675e-02 1.395925401265217525e-01 1.279473174001241054e-01 1.302412073921330460e-01 1.325553389619064937e-01 8.329956535584966126e-02 7.895096394151125685e-02 7.636039712971239013e-02 7.472903762027420516e-02 7.331954765528427009e-02 7.181178209059056738e-02 7.001709738924238868e-02 6.780441401187638217e-02 6.508406808401637211e-02 6.173205270691642377e-02 5.753222309784135347e-02 5.238097125143721666e-02 4.640291580607228822e-02 4.180840530374846375e-02 5.170865489055397751e-02 6.223793448678521106e-02 6.933342094543233636e-02 7.440454063773686844e-02 7.955881429777968139e-02 8.171002165279037111e-02 8.825677927633060471e-02 8.534617978485771472e-02 1.167246893938213709e-01 8.667692987552112760e-02 1.585472553200711343e-01 8.164105291590822988e-02 7.009378692706848268e-02 6.449655287229499878e-02 5.713219124642167357e-02 4.707032630013336522e-02 4.272707923691035359e-02 4.856875435304978256e-02 4.470738405544868316e-02 5.123761935345558238e-02 5.614146930187570439e-02 6.000334622618324482e-02 6.301893613936680738e-02 6.541821497614032366e-02 6.727111837255465854e-02 6.862614239402334282e-02 6.954412839758153386e-02 7.009689504916495617e-02 7.036506361833674839e-02 7.041220147757151770e-02 7.030821463981933028e-02
8.646411205311149706e-02 1.613767022123995531e-01 8.426063561026357618e-02 8.519329225237150249e-02 8.437262035824141804e-02 8.330816341525150437e-02 8.209938636430307024e-02 8.074976496796520964e-02 7.925641457856824612e-02 7.761725251935672198e-02 7.555550545608195889e-02 7.086403590515294448e-02 6.853453246037245761e-02 6.570087904203629481e-02 6.210893243422217769e-02 5.744753843898060819e-02 5.127220557956548019e-02 4.282779088115094140e-02 4.287162939970825398e-02 5.334428380725798891e-02 6.435678864840252422e-02 6.422012827098608212e-02 1.256553755494002056e-01 9.437827177617601204e-02 9.411133656377398959e-02 9.340889288159705262e-02 9.278439668568992660e-02 9.220971151577939118e-02 9.148807288667983040e-02 9.049124511549908045e-02 4.750429440538558173e-02 5.747076147165517540e-02 1.207704479240662016e-01 4.351781954252752910e-02 5.219152420678705578e-02 5.923767654277431460e-02 1.313080782488228460e-01 1.385947886016989927e-01 5.563055171611411970e-02 7.848115975149883017e-02 7.322316069308985875e-02 6.819365644110246538e-02 6.176011877739232686e-02 5.311404721888374203e-02 4.107823957433340278e-02 3.923947429641874013e-02 4.476062786930235654e-02 4.921495378123997427e-02 5.342234479812971865e-02 9.381890319787015986e-02 5.816717485298542739e-02 6.271685674473641281e-02 6.627837806713436641e-02 6.905793099354927411e-02 7.065940127247503921e-02 7.169931459687840791e-02 7.331451240481648424e-02 7.524027204896957532e-02 7.678024089195725765e-02 1.383876805757901507e-01 6.966952617232639866e-02 2.136690008208763994e-02 1.273107595989601271e-01 2.900492575260581532e-02 3.620910599768922128e-02 3.698419848521713321e-02 3.992355287551579285e-02 2.539505675969387991e-02 7.604112430887746688e-02 1.413697488360400045e-01 7.968719071401468568e-02 7.694965255988152342e-02 7.587825204659205680e-02 7.578128352236618293e-02 7.653856762410495007e-02 7.562516639616945202e-02 7.429349374331464806e-02 7.284470745206426956e-02 7.129322195610540702e-02 6.957129037516143755e-02 6.757744804322222965e-02 6.519317969269851354e-02 6.229389886887561067e-02 5.875136290491461688e-02 5.442443811290901406e-02 4.930316885301713747e-02 4.369824687036998057e-02 4.300290437977929980e-02 5.337147368687539251e-02 6.307754141264691750e-02 7.007562361830449449e-02 7.519302371482522451e-02 7.905702101929798498e-02 8.332202162804674961e-02 8.478345008295430640e-02 9.028575634880567358e-02 8.677302436705285060e-02 1.125425381844376016e-01 1.583879563848776817e-01 7.459473430989621567e-02 7.072496913941887786e-02 6.495507638117634097e-02 5.761561678894674965e-02 4.785626804136252493e-02 4.123025075174559240e-02 4.829058465479962869e-02 6.060437959195929397e-02 6.549375023719704314e-02 6.922168782767483541e-02 7.209505483692223160e-02 7.427155990199567348e-02 7.591610041185486990e-02 7.714032653044805565e-02 7.801913231143053906e-02 7.861612680298503408e-02 7.899502164274962990e-02 7.922381329508138004e-02 7.937432599108443232e-02 7.952116180272571222e-02
8.608980377244132565e-02 1.616611361439540540e-01 8.390678195017742258e-02 8.484225439966136539e-02 8.400903526237718522e-02 8.293704827616675546e-02 8.171988575569737179e-02 8.035603962707943415e-02 7.884721841694969369e-02 7.696758150363507134e-02 7.265775886695066688e-02 7.063004003236138251e-02 6.825579151048803694e-02 6.534562918626704575e-02 6.167675527909038946e-02 5.694630733642433440e-02 5.070242495617419826e-02 4.218020908801373148e-02 4.280155283994758336e-02 5.328467238934168210e-02 6.102038992013233965e-02 6.957277213440858643e-02 1.263153723469127021e-01 9.451413492887604517e-02 9.422522193021953818e-02 9.331779090054970194e-02 9.261934510960141698e-02 9.206175198007461591e-02 9.131271394032984545e-02 9.006384917128577861e-02 4.644906417139967741e-02 5.341936929166729575e-02 1.374793626227215904e-01 4.546458875901333851e-02 5.222861881441226428e-02 5.957524136712945284e-02 1.322523409709756848e-01 1.494155470047550949e-01 7.562423734460879676e-02 7.628536212366457403e-02 7.255298576342504580e-02 6.717053584020669932e-02 6.059488502884550348e-02 5.216477741075525171e-02 4.051873750313591399e-02 3.867244217261783801e-02 4.411835974537254429e-02 4.888196069674997229e-02 5.303317627748806162e-02 5.709446189588768261e-02 9.390778636936258916e-02 6.356480422614367576e-02 6.677160187233180388e-02 6.995214989577079601e-02 7.263474920046368577e-02 7.004854962425818843e-02 7.272028843474105664e-02 7.417325229535681741e-02 7.562727829052166839e-02 1.369315986873894386e-01 8.138621404012663652e-02 3.316991306628225278e-02 1.467565636838886745e-01 5.362206298484313571e-02 4.093469455019943526e-02 4.287044443493800983e-02 2.691953555215222463e-02 7.977710642144243691e-02 1.445791068253606260e-01 8.213713394547070279e-02 8.077572170868316248e-02 7.871318156266697563e-02 7.678882161975822407e-02 7.518063999769485084e-02 7.384036310991495822e-02 7.246199113805514014e-02 7.099550800719815757e-02 6.941143825753230689e-02 6.765501348837202333e-02 6.563769133070142259e-02 6.323391806035078000e-02 6.028550995975130722e-02 5.662464412427586913e-02 5.218584082271848085e-02 4.687079254406039536e-02 4.067624449725568136e-02 3.868452338485760256e-02 4.534954047517249232e-02 5.865481435388342213e-02 6.405385152684034411e-02 7.062435200683483960e-02 7.577731693527724188e-02 7.966826010543442971e-02 8.261600309102269668e-02 8.607445477429014058e-02 8.691331883023903360e-02 9.165233847598273920e-02 8.761707490369036178e-02 1.597052960097934127e-01 7.445485077431805709e-02 7.088203260242917358e-02 6.525536883446304837e-02 5.803646938883854495e-02 5.426444084154753711e-02 4.318646924148246413e-02 4.084589842913204788e-02 4.268334164723103230e-02 4.941822475306944379e-02 5.478750274268501252e-02 5.910506965817379638e-02 6.258129516858505770e-02 6.540154431925514211e-02 6.767351519150370531e-02 6.949569732665654420e-02 7.095862015739150264e-02 7.215095047205268008e-02 7.316366378005105531e-02 7.409334745462031746e-02 7.504446948073012491e-02
8.572959165523678926e-02 1.619069063760302241e-01 8.353009613518834475e-02 8.445722421304596716e-02 8.362683761438721719e-02 8.256702977838481505e-02 8.136104052242323914e-02 8.000540978008266468e-02 7.830215551987879108e-02 7.430974094912702610e-02 7.248538779974898760e-02 7.041031765279502641e-02 6.794849921870153853e-02 6.494433190761196573e-02 6.119111910896926632e-02 5.638882952213650213e-02 5.007935037916223797e-02 4.149429951456146126e-02 4.275139535445376948e-02 5.322699179589410884e-02 6.103822464626593169e-02 6.712028663170786780e-02 1.271068658100619198e-01 9.474119976381327468e-02 9.440488553038998976e-02 9.314402405698070375e-02 9.239710590987415539e-02 9.194171971866557658e-02 9.127086476695643602e-02 9.004379720405328302e-02 4.586841470513984553e-02 5.354082319069659868e-02 5.875883595241022939e-02 1.390172212328857626e-01 4.427504579437962356e-02 5.760585264897741947e-02 1.524729981073683904e-01 5.780081586631470592e-02 8.194190236612548806e-02 7.693036453014759357e-02 7.182626077593305680e-02 6.615669134067363177e-02 5.957652380430134009e-02 5.135413141007244553e-02 4.008715529486656104e-02 3.830315799724511722e-02 4.261741081635309764e-02 4.815854350662807093e-02 6.284179634732044162e-02 7.436250813428517403e-02 8.517996515288625559e-02 1.062263230055016106e-01 1.103331027888903026e-01 1.138703451755833096e-01 1.163439843175260724e-01 1.275211412877551576e-01 7.531951717798317236e-02 7.152531350666677112e-02 7.379615628750589573e-02 1.349056599893581621e-01 2.176515255378673810e-02 1.235508606723771385e-01 2.345967711783131585e-02 2.380583964092960678e-02 4.344131053296435008e-02 3.729009429535416059e-02 8.533919722606830849e-02 1.446245442449893559e-01 8.515942141561684553e-02 8.494923965727702031e-02 8.341189739484215770e-02 8.163061057439308099e-02 7.982351524971947887e-02 7.812723500877222227e-02 7.659310152721660048e-02 7.518242521657053645e-02 7.382294650339263353e-02 7.242743851403607436e-02 7.090470253884444130e-02 6.916406366486317625e-02 6.711740315695209624e-02 6.468225688792358929e-02 6.177427076737637690e-02 5.819648653773994845e-02 5.377733027427041013e-02 4.827613279764834953e-02 3.950680284869468456e-02 4.745146440405085403e-02 5.934223417050826788e-02 6.825842670228110531e-02 7.132817202854740968e-02 7.614814568074589063e-02 8.005192083784734569e-02 8.297165318218335806e-02 8.512691030774692524e-02 8.792171515979227414e-02 8.828947466151905454e-02 9.123746478073004040e-02 1.600834066625026753e-01 7.422470883057896707e-02 7.082915498066189031e-02 6.537728715643115196e-02 6.317705342574039817e-02 5.522951484256227034e-02 4.495091498999234658e-02 4.057791940117636692e-02 4.738620051710737413e-02 5.438726472351641805e-02 5.997768025079346782e-02 6.451287555560969444e-02 6.819828009364782562e-02 7.110706142409577157e-02 7.336681588238024021e-02 7.509942017496645805e-02 7.641912077596761665e-02 7.742685661179304901e-02 7.821347034317600866e-02 7.887318674497910409e-02 7.954991504280645165e-02
8.537858130660659628e-02 1.621017409100008466e-01 8.312218535380737350e-02 8.404014833906667259e-02 8.322942786427324491e-02 8.220722610862062074e-02 8.104544069625219116e-02 7.955648649197941125e-02 7.588177740349710820e-02 7.423008135091906101e-02 7.236660085020650557e-02 7.020001937570229111e-02 6.762747829436531466e-02 6.451389049845318580e-02 6.066372742142426416e-02 5.578103375700625005e-02 4.940486759973729269e-02 4.076975248204484092e-02 4.268966551791982672e-02 5.313007811646788814e-02 6.096659603681794937e-02 6.692463127747752538e-02 1.275973996336456640e-01 9.520317979224196536e-02 9.470975499492977068e-02 9.280100845707822677e-02 9.207805208035488298e-02 9.184665697207294865e-02 9.134412451817974787e-02 9.027672748400261682e-02 4.514380866552711313e-02 5.378986118534681560e-02 6.058713963882304127e-02 5.032139906112087502e-02 1.362727495564984570e-01 4.334191227012913067e-02 1.487262728168951553e-01 7.330536859353652124e-02 7.664614942777464579e-02 7.489658498252103891e-02 7.065930653364302372e-02 6.520694545027934386e-02 5.872693997358853502e-02 5.068261546626547098e-02 3.974772529453049486e-02 3.849356786713190037e-02 4.471856181494693327e-02 4.906932121311844558e-02 3.401290069097889779e-02 3.660528209282341155e-02 4.318516296195001880e-02 4.796299709615811646e-02 5.205599331881685665e-02 5.662434715278989034e-02 6.204916403763952037e-02 6.898689178662362198e-02 1.231901188341318343e-01 1.310013171089302597e-01 7.126186587892278934e-02 1.315271581196108541e-01 1.877290204287646730e-02 1.143920232643560325e-01 2.864974083145592487e-02 2.491682733614515935e-02 1.376193307683119815e-01 1.328521382549091023e-01 1.443570192358925863e-01 8.745053756683980606e-02 8.565267978166657414e-02 8.358620258951340865e-02 8.189317313462363135e-02 8.053056408852943271e-02 7.864415705940004664e-02 7.673595130124494235e-02 7.497740658193871588e-02 7.336718098510952579e-02 7.181252870275700584e-02 7.018911041555730979e-02 6.837195684566896303e-02 6.624287551790022932e-02 6.368554179302901574e-02 6.057668465133184132e-02 5.677535347559223289e-02 5.212487072549923384e-02 4.650094567729474299e-02 3.999970785595029221e-02 4.026623602637823679e-02 4.911389771170972945e-02 5.994743521100261152e-02 6.832630221902670498e-02 7.493347822194058871e-02 7.666368734012868336e-02 8.025883578414347297e-02 8.314364333399756890e-02 8.524577276713685148e-02 8.681006118200013111e-02 8.913863583514312905e-02 8.812566588049676464e-02 1.603752897629416307e-01 7.386230086965342445e-02 7.061117766334450152e-02 6.948879308483883743e-02 6.351502211970648515e-02 5.601444934718759205e-02 4.641757344331137736e-02 4.065963390318549225e-02 4.612284466917281750e-02 4.287952558319587520e-02 5.019454983110593210e-02 5.599233880413304748e-02 6.072754738118152362e-02 6.446339837773591708e-02 6.740630876288326856e-02 6.973954128159212673e-02 7.159926336893776555e-02 7.307158510645588023e-02 7.417678741692428079e-02 7.482218606500488922e-02 7.466066995774518766e-02
8.503196933192710971e-02 1.622338287742905172e-01 8.266578542853017519e-02 8.357846859935279260e-02 8.281527765289230236e-02 8.187632585825449505e-02 8.065792968673508867e-02 7.735411718066503850e-02 7.591072934001974470e-02 7.424456929660698534e-02 7.229976061083819017e-02 7.001652485610605769e-02 6.731395115748338431e-02 6.407184639809164473e-02 6.010557599448934640e-02 5.512658856955946624e-02 4.867769137006264235e-02 4.001314950984418556e-02 4.258155826440437192e-02 5.296468593692841426e-02 6.083213656565705091e-02 6.681186947910469631e-02 1.279715316978077833e-01 9.607369639322589638e-02 9.521962305367631663e-02 9.210633748897743833e-02 9.162017991420225160e-02 9.178586981191824701e-02 9.150950985272024440e-02 9.064470200010188439e-02 4.431308995277163931e-02 5.335692762140897133e-02 5.998811360382808738e-02 6.376210018033644233e-02 4.702044997567685070e-02 1.251076452455863464e-01 1.499279058861192060e-01 7.716858697813200330e-02 7.644491282257430409e-02 7.381933950485934648e-02 6.970195682356276901e-02 6.441756187757929908e-02 5.804209342228190682e-02 5.012775464188164165e-02 3.941297800984214922e-02 3.847217117962986599e-02 4.564089596505058882e-02 5.119533350839405167e-02 5.624890420361924881e-02 4.022753316314798405e-02 3.341919863499263205e-02 3.084250598498437801e-02 3.694902874710914720e-02 4.393415955335072676e-02 4.994704889287526067e-02 5.539089109924447835e-02 5.898562612474463063e-02 6.435705242367449619e-02 1.261129035788265962e-01 1.320767292003684479e-01 2.626869514250584556e-02 1.342237125703241718e-01 1.219705993623283330e-01 1.372759372172839554e-01 9.928525611222381586e-02 9.570665194098694484e-02 9.574938798746675250e-02 9.911280898274454909e-02 9.980689143862497836e-02 9.975315378806245969e-02 9.897066793550414465e-02 8.295143447533212533e-02 7.924022975110782407e-02 7.683636131488762178e-02 7.496320746264750756e-02 7.335020843635524368e-02 7.178343680988373554e-02 7.009389821772199491e-02 6.814798968520011102e-02 6.583342046025862648e-02 6.304624873733194468e-02 5.968639431252764638e-02 5.566707335865470757e-02 5.091136217603733916e-02 4.537656545402396491e-02 3.935349725125748127e-02 4.265067655134269220e-02 5.532032247585381285e-02 6.044089944663166847e-02 6.840829690646910155e-02 7.481836759518611935e-02 7.988738507390398536e-02 8.064289533326884918e-02 8.322221762350535956e-02 8.525842898340277309e-02 8.677213462587740622e-02 8.793916488402303555e-02 8.861397370061108170e-02 1.606670433149022525e-01 7.339881975640269451e-02 7.390412931435443034e-02 6.935173252727547255e-02 6.365829169690430389e-02 5.648217822482634598e-02 4.719640164302007362e-02 4.637359772211965825e-02 4.188409682756371460e-02 5.182715653273391176e-02 4.351508773386755791e-02 5.061190247154283978e-02 5.633735883222701357e-02 6.069910705000224754e-02 6.419816824395609134e-02 6.706275857303703458e-02 6.945454652535015816e-02 7.151089485573679239e-02 7.336603188523045660e-02 7.517746748625804554e-02 7.717897705023685218e-02
8.468247177552923333e-02 1.622795719668326531e-01 8.212569915209301519e-02 8.304758831821856813e-02 8.239119861235644215e-02 8.148428200642171548e-02 7.863256983786126586e-02 7.749044018386626320e-02 7.607762791470300268e-02 7.435645759169096092e-02 7.230324209644586886e-02 6.988207907516018336e-02 6.702850776842565750e-02 6.363478203268253808e-02 5.952702085506794000e-02 5.442638007642491838e-02 4.788637946004771495e-02 3.921037206354368448e-02 4.242318380000002082e-02 5.265790601070692578e-02 6.056844984375012869e-02 6.677010920396299343e-02 1.280052354754044885e-01 9.775257942527670885e-02 9.601282960490582774e-02 9.060276792988437855e-02 9.100510370780931502e-02 9.180211424734663339e-02 9.175423211062030959e-02 9.107266043321782245e-02 4.345745424472079177e-02 5.271069341391095009e-02 5.946573931619813375e-02 6.415022014258237038e-02 6.770622356225115823e-02 4.570428962442989879e-02 1.547475362911656660e-01 7.634826828782974306e-02 7.580388506486006317e-02 7.305408089704550079e-02 6.899564786433014241e-02 6.381185483263333846e-02 5.751220191777611790e-02 4.968409152216288205e-02 3.909705867023048620e-02 3.815024091062066414e-02 4.584150688958912867e-02 5.199718842648959338e-02 5.728990534808217627e-02 6.197248182166645303e-02 4.861534848348847415e-02 4.559483217837925761e-02 3.660485706311836923e-02 3.284675758475253532e-02 3.099934921144268524e-02 2.837206390333029890e-02 3.408614727248801546e-02 4.480807136159152548e-02 5.157925365733317946e-02 1.336760545946561740e-01 1.281375217692581892e-01 2.552239406420566889e-02 2.419541852292356188e-02 2.814302999598987734e-02 3.157783506822035152e-02 3.095257017568207869e-02 3.151450949946487529e-02 3.216085677747237970e-02 3.277828208601427790e-02 3.293430484522612278e-02 3.447817419397911781e-02 8.166031619525709884e-02 7.428211459105454884e-02 7.441448600212258180e-02 7.387486636139208029e-02 7.296104813632739439e-02 7.173424302290445920e-02 7.017413912179833180e-02 6.822543494345266468e-02 6.580755302395323303e-02 6.280768815915792336e-02 5.906763940543782732e-02 5.439816556909266021e-02 4.863401172098309744e-02 4.170460365716988083e-02 3.773053402019650726e-02 4.468609673115636616e-02 5.631637453509510949e-02 6.531374006643839158e-02 6.858358681408514845e-02 7.481098865125729303e-02 7.981484658954463018e-02 8.363655282159260240e-02 8.353584922595425066e-02 8.525370893842872111e-02 8.666533220919933611e-02 8.778154352127263971e-02 8.766343137748236480e-02 1.608839735097504497e-01 7.583838036130347016e-02 7.342535807517514002e-02 6.906543308659217340e-02 6.357726448396631980e-02 5.662683805773219281e-02 5.771278380406905106e-02 4.391922268227154563e-02 4.142940853058969114e-02 4.745412121983217518e-02 6.212095537086901459e-02 6.736874409855120316e-02 7.147773922641616207e-02 7.476309731277566706e-02 7.740564351890615036e-02 7.955982934137631468e-02 8.136043182174436394e-02 8.292910678950919656e-02 8.437799439461313167e-02 8.581142691501848774e-02 8.732139245261547056e-02
8.431837972024425198e-02 1.621702391273630861e-01 8.143187491969672287e-02 8.241427893604635901e-02 8.188102684959343291e-02 7.956893631656047905e-02 7.886335869489216610e-02 7.782211713718140134e-02 7.639638127272291301e-02 7.458758283626452934e-02 7.240051472580080749e-02 6.981842597628372393e-02 6.679043855952973563e-02 6.321991873026373832e-02 5.894287976140795415e-02 5.368762316489932712e-02 4.701448259721388578e-02 3.833566107988353733e-02 4.226746658128630041e-02 5.214568845044478818e-02 5.969000527274934825e-02 6.687486439244497149e-02 1.272148559364238429e-01 1.007669886232393647e-01 9.722454683393494390e-02 9.514949069048703190e-02 9.029389499758430637e-02 9.199627237665292112e-02 9.207316626096033463e-02 9.152008764106042693e-02 4.260734610649334619e-02 5.198724793999860705e-02 5.885663990419396502e-02 6.381679119061058059e-02 6.723651570317222548e-02 6.834188050157406769e-02 1.567670371985789013e-01 7.624170568093449618e-02 7.539289147986370787e-02 7.252227897075351482e-02 6.848292575745641708e-02 6.336053075495463871e-02 5.712001204962852130e-02 4.936023148277891848e-02 3.886375786280597128e-02 3.751590925502587548e-02 4.542847724910744484e-02 5.184629932266143076e-02 5.732407087903745174e-02 6.219799413119908582e-02 6.673780509065505018e-02 5.528524395683849513e-02 5.308531215945282850e-02 4.614673804757637998e-02 4.400219735361149409e-02 4.412039960170069386e-02 3.756811590508431914e-02 3.288160465635220353e-02 3.311556636552047406e-02 1.525446402155982983e-01 7.387636777899710128e-02 7.588407050596986114e-02 7.642910789325363385e-02 7.635524046483554983e-02 7.705481079127914079e-02 7.777260424563184338e-02 7.822371535204489246e-02 7.849080044870337947e-02 7.860728762005469994e-02 7.832370365492394293e-02 7.756588232628641721e-02 7.515839580625949257e-02 7.481785972005837448e-02 7.436105793848359069e-02 7.366008429176018613e-02 7.265717734152364604e-02 7.131372149912576508e-02 6.959518340128763303e-02 6.746575795972022116e-02 6.488215001430552853e-02 6.178809218734376135e-02 5.813487691149708120e-02 5.382869332374091986e-02 4.861477281403515927e-02 4.218549996071749297e-02 3.843701742218767758e-02 4.651653188026480534e-02 5.706598915596153287e-02 6.561193582717940453e-02 7.272563027409849334e-02 7.507713212839124683e-02 8.014145896806451619e-02 8.384986607726026275e-02 8.640794982855011519e-02 8.551257858073513241e-02 8.653714132063401732e-02 8.745688025716186198e-02 8.712767314189381884e-02 1.609760249446477998e-01 7.526987064019256823e-02 7.288145199792799012e-02 6.861163804451957116e-02 6.326970815724124175e-02 6.515353213725542936e-02 4.799947946219837447e-02 5.054721199299791468e-02 4.753610763504028530e-02 4.286773624881979466e-02 4.211217027558164516e-02 4.942695873762997794e-02 5.526503486621982264e-02 6.005635051983701511e-02 6.400253184335182033e-02 6.728159792400412176e-02 7.004803012446576826e-02 7.243514689923585825e-02 7.455567215238506629e-02 7.649861305740802975e-02 7.832126004254537366e-02
8.390476835038879200e-02 1.617121801749334675e-01 8.043841237907772834e-02 8.155197659442266211e-02 7.995264601031595864e-02 7.988262011641024396e-02 7.937623139516475357e-02 7.837123755600398922e-02 7.688670220896159924e-02 7.495960069514127910e-02 7.261444110092137028e-02 6.984772653544746301e-02 6.661977374091423987e-02 6.284537839259066172e-02 5.837213734832824574e-02 5.293416527534783311e-02 4.606127141200563879e-02 3.732476947332118850e-02 4.220390102361862988e-02 5.165499770832404636e-02 5.821282962074064010e-02 6.129716667899912791e-02 1.390033972824629982e-01 1.059008336433024111e-01 1.161995951694051316e-01 3.977374702930368960e-02 9.225898310719714279e-02 9.254910124973400598e-02 9.244635476656025419e-02 9.198114888958204560e-02 4.178449153463797278e-02 5.127143316503945947e-02 5.826851730534065438e-02 6.350140277863408622e-02 6.731848001467459486e-02 6.922117785649593846e-02 1.581970351280672649e-01 7.618252382072997209e-02 7.512003826062391143e-02 7.214810912885269434e-02 6.810988478109804289e-02 6.303246540106086093e-02 5.685134988997939814e-02 4.916961092596374566e-02 3.878583911794236672e-02 3.647804397243926966e-02 4.434995686137453014e-02 5.053086533569037947e-02 5.619007088291362584e-02 6.123594330202754288e-02 6.587355462855302990e-02 7.029940030786262228e-02 6.051221129646795760e-02 5.855338551545505310e-02 5.312297670583659981e-02 5.164006382117947158e-02 5.030396782098348757e-02 4.281109316452672009e-02 5.170406828058176502e-02 1.514477239735905756e-01 2.923418348533603217e-02 8.285900953563243854e-02 7.740455364606475819e-02 7.802509630970598520e-02 7.820218890338559437e-02 7.822443010490817694e-02 7.813481555164650261e-02 7.793757094949078923e-02 7.761656268055383556e-02 7.712019259315681941e-02 7.640499927723956586e-02 7.544644623716666165e-02 7.456415394866963697e-02 7.361935745221115379e-02 7.249279770294929370e-02 7.108721547595052426e-02 6.931535911258956961e-02 6.710221835389566791e-02 6.438020848662201479e-02 6.107824495440374035e-02 5.705499863491492185e-02 5.219829581967334875e-02 4.658492078224317490e-02 3.961386176143510268e-02 4.265153415685146721e-02 3.904116420633446660e-02 4.769986527285016709e-02 5.710183411866664310e-02 6.558553628611445141e-02 7.284248620723597634e-02 7.915163008274044010e-02 8.193051454753474960e-02 8.462520505291869222e-02 8.662427235502888345e-02 8.807013098861608824e-02 8.654714674164873389e-02 8.694642775961108905e-02 8.633186957031589726e-02 1.608603377241336063e-01 7.456271854871843185e-02 7.216601002350278571e-02 6.795590078886151741e-02 7.029054806715474835e-02 5.631087823329977704e-02 4.773886768754734278e-02 5.611451588840558197e-02 5.412530787890455081e-02 4.290939386250344073e-02 4.810669678753060063e-02 4.222376442474629760e-02 4.944717858887317380e-02 5.516816797227154512e-02 5.998904649179200022e-02 6.396632488483214307e-02 6.725226581860323238e-02 7.000960298340534738e-02 7.238044783721844788e-02 7.447544385895914221e-02 7.636846940288941066e-02
8.339936884902196534e-02 1.604241209381795097e-01 7.868337975200355439e-02 7.923244324147332707e-02 8.039022092501460492e-02 8.062216950711144359e-02 8.016392093344273939e-02 7.911228779109152898e-02 7.753135158934885973e-02 7.546929830413720564e-02 7.295426453039276227e-02 6.998725676071192170e-02 6.653618341743398890e-02 6.252726513724563007e-02 5.782320363826916332e-02 5.217723463502646486e-02 4.516987368241295181e-02 3.619028038519187668e-02 4.204238218598576465e-02 5.146660680917578695e-02 5.821076895057931966e-02 6.311680993973038667e-02 6.698171384476039880e-02 1.471511021255334228e-01 4.566518192922713187e-02 4.409142528437741404e-02 9.316374089652985913e-02 9.300236269496713060e-02 9.278097092329860851e-02 9.232407508981600730e-02 4.108699722840158941e-02 5.060738902027708819e-02 5.770017584619580031e-02 6.311887487499681648e-02 6.716660921154764263e-02 6.924742693071821165e-02 1.590431418521543738e-01 7.609103775899307698e-02 7.491411499483162373e-02 7.187542919651219997e-02 6.783841362811673936e-02 6.280484440810850388e-02 5.669541141750077812e-02 4.912256790774931908e-02 3.893200748416994483e-02 3.523768645008246159e-02 4.109024103688589669e-02 5.440122757623786637e-02 6.865348843070519236e-02 8.022415126333098945e-02 9.004438042749363103e-02 9.849072266924085994e-02 1.051362870255295318e-01 1.083958864461052746e-01 1.105995763842929219e-01 1.114576601358708702e-01 1.105097290180383773e-01 1.176193040101978921e-01 3.349332226078697433e-02 1.549905110058692470e-01 9.949064912119065518e-02 8.724383689907400097e-02 8.270773246340545892e-02 8.090740762578230161e-02 7.985274653289600733e-02 7.909774510156304672e-02 7.845387747360765829e-02 7.783626311010692633e-02 7.719371982973774471e-02 7.648223534580984861e-02 7.566195076500803474e-02 7.470208735557463953e-02 7.360044489290361314e-02 7.231410549809010047e-02 7.076876490356073801e-02 6.891680359837677738e-02 6.665411979324840919e-02 6.389309625826875005e-02 6.053905446620110736e-02 5.664469178157491985e-02 5.182291575827250446e-02 4.565486374557262139e-02 3.865024996390035994e-02 4.835664197226708511e-02 3.939404951528578669e-02 3.946544967195703135e-02 5.265785273104725550e-02 5.714898940571732505e-02 6.263744409332956675e-02 7.718486166103510904e-02 9.289331829793745499e-02 9.097065589767290572e-02 8.385065333306887525e-02 8.680459860095664226e-02 8.808499833024489856e-02 8.888084283855056389e-02 8.658321106000221867e-02 8.508350195337596733e-02 1.603362081175799814e-01 7.366793144691211048e-02 7.121880143375616812e-02 7.379139384410293712e-02 6.208845568004992682e-02 5.568791042512059170e-02 4.702843723173935619e-02 6.105126948768551526e-02 5.968777930689428413e-02 5.057576744815847625e-02 4.270880352261944429e-02 5.221173325602487814e-02 4.196029532193087941e-02 4.899403113307553015e-02 5.536566613352422034e-02 6.010417645181706514e-02 6.384702672669170798e-02 6.691951978202421991e-02 6.952957069488346908e-02 7.181565710057745411e-02 7.387094097639740342e-02
8.794888094352208696e-02 1.573310827134133394e-01 7.362206734508534856e-02 7.993194917760686191e-02 8.111570853492740263e-02 8.126470567563923164e-02 8.072140392495232020e-02 7.960477344684782630e-02 7.796647272526979755e-02 7.583238072956884068e-02 7.321222405283907275e-02 7.009748994378477149e-02 6.645622170333201351e-02 6.222734626852080564e-02 5.726936955457402612e-02 5.112680362160318404e-02 3.775076424268219294e-02 3.652815467802780769e-02 4.825139578763004700e-02 5.137248620397308341e-02 5.827021357296639087e-02 6.360954774191254768e-02 6.751231035714767847e-02 1.445877858436263041e-01 5.235787200236333844e-02 3.989812735091587126e-02 9.347399102050187036e-02 9.331865322875758373e-02 9.305510541376371680e-02 9.260384856762599037e-02 4.038998936916316645e-02 4.997572376014328133e-02 5.714837605843364060e-02 6.269742235421742194e-02 6.689503351524164754e-02 6.906685173636945008e-02 1.595734199451335211e-01 7.596702276518442487e-02 7.473933392285390942e-02 7.166665246353223773e-02 6.764073268801633343e-02 6.265747679904376533e-02 5.663333866904926572e-02 4.919406301020098904e-02 3.923622459646694538e-02 3.527090786070885553e-02 4.335802883907505234e-02 3.981198822322126740e-02 3.611325034997249495e-02 4.340358438633408478e-02 4.881535875324178458e-02 5.316404483771267758e-02 5.668134636078045463e-02 5.967001139871252330e-02 6.234234833230956063e-02 6.527738473799934993e-02 6.963656560611915236e-02 7.451619367444807518e-02 1.122713660288306853e-01 1.603881461575546730e-01 3.941465962857511329e-02 3.144165910870702629e-02 8.167507872560944571e-02 7.670568129447997985e-02 7.681455300575318335e-02 7.617495307677532579e-02 7.525504274082482625e-02 7.424928634668118144e-02 7.317198420325651820e-02 7.204434942936092934e-02 7.083410265581586984e-02 6.943594390488250223e-02 6.779100977860727517e-02 6.582901461510756724e-02 6.324008814599643702e-02 6.015746113304368259e-02 5.655697909537360513e-02 5.216805195092796832e-02 4.635352351185575981e-02 3.881677485860880045e-02 3.906484180645881238e-02 4.095152233912795897e-02 5.567551714928334339e-02 4.618550767524987055e-02 4.081272598628295917e-02 3.985939412411865224e-02 5.135737849482788914e-02 6.194532204076698412e-02 6.561136988966673189e-02 5.416417168555311135e-02 4.970412736752794630e-02 7.697419850764314342e-02 1.216553267334317678e-01 9.136055422532095294e-02 8.967208553456317011e-02 8.986675613507950910e-02 8.963108223606318370e-02 8.286584463187779415e-02 1.583848569458659039e-01 7.241709797458431574e-02 7.603266109708246845e-02 6.609533323829100415e-02 6.120246490568469894e-02 5.489680981263232035e-02 4.693120092418686523e-02 6.545183168660285988e-02 6.449725945923144577e-02 5.711678991693302371e-02 4.591157204966736516e-02 4.629526574494777225e-02 5.704500897767747492e-02 4.303551600066613664e-02 4.403124136247430626e-02 5.125945825649706050e-02 5.641496459563088289e-02 6.044947255238889566e-02 6.375794860540573428e-02 6.657717952662826899e-02 6.905646941098259051e-02
8.303611226927952449e-02 1.558084705277997806e-01 1.223709623125761453e-01 1.224305012767505918e-01 1.238891029407186428e-01 1.235695212072195903e-01 1.220108123092547014e-01 1.193618575739454069e-01 1.156374817580607117e-01 1.107785645071477365e-01 1.046735495771294461e-01 9.715800720400086243e-02 8.799180649326576731e-02 7.681952899483374120e-02 6.309080173157716187e-02 4.526722666554142127e-02 3.568735922302727209e-02 3.718191819861227376e-02 4.843012347426605552e-02 5.651364111890574971e-02 5.824410113748873519e-02 6.364623193090386544e-02 6.753419239796860929e-02 1.440686222948674988e-01 4.837522293413770713e-02 3.950776962359418831e-02 9.364043930708915164e-02 9.353619324296257032e-02 9.327642871161553884e-02 9.284755882868676868e-02 3.968581511078222990e-02 4.936272167411054346e-02 5.661048380120047713e-02 6.225740934920431791e-02 6.655930378636294720e-02 6.878776221260450574e-02 1.599332547793679560e-01 7.582039744067049780e-02 7.457859504410589702e-02 7.149721585605281482e-02 6.749457790018735526e-02 6.256880687801140428e-02 5.663665245015080812e-02 4.933455087435282410e-02 3.958786065170912666e-02 3.519392169019473771e-02 4.325960990919096999e-02 4.974392075523409451e-02 4.691994489844515670e-02 3.661870063466630965e-02 4.372751389758877671e-02 4.911082026711251908e-02 5.288612152486665829e-02 5.601440308495828774e-02 5.834175768451946298e-02 6.153158824930332615e-02 3.411291199335272917e-02 4.225040981378171828e-02 4.784417636168972893e-02 1.576953967140499735e-01 3.438952080765114022e-02 1.022009553292058809e-01 7.509680114863394318e-02 7.187522225130414666e-02 6.916852378415742908e-02 6.655445167459932143e-02 6.402844742246999177e-02 6.177587151265965387e-02 5.928804849113035458e-02 5.655174680425875677e-02 5.342913613259774736e-02 4.969650754766213874e-02 4.477351653891193523e-02 3.774114696715882150e-02 3.809719132865418273e-02 3.942354365502642732e-02 4.022856258160477372e-02 4.077094929157543124e-02 4.195425807282400499e-02 4.977172746133395886e-02 4.969960616255067465e-02 6.172678603523073376e-02 5.299747057102115882e-02 4.805730549644340877e-02 4.601406651636609502e-02 4.037740966180703578e-02 4.571439551695380410e-02 5.892633235495286365e-02 7.572211987703174330e-02 8.685486279634895002e-02 9.166706921990915025e-02 9.570474233743520021e-02 9.696439036899717756e-02 1.187506468420723993e-01 1.232261302398515446e-01 1.253727392336121127e-01 1.252057332660204692e-01 1.297324155579222815e-01 1.579990783896640938e-01 7.608588436960608825e-02 6.867401278069010240e-02 6.496346023391441626e-02 6.016590667582934204e-02 4.704889635811766030e-02 5.339591393861253116e-02 6.915319352572769918e-02 6.858542795843779183e-02 6.217917725973864940e-02 5.243567238943646486e-02 4.311273235678655252e-02 5.106561290251308144e-02 6.133520164508337452e-02 5.003417844364350942e-02 4.354171996067857098e-02 5.035803494231171767e-02 5.535888526513963598e-02 5.937469370827273135e-02 6.273433875235488733e-02 6.563427078616186627e-02
8.121198078123777198e-02 1.526801846938055096e-01 3.272863615338437310e-02 7.067992578890931743e-02 6.704034582433267275e-02 6.712670668102457827e-02 6.655100229474927853e-02 6.546005595162508739e-02 6.386811551880848536e-02 6.174394094796861743e-02 5.902290512019249535e-02 5.558828960595629809e-02 5.125244021724786880e-02 4.568493269756673109e-02 3.804817278866814978e-02 4.205239820663685818e-02 3.556524774324743010e-02 3.805607053275516377e-02 4.871532410685155967e-02 5.653644963511981342e-02 6.260206417384577005e-02 6.350894200140892731e-02 6.734583524856962988e-02 1.440606087124263746e-01 4.774718764884647998e-02 3.899663034299195169e-02 9.377255947659086932e-02 9.370193549043237535e-02 9.346036324380234406e-02 9.307364074390575559e-02 3.894324264912724098e-02 4.875628590827560394e-02 5.608494838087717954e-02 6.181194951924431913e-02 6.619188305904208369e-02 6.846349084797136164e-02 1.601972438021651568e-01 7.565773701294598030e-02 7.442283792502102369e-02 7.135091285457292876e-02 6.738228152075896593e-02 6.251941014728665258e-02 5.668074119321386134e-02 4.951229717223461918e-02 3.995997466034096474e-02 3.501794460426099070e-02 4.312988170504625240e-02 4.994577972708308389e-02 5.576637019125257888e-02 5.372140016944575852e-02 3.674708488917684951e-02 3.417036316988018851e-02 3.801634614458507255e-02 4.599029240357718068e-02 5.228849380374596401e-02 5.795564720555988064e-02 8.091387385093523621e-02 3.630352781372237631e-02 4.406144974998047609e-02 1.696331038817234793e-01 1.005691593664633787e-01 6.715910655344188573e-02 6.125396426787457771e-02 5.609569192745877259e-02 5.131743028269052792e-02 4.591634902678635305e-02 3.926242959541192262e-02 3.212427438517642675e-02 3.397043416615676270e-02 3.627317939962432930e-02 3.788542814823037119e-02 3.912584437640999335e-02 4.053845581677782695e-02 4.972612778338425521e-02 5.006953277593817475e-02 5.053631760049999422e-02 5.086096988228258620e-02 5.134663788950455388e-02 5.713347051951808697e-02 5.687543284166370061e-02 6.731274937938201697e-02 5.907606603252333471e-02 5.471295827846744952e-02 5.287111844786982623e-02 4.757595617368109986e-02 4.099311394018116672e-02 4.408579827031386400e-02 5.266682448974414898e-02 6.055540710012322775e-02 6.669617324207705034e-02 7.130757664725882738e-02 7.508479385754558699e-02 7.731164056958367281e-02 7.975796029793427722e-02 8.236311132230875187e-02 8.327744728503747029e-02 8.868868413679903417e-02 5.001188145802583362e-02 1.571453812259959448e-01 6.906704311027928034e-02 6.730065503882169675e-02 6.385280211859289956e-02 5.414698411139640122e-02 4.630429947035118177e-02 5.858483153873638577e-02 7.241587024052134614e-02 7.206938717093804014e-02 6.629187497980328081e-02 5.770639888224893266e-02 5.048362830113245492e-02 4.134389042463893632e-02 5.329988009456442660e-02 7.047659688536286882e-02 7.838657217524086507e-02 8.210844545139350803e-02 8.493465376145303836e-02 8.717384888158424827e-02 8.900256509957295281e-02 9.053321726787165458e-02
8.090871354558661077e-02 1.601118411366890815e-01 8.723144766076265655e-02 7.420328131324287202e-02 7.098476162549399726e-02 6.851338725740745150e-02 6.628953292758037186e-02 6.401159248913418365e-02 6.148486148830300396e-02 5.856400438379362472e-02 5.509583470466997840e-02 5.087460537472979216e-02 4.553489882275181533e-02 3.837026835684405335e-02 4.866899909294541970e-02 4.300240248011630295e-02 3.541002146039489568e-02 3.889024300969329273e-02 4.902984201622123672e-02 5.657669913646254378e-02 6.247038153243530956e-02 6.721329275314934237e-02 6.710221904800960091e-02 1.441118917088257678e-01 4.717866409196148220e-02 3.843032309772845267e-02 9.391776401344292813e-02 9.384332108295397046e-02 9.361718937979721100e-02 9.328833482494591767e-02 3.803885974836351824e-02 4.815743787768380496e-02 5.557964283098918573e-02 6.137340052145902336e-02 6.581378761706199731e-02 6.812173262508056104e-02 1.604085050215191821e-01 7.548253857122369515e-02 7.426626974328522091e-02 7.121658225037637291e-02 6.729040620428185238e-02 6.249456029037125937e-02 5.675073747963300941e-02 4.971920657863366372e-02 4.038239060900232491e-02 3.469593224658414077e-02 4.271661264315231021e-02 4.976390225959769625e-02 5.563971421888397328e-02 6.092083087788538465e-02 5.885997151853884779e-02 4.611440624538155897e-02 4.083543585091275324e-02 3.400681115673578198e-02 3.459915577069719306e-02 4.387633826872946313e-02 5.185998091308045149e-02 9.360414917523650347e-02 4.967000743157304332e-02 1.644359572874278808e-01 5.809586215194789682e-02 5.378480683726291622e-02 4.736185893160335669e-02 3.837231340138352181e-02 3.024366059619021038e-02 3.196826897159738695e-02 3.538916702296378974e-02 4.491085015116336870e-02 4.567496354662427954e-02 4.700927238283562209e-02 4.828253336119740086e-02 4.952076794387050285e-02 5.672316059241583330e-02 5.734341102137327506e-02 5.776219996785508098e-02 5.802388406406407129e-02 5.826020611439471086e-02 6.300312992702256087e-02 6.261870969947307131e-02 7.209340834678278076e-02 6.445333327457054839e-02 6.057775821784577852e-02 5.901543945446912492e-02 5.425108111346724910e-02 4.840458547555359647e-02 4.143625442021233590e-02 4.343108652594171448e-02 5.287047606708366460e-02 4.892348704362023404e-02 4.976478402136025325e-02 5.725440276383149396e-02 6.295404795058887060e-02 6.728452481275061514e-02 7.289793303393937718e-02 5.152028248482792838e-02 5.918288184366968241e-02 6.562462744515967783e-02 9.321531150649710329e-02 1.599844396067806596e-01 6.736884126622387503e-02 6.594793512297776605e-02 5.880748545200305266e-02 4.601663908926839630e-02 5.311260663086289635e-02 6.286417240196560952e-02 7.530014328787643096e-02 7.507374682815920464e-02 6.975371221977179348e-02 6.218587255442181716e-02 5.630482685876690013e-02 4.890243162195129223e-02 4.002910469641787067e-02 4.026856238558859657e-02 4.793972612215127715e-02 5.391200503337294919e-02 5.882918623417607296e-02 6.289533024195288757e-02 6.630087425194866602e-02 6.919732461354138886e-02
7.859994974327014217e-02 1.524619755594350534e-01 3.421510628874437077e-02 3.528984047440895944e-02 3.616887726509537132e-02 3.654028179855703384e-02 3.677146275522311797e-02 3.702947149465649068e-02 3.740342231990590599e-02 3.791050192123705809e-02 3.855806761291882823e-02 3.926910675903006603e-02 4.014725019973744424e-02 5.647909910685401658e-02 5.022953363214512079e-02 4.313804647111482704e-02 3.478438670266461447e-02 3.955551300521249758e-02 4.929448334651548996e-02 5.660961834617225796e-02 6.235221019906866252e-02 6.696004314968473370e-02 7.008310042891462144e-02 1.443442311478916051e-01 4.669209147134144311e-02 3.774187808907509406e-02 9.409976134068995246e-02 9.397058993779888736e-02 9.374927593685512817e-02 9.344607510873537137e-02 3.744585335708300322e-02 4.772330572490923739e-02 5.513097315945474780e-02 6.095782019030019511e-02 6.543991496098611194e-02 6.777935711490852555e-02 1.605935867294694397e-01 7.529735055148228939e-02 7.410530429103050210e-02 7.108714097367990759e-02 6.721014449905193811e-02 6.248482375147498824e-02 5.683878927823824562e-02 4.995876257605633142e-02 4.092044401177540730e-02 3.419869971320257246e-02 4.190823123194351019e-02 4.928162040152511691e-02 5.522362018043709686e-02 6.044114402054596991e-02 6.527905948700769845e-02 6.352689855042575884e-02 5.250879728296604931e-02 4.810340589419836999e-02 4.327132222694085595e-02 3.501178190701578069e-02 4.435972756351509727e-02 5.351495622061811647e-02 8.646487260148311149e-02 1.727895603591067530e-01 4.929829428381507506e-02 4.226678326735840846e-02 3.142084730421231681e-02 3.421836008098019105e-02 4.306351561583997983e-02 4.390018475299595907e-02 5.113209588374750120e-02 5.221833686223181781e-02 5.328164415384744473e-02 5.441907734861531343e-02 5.556737503767641972e-02 6.172771354201335436e-02 6.245148046499920252e-02 6.298628091030053500e-02 6.330985019037226047e-02 6.349958892145689260e-02 6.761648383417377672e-02 6.722788174031776864e-02 7.597041245162894363e-02 6.896819468133073838e-02 6.559742507247993959e-02 6.432737006972692739e-02 6.011269814270070455e-02 5.497844056414030040e-02 4.889581729570738333e-02 4.168207511340049631e-02 4.266229799260277261e-02 5.264428536006752340e-02 6.015861402139235925e-02 5.736212301232278959e-02 5.120943342264558384e-02 5.164155249213478460e-02 5.182284076528462929e-02 5.191798245522009220e-02 8.169223606493378198e-02 5.191389244917496426e-02 5.146399101793575070e-02 5.012855144862093243e-02 1.555630861780376017e-01 6.399635837010052286e-02 6.203581213552084028e-02 5.314719628038942073e-02 4.583457812816523619e-02 5.869508254298119732e-02 6.664283850038560386e-02 7.788639138838414355e-02 7.770750968207014442e-02 7.277687756155269694e-02 6.607284993572941356e-02 6.113459974313102674e-02 5.489272884553034887e-02 4.762787009299779273e-02 3.864228145351555899e-02 4.007891502461572580e-02 4.801139742887291367e-02 5.424152830532551900e-02 5.925285106935497537e-02 6.332999397871304226e-02 6.670374687521973822e-02
7.717576999918666913e-02 1.597669914726154161e-01 9.622107457705195155e-02 9.755064955960460193e-02 9.743537392991988288e-02 9.648832190224099215e-02 9.502683642890047411e-02 9.314523962058644801e-02 9.087291262127059066e-02 8.819707170803034457e-02 8.503468530624458399e-02 8.122886160792010257e-02 7.649964911344958596e-02 6.488693965121339335e-02 4.961131415445074744e-02 4.165603039392831025e-02 3.451428025506181330e-02 3.990252496787004971e-02 4.944169693271115856e-02 5.660329459600449420e-02 6.224811264890322410e-02 6.680494792699953610e-02 6.994823197697966344e-02 1.445914323646965149e-01 4.612825488419656367e-02 3.664771403318157345e-02 9.430609117008870168e-02 9.408287733755545112e-02 9.386566362951111187e-02 9.356512148323276046e-02 4.206369406961601304e-02 4.057567667293213859e-02 5.471091372328504288e-02 6.056370336035260538e-02 6.507700148544334762e-02 6.744636032506770573e-02 1.607650524106346290e-01 7.510520582072383045e-02 7.394009356986240566e-02 7.096314020322229410e-02 6.714587484972198150e-02 6.250217498865112686e-02 5.696923790525974113e-02 5.027699859335578447e-02 4.170008937516597042e-02 3.349124666669052452e-02 4.052813012732921216e-02 4.846418069773518467e-02 5.458367303301743523e-02 5.979992074874439928e-02 6.457321719658781767e-02 6.913267539686239471e-02 6.742473968770672232e-02 5.787715862629035091e-02 5.419752691915559473e-02 5.050201099819458250e-02 3.393055714505912451e-02 4.332114884877066863e-02 5.102062594676746304e-02 1.675425943389751982e-01 3.761982465745118687e-02 3.362010701289713105e-02 4.443586205303066278e-02 4.986384626114271496e-02 5.037176638108131765e-02 5.592767822952176421e-02 5.683327765078525357e-02 5.795333736523586993e-02 5.906209602174476020e-02 6.011806254840024177e-02 6.552867206737109096e-02 6.627989540937882784e-02 6.686558002722924055e-02 6.725667116931909051e-02 6.746909593022919205e-02 7.117125243204729113e-02 7.082341613276751935e-02 7.898206651323365357e-02 7.255757038148015481e-02 6.965528465161117955e-02 6.868863380105492966e-02 6.502422552321637794e-02 6.056287088566179172e-02 5.529626739454845258e-02 4.909709211711021926e-02 4.173457301889367532e-02 4.152172167841187977e-02 5.214532456430509555e-02 6.011351275658741167e-02 6.678100880667765804e-02 6.477707518029657274e-02 6.039883059760963596e-02 6.085278848672658752e-02 6.117580583225648572e-02 5.243205878193279296e-02 8.329983898176766821e-02 5.992846893741149428e-02 5.661732041354029799e-02 1.493725527485724736e-01 6.125172221091484959e-02 5.958388925495722299e-02 4.553212966329273775e-02 5.344460678059995140e-02 6.335249092837284823e-02 7.000641110851928139e-02 8.020724695604310173e-02 8.004449930876096631e-02 7.548243576609578454e-02 6.949827993828124051e-02 6.527468725130912419e-02 5.991607200419496460e-02 5.373136838828266454e-02 4.631489550845221959e-02 3.845424072414180272e-02 4.001058566612509387e-02 4.810725037544179988e-02 5.435202259673030389e-02 5.929974853638828730e-02 6.329048222594403639e-02
7.284679304304052250e-02 1.513550929218386298e-01 3.706016968779765608e-02 7.600726887396053177e-02 7.173058967922356366e-02 7.040321970664040196e-02 6.835613867060780224e-02 6.583951615731319096e-02 6.294246557394657382e-02 5.966544750755164994e-02 5.588791806699460601e-02 5.116310163974151920e-02 4.541298242518432282e-02 3.819226243709647473e-02 4.822113848892703447e-02 3.666259739842305659e-02 3.555630092867961140e-02 4.651431916795769478e-02 4.946418264677593379e-02 5.653773289532650070e-02 6.212307598889101057e-02 6.664771225643340014e-02 6.975187623787432178e-02 1.446090828266943795e-01 3.988726863324349586e-02 4.079751730568453166e-02 9.440237779724985900e-02 9.418122738104922620e-02 9.398223260448099192e-02 9.384273228798770128e-02 4.511050701834468102e-02 4.005483337276938977e-02 4.903647093588348049e-02 6.019885556521425291e-02 6.473228633381225561e-02 6.712894487900930574e-02 1.609222446848448396e-01 7.490736160607389116e-02 7.377052672864818639e-02 7.084510862585539914e-02 6.710015765145732614e-02 6.254964763119751081e-02 5.714786850091031767e-02 5.075605199959381392e-02 4.407708275446219071e-02 3.333710384688814282e-02 3.709506925960030788e-02 4.709605215188078509e-02 5.365280026335592783e-02 5.894427626345091764e-02 6.365718860599740847e-02 6.813425276559077759e-02 7.245979457602795548e-02 7.091931673447456064e-02 6.271320242739575335e-02 5.975574621700533579e-02 5.773081399636272038e-02 3.577066574358270939e-02 3.390534330311523181e-02 1.614586892379238636e-01 4.045143365174324462e-02 5.044655495388433025e-02 5.448186404745693212e-02 5.479298575958779782e-02 5.948863366074932935e-02 6.015693589848716827e-02 6.131147179770479044e-02 6.266540193671842063e-02 6.378451904139433026e-02 6.862807943036272618e-02 6.934215353692969874e-02 6.991872896620507372e-02 7.033084558011101772e-02 7.056750312183544815e-02 7.395994142744694022e-02 7.364839188452730612e-02 8.131260651702082454e-02 7.535973406082867310e-02 7.281310834725127079e-02 7.207695074177508654e-02 6.889074198059119691e-02 6.502643741267394306e-02 6.048867100977759620e-02 5.518891441849524404e-02 4.897118500063657454e-02 4.156377857155526406e-02 3.950776362870533909e-02 5.026530862041231340e-02 6.550132203516011165e-02 7.853921842382904916e-02 8.972708343301440126e-02 9.712214448963657487e-02 1.021114809360316733e-01 1.062429150419745838e-01 1.090110836821349127e-01 1.112021482880340140e-01 1.164497166280892282e-01 1.140606089173882981e-01 1.668940032416945662e-01 7.388435843116185342e-02 4.766522917983434526e-02 5.315914853344712310e-02 5.928003725835199328e-02 6.737715860259010925e-02 7.297203510228240930e-02 8.225318381927398947e-02 8.211744408065049794e-02 7.793887773373947558e-02 7.258046101214636614e-02 6.893409574279563135e-02 6.425179308662624933e-02 5.890466252643264400e-02 5.271464597597848301e-02 3.981344557311978366e-02 4.338083417069394515e-02 4.038286942985342548e-02 4.843344529258921533e-02 5.444475124351980805e-02 5.916490176483520103e-02
