ncols 119
nrows 32
xllcorner 430
yllcorner 560
cellsize 10.0
2.000000000000000000e+02 1.000000000000000000e+02 7.000000000000000000e+02 9.000000000000000000e+02 1.100000000000000000e+03 1.200000000000000000e+03 1.200000000000000000e+03 1.200000000000000000e+03 1.200000000000000000e+03 1.200000000000000000e+03 1.200000000000000000e+03 1.200000000000000000e+03 1.200000000000000000e+03 1.200000000000000000e+03 1.200000000000000000e+03 1.200000000000000000e+03 1.200000000000000000e+03 1.200000000000000000e+03 1.200000000000000000e+03 1.200000000000000000e+03 1.200000000000000000e+03 1.200000000000000000e+03 1.200000000000000000e+03 1.200000000000000000e+03 1.200000000000000000e+03 1.200000000000000000e+03 1.200000000000000000e+03 1.200000000000000000e+03 1.200000000000000000e+03 1.200000000000000000e+03 1.200000000000000000e+03 1.300000000000000000e+03 1.200000000000000000e+03 1.200000000000000000e+03 1.200000000000000000e+03 7.600000000000000000e+03 1.000000000000000000e+03 9.000000000000000000e+02 8.000000000000000000e+02 7.000000000000000000e+02 6.000000000000000000e+02 5.000000000000000000e+02 4.000000000000000000e+02 3.000000000000000000e+02 2.000000000000000000e+02 1.000000000000000000e+02 1.100000000000000000e+03 1.000000000000000000e+02 2.000000000000000000e+02 3.000000000000000000e+02 4.000000000000000000e+02 5.000000000000000000e+02 6.000000000000000000e+02 7.000000000000000000e+02 8.000000000000000000e+02 9.000000000000000000e+02 1.000000000000000000e+03 1.200000000000000000e+03 1.200000000000000000e+03 1.200000000000000000e+03 1.200000000000000000e+03 1.200000000000000000e+03 1.200000000000000000e+03 1.200000000000000000e+03 1.200000000000000000e+03 1.200000000000000000e+03 7.800000000000000000e+03 1.200000000000000000e+03 7.800000000000000000e+03 1.200000000000000000e+03 1.200000000000000000e+03 1.200000000000000000e+03 1.200000000000000000e+03 1.200000000000000000e+03 1.200000000000000000e+03 1.200000000000000000e+03 1.200000000000000000e+03 1.000000000000000000e+03 8.000000000000000000e+02 7.000000000000000000e+02 5.000000000000000000e+02 4.000000000000000000e+02 3.000000000000000000e+02 1.000000000000000000e+02 2.000000000000000000e+02 6.000000000000000000e+02 9.000000000000000000e+02 1.100000000000000000e+03 1.200000000000000000e+03 1.200000000000000000e+03 1.200000000000000000e+03 1.200000000000000000e+03 1.200000000000000000e+03 1.200000000000000000e+03 1.200000000000000000e+03 1.200000000000000000e+03 1.200000000000000000e+03 1.200000000000000000e+03 1.200000000000000000e+03 1.200000000000000000e+03 1.200000000000000000e+03 1.200000000000000000e+03 1.200000000000000000e+03 1.200000000000000000e+03 1.200000000000000000e+03 1.200000000000000000e+03 1.200000000000000000e+03 1.200000000000000000e+03 1.100000000000000000e+03 9.000000000000000000e+02 6.000000000000000000e+02 1.000000000000000000e+02 2.000000000000000000e+02 3.000000000000000000e+02 4.000000000000000000e+02 5.000000000000000000e+02 7.000000000000000000e+02 8.000000000000000000e+02 1.000000000000000000e+03
1.000000000000000000e+02 2.000000000000000000e+02 8.000000000000000000e+02 1.000000000000000000e+03 1.200000000000000000e+03 1.300000000000000000e+03 1.300000000000000000e+03 1.300000000000000000e+03 1.300000000000000000e+03 1.300000000000000000e+03 1.300000000000000000e+03 1.300000000000000000e+03 1.300000000000000000e+03 1.300000000000000000e+03 1.300000000000000000e+03 1.300000000000000000e+03 1.300000000000000000e+03 1.300000000000000000e+03 1.300000000000000000e+03 1.300000000000000000e+03 1.300000000000000000e+03 1.300000000000000000e+03 1.300000000000000000e+03 1.300000000000000000e+03 1.300000000000000000e+03 1.300000000000000000e+03 1.300000000000000000e+03 1.300000000000000000e+03 1.300000000000000000e+03 1.300000000000000000e+03 1.300000000000000000e+03 1.400000000000000000e+03 1.300000000000000000e+03 1.300000000000000000e+03 1.300000000000000000e+03 8.700000000000000000e+03 1.000000000000000000e+03 9.000000000000000000e+02 8.000000000000000000e+02 7.000000000000000000e+02 6.000000000000000000e+02 5.000000000000000000e+02 4.000000000000000000e+02 3.000000000000000000e+02 2.000000000000000000e+02 1.000000000000000000e+02 1.200000000000000000e+03 1.000000000000000000e+02 2.000000000000000000e+02 3.000000000000000000e+02 4.000000000000000000e+02 5.000000000000000000e+02 6.000000000000000000e+02 7.000000000000000000e+02 8.000000000000000000e+02 9.000000000000000000e+02 1.000000000000000000e+03 1.100000000000000000e+03 1.300000000000000000e+03 1.300000000000000000e+03 1.300000000000000000e+03 1.300000000000000000e+03 1.300000000000000000e+03 1.300000000000000000e+03 1.300000000000000000e+03 1.300000000000000000e+03 9.100000000000000000e+03 9.100000000000000000e+03 1.300000000000000000e+03 1.300000000000000000e+03 1.300000000000000000e+03 1.300000000000000000e+03 1.300000000000000000e+03 1.300000000000000000e+03 1.300000000000000000e+03 1.300000000000000000e+03 1.100000000000000000e+03 9.000000000000000000e+02 8.000000000000000000e+02 6.000000000000000000e+02 5.000000000000000000e+02 4.000000000000000000e+02 2.000000000000000000e+02 1.000000000000000000e+02 3.000000000000000000e+02 7.000000000000000000e+02 1.000000000000000000e+03 1.200000000000000000e+03 1.300000000000000000e+03 1.300000000000000000e+03 1.300000000000000000e+03 1.300000000000000000e+03 1.300000000000000000e+03 1.300000000000000000e+03 1.300000000000000000e+03 1.300000000000000000e+03 1.300000000000000000e+03 1.300000000000000000e+03 1.300000000000000000e+03 1.300000000000000000e+03 1.300000000000000000e+03 1.300000000000000000e+03 1.300000000000000000e+03 1.300000000000000000e+03 1.300000000000000000e+03 1.300000000000000000e+03 1.300000000000000000e+03 1.300000000000000000e+03 2.100000000000000000e+03 1.000000000000000000e+02 7.000000000000000000e+02 1.000000000000000000e+02 2.000000000000000000e+02 3.000000000000000000e+02 4.000000000000000000e+02 5.000000000000000000e+02 6.000000000000000000e+02 8.000000000000000000e+02 9.000000000000000000e+02
1.000000000000000000e+02 3.000000000000000000e+02 9.000000000000000000e+02 1.100000000000000000e+03 1.300000000000000000e+03 1.400000000000000000e+03 1.400000000000000000e+03 1.400000000000000000e+03 1.400000000000000000e+03 1.400000000000000000e+03 1.400000000000000000e+03 1.400000000000000000e+03 1.400000000000000000e+03 1.400000000000000000e+03 1.400000000000000000e+03 1.400000000000000000e+03 1.400000000000000000e+03 1.400000000000000000e+03 1.400000000000000000e+03 1.400000000000000000e+03 1.400000000000000000e+03 1.400000000000000000e+03 1.400000000000000000e+03 1.400000000000000000e+03 1.400000000000000000e+03 1.400000000000000000e+03 1.400000000000000000e+03 1.400000000000000000e+03 1.400000000000000000e+03 1.400000000000000000e+03 1.400000000000000000e+03 1.500000000000000000e+03 1.400000000000000000e+03 1.400000000000000000e+03 1.400000000000000000e+03 9.800000000000000000e+03 1.000000000000000000e+03 9.000000000000000000e+02 8.000000000000000000e+02 7.000000000000000000e+02 6.000000000000000000e+02 5.000000000000000000e+02 4.000000000000000000e+02 3.000000000000000000e+02 2.000000000000000000e+02 1.300000000000000000e+03 1.000000000000000000e+02 1.000000000000000000e+02 2.000000000000000000e+02 3.000000000000000000e+02 4.000000000000000000e+02 5.000000000000000000e+02 6.000000000000000000e+02 7.000000000000000000e+02 8.000000000000000000e+02 9.000000000000000000e+02 1.000000000000000000e+03 1.100000000000000000e+03 1.200000000000000000e+03 1.400000000000000000e+03 1.400000000000000000e+03 1.400000000000000000e+03 1.400000000000000000e+03 1.400000000000000000e+03 1.400000000000000000e+03 1.400000000000000000e+03 1.050000000000000000e+04 1.050000000000000000e+04 1.400000000000000000e+03 1.400000000000000000e+03 1.400000000000000000e+03 1.400000000000000000e+03 1.400000000000000000e+03 1.400000000000000000e+03 1.400000000000000000e+03 1.200000000000000000e+03 1.000000000000000000e+03 9.000000000000000000e+02 7.000000000000000000e+02 6.000000000000000000e+02 5.000000000000000000e+02 3.000000000000000000e+02 2.000000000000000000e+02 1.000000000000000000e+02 4.000000000000000000e+02 8.000000000000000000e+02 1.100000000000000000e+03 1.300000000000000000e+03 1.400000000000000000e+03 1.400000000000000000e+03 1.400000000000000000e+03 1.400000000000000000e+03 1.400000000000000000e+03 1.400000000000000000e+03 1.400000000000000000e+03 1.400000000000000000e+03 1.400000000000000000e+03 1.400000000000000000e+03 1.400000000000000000e+03 1.400000000000000000e+03 1.400000000000000000e+03 1.400000000000000000e+03 1.400000000000000000e+03 1.400000000000000000e+03 1.400000000000000000e+03 1.400000000000000000e+03 1.400000000000000000e+03 1.400000000000000000e+03 2.300000000000000000e+03 1.000000000000000000e+02 8.000000000000000000e+02 1.000000000000000000e+02 2.000000000000000000e+02 3.000000000000000000e+02 4.000000000000000000e+02 5.000000000000000000e+02 6.000000000000000000e+02 7.000000000000000000e+02 9.000000000000000000e+02
1.000000000000000000e+02 4.000000000000000000e+02 1.000000000000000000e+03 1.200000000000000000e+03 1.400000000000000000e+03 1.500000000000000000e+03 1.500000000000000000e+03 1.500000000000000000e+03 1.500000000000000000e+03 1.500000000000000000e+03 1.500000000000000000e+03 1.500000000000000000e+03 1.500000000000000000e+03 1.500000000000000000e+03 1.500000000000000000e+03 1.500000000000000000e+03 1.500000000000000000e+03 1.500000000000000000e+03 1.500000000000000000e+03 1.500000000000000000e+03 1.500000000000000000e+03 1.500000000000000000e+03 1.500000000000000000e+03 1.500000000000000000e+03 1.500000000000000000e+03 1.500000000000000000e+03 1.500000000000000000e+03 1.500000000000000000e+03 1.500000000000000000e+03 1.500000000000000000e+03 1.500000000000000000e+03 1.600000000000000000e+03 1.500000000000000000e+03 1.500000000000000000e+03 1.130000000000000000e+04 1.100000000000000000e+03 1.000000000000000000e+03 9.000000000000000000e+02 8.000000000000000000e+02 7.000000000000000000e+02 6.000000000000000000e+02 5.000000000000000000e+02 4.000000000000000000e+02 3.000000000000000000e+02 1.400000000000000000e+03 1.000000000000000000e+02 2.000000000000000000e+02 1.000000000000000000e+02 2.000000000000000000e+02 3.000000000000000000e+02 4.000000000000000000e+02 5.000000000000000000e+02 6.000000000000000000e+02 7.000000000000000000e+02 8.000000000000000000e+02 9.000000000000000000e+02 1.000000000000000000e+03 1.100000000000000000e+03 1.200000000000000000e+03 1.300000000000000000e+03 1.500000000000000000e+03 1.500000000000000000e+03 1.500000000000000000e+03 1.500000000000000000e+03 1.500000000000000000e+03 1.500000000000000000e+03 2.250000000000000000e+04 1.500000000000000000e+03 1.500000000000000000e+03 1.500000000000000000e+03 1.500000000000000000e+03 1.500000000000000000e+03 1.500000000000000000e+03 1.500000000000000000e+03 1.300000000000000000e+03 1.100000000000000000e+03 1.000000000000000000e+03 8.000000000000000000e+02 7.000000000000000000e+02 6.000000000000000000e+02 4.000000000000000000e+02 3.000000000000000000e+02 2.000000000000000000e+02 1.000000000000000000e+02 5.000000000000000000e+02 9.000000000000000000e+02 1.200000000000000000e+03 1.400000000000000000e+03 1.500000000000000000e+03 1.500000000000000000e+03 1.500000000000000000e+03 1.500000000000000000e+03 1.500000000000000000e+03 1.500000000000000000e+03 1.500000000000000000e+03 1.500000000000000000e+03 1.000000000000000000e+02 2.900000000000000000e+03 1.500000000000000000e+03 1.500000000000000000e+03 1.500000000000000000e+03 1.500000000000000000e+03 1.500000000000000000e+03 1.500000000000000000e+03 1.500000000000000000e+03 1.500000000000000000e+03 1.500000000000000000e+03 1.500000000000000000e+03 2.500000000000000000e+03 1.000000000000000000e+02 9.000000000000000000e+02 1.000000000000000000e+02 2.000000000000000000e+02 3.000000000000000000e+02 4.000000000000000000e+02 5.000000000000000000e+02 6.000000000000000000e+02 7.000000000000000000e+02 8.000000000000000000e+02
1.000000000000000000e+02 5.000000000000000000e+02 1.100000000000000000e+03 1.300000000000000000e+03 1.500000000000000000e+03 1.600000000000000000e+03 1.600000000000000000e+03 1.600000000000000000e+03 1.600000000000000000e+03 1.600000000000000000e+03 1.600000000000000000e+03 1.600000000000000000e+03 1.600000000000000000e+03 1.600000000000000000e+03 1.600000000000000000e+03 1.600000000000000000e+03 1.600000000000000000e+03 1.600000000000000000e+03 1.600000000000000000e+03 1.600000000000000000e+03 1.600000000000000000e+03 1.600000000000000000e+03 1.600000000000000000e+03 1.600000000000000000e+03 1.600000000000000000e+03 1.600000000000000000e+03 1.600000000000000000e+03 1.600000000000000000e+03 1.600000000000000000e+03 1.600000000000000000e+03 1.600000000000000000e+03 1.700000000000000000e+03 1.600000000000000000e+03 1.600000000000000000e+03 1.250000000000000000e+04 1.100000000000000000e+03 1.000000000000000000e+03 9.000000000000000000e+02 8.000000000000000000e+02 7.000000000000000000e+02 6.000000000000000000e+02 5.000000000000000000e+02 4.000000000000000000e+02 1.500000000000000000e+03 2.000000000000000000e+02 1.000000000000000000e+02 3.000000000000000000e+02 1.000000000000000000e+02 2.000000000000000000e+02 3.000000000000000000e+02 4.000000000000000000e+02 5.000000000000000000e+02 6.000000000000000000e+02 7.000000000000000000e+02 8.000000000000000000e+02 9.000000000000000000e+02 1.000000000000000000e+03 1.100000000000000000e+03 1.200000000000000000e+03 1.300000000000000000e+03 1.400000000000000000e+03 1.600000000000000000e+03 1.600000000000000000e+03 1.600000000000000000e+03 1.600000000000000000e+03 1.600000000000000000e+03 2.560000000000000000e+04 1.600000000000000000e+03 1.600000000000000000e+03 1.600000000000000000e+03 1.600000000000000000e+03 1.600000000000000000e+03 1.600000000000000000e+03 1.400000000000000000e+03 1.200000000000000000e+03 1.100000000000000000e+03 9.000000000000000000e+02 8.000000000000000000e+02 7.000000000000000000e+02 5.000000000000000000e+02 4.000000000000000000e+02 3.000000000000000000e+02 2.000000000000000000e+02 1.000000000000000000e+02 6.000000000000000000e+02 1.000000000000000000e+02 2.200000000000000000e+03 1.500000000000000000e+03 1.600000000000000000e+03 1.600000000000000000e+03 1.600000000000000000e+03 1.600000000000000000e+03 1.600000000000000000e+03 1.600000000000000000e+03 1.600000000000000000e+03 1.600000000000000000e+03 1.000000000000000000e+02 3.100000000000000000e+03 1.600000000000000000e+03 1.600000000000000000e+03 1.600000000000000000e+03 1.600000000000000000e+03 1.600000000000000000e+03 1.600000000000000000e+03 1.600000000000000000e+03 1.600000000000000000e+03 1.600000000000000000e+03 1.600000000000000000e+03 2.700000000000000000e+03 1.000000000000000000e+02 1.000000000000000000e+03 1.000000000000000000e+02 2.000000000000000000e+02 3.000000000000000000e+02 4.000000000000000000e+02 5.000000000000000000e+02 6.000000000000000000e+02 7.000000000000000000e+02 8.000000000000000000e+02
1.000000000000000000e+02 6.000000000000000000e+02 1.200000000000000000e+03 1.400000000000000000e+03 1.600000000000000000e+03 1.700000000000000000e+03 1.700000000000000000e+03 1.700000000000000000e+03 1.700000000000000000e+03 1.700000000000000000e+03 1.700000000000000000e+03 1.700000000000000000e+03 1.700000000000000000e+03 1.700000000000000000e+03 1.700000000000000000e+03 1.700000000000000000e+03 1.700000000000000000e+03 1.700000000000000000e+03 1.700000000000000000e+03 1.700000000000000000e+03 1.700000000000000000e+03 1.700000000000000000e+03 1.700000000000000000e+03 1.700000000000000000e+03 1.700000000000000000e+03 1.700000000000000000e+03 1.700000000000000000e+03 1.700000000000000000e+03 1.700000000000000000e+03 1.700000000000000000e+03 1.700000000000000000e+03 1.800000000000000000e+03 1.700000000000000000e+03 1.420000000000000000e+04 1.200000000000000000e+03 1.100000000000000000e+03 1.000000000000000000e+03 9.000000000000000000e+02 8.000000000000000000e+02 7.000000000000000000e+02 6.000000000000000000e+02 5.000000000000000000e+02 1.600000000000000000e+03 3.000000000000000000e+02 2.000000000000000000e+02 1.000000000000000000e+02 4.000000000000000000e+02 1.000000000000000000e+02 2.000000000000000000e+02 3.000000000000000000e+02 4.000000000000000000e+02 5.000000000000000000e+02 6.000000000000000000e+02 7.000000000000000000e+02 8.000000000000000000e+02 9.000000000000000000e+02 1.000000000000000000e+03 1.100000000000000000e+03 1.200000000000000000e+03 1.300000000000000000e+03 1.400000000000000000e+03 1.500000000000000000e+03 1.700000000000000000e+03 1.700000000000000000e+03 1.700000000000000000e+03 1.700000000000000000e+03 2.890000000000000000e+04 1.700000000000000000e+03 1.700000000000000000e+03 1.700000000000000000e+03 1.700000000000000000e+03 1.700000000000000000e+03 1.500000000000000000e+03 1.300000000000000000e+03 1.200000000000000000e+03 1.000000000000000000e+03 9.000000000000000000e+02 8.000000000000000000e+02 6.000000000000000000e+02 5.000000000000000000e+02 4.000000000000000000e+02 3.000000000000000000e+02 2.000000000000000000e+02 1.000000000000000000e+02 1.000000000000000000e+02 8.000000000000000000e+02 2.300000000000000000e+03 1.600000000000000000e+03 1.700000000000000000e+03 1.700000000000000000e+03 1.700000000000000000e+03 1.700000000000000000e+03 1.700000000000000000e+03 1.700000000000000000e+03 1.700000000000000000e+03 1.700000000000000000e+03 1.000000000000000000e+02 3.300000000000000000e+03 1.000000000000000000e+02 3.300000000000000000e+03 1.700000000000000000e+03 1.700000000000000000e+03 1.700000000000000000e+03 1.700000000000000000e+03 1.700000000000000000e+03 1.700000000000000000e+03 1.700000000000000000e+03 4.400000000000000000e+03 2.000000000000000000e+02 1.000000000000000000e+02 1.100000000000000000e+03 1.000000000000000000e+02 2.000000000000000000e+02 3.000000000000000000e+02 4.000000000000000000e+02 5.000000000000000000e+02 6.000000000000000000e+02 7.000000000000000000e+02 8.000000000000000000e+02
1.000000000000000000e+02 7.000000000000000000e+02 1.300000000000000000e+03 1.500000000000000000e+03 1.000000000000000000e+02 3.400000000000000000e+03 1.800000000000000000e+03 1.800000000000000000e+03 1.800000000000000000e+03 1.800000000000000000e+03 1.800000000000000000e+03 1.800000000000000000e+03 1.800000000000000000e+03 1.800000000000000000e+03 1.800000000000000000e+03 1.800000000000000000e+03 1.800000000000000000e+03 1.800000000000000000e+03 1.800000000000000000e+03 1.800000000000000000e+03 1.800000000000000000e+03 1.800000000000000000e+03 1.800000000000000000e+03 1.800000000000000000e+03 1.800000000000000000e+03 1.800000000000000000e+03 1.800000000000000000e+03 1.800000000000000000e+03 1.800000000000000000e+03 1.800000000000000000e+03 1.800000000000000000e+03 1.900000000000000000e+03 1.800000000000000000e+03 1.550000000000000000e+04 1.200000000000000000e+03 1.100000000000000000e+03 1.000000000000000000e+03 9.000000000000000000e+02 8.000000000000000000e+02 7.000000000000000000e+02 6.000000000000000000e+02 1.700000000000000000e+03 4.000000000000000000e+02 3.000000000000000000e+02 2.000000000000000000e+02 1.000000000000000000e+02 5.000000000000000000e+02 1.000000000000000000e+02 2.000000000000000000e+02 3.000000000000000000e+02 4.000000000000000000e+02 5.000000000000000000e+02 6.000000000000000000e+02 7.000000000000000000e+02 8.000000000000000000e+02 9.000000000000000000e+02 1.000000000000000000e+03 1.100000000000000000e+03 1.200000000000000000e+03 1.300000000000000000e+03 1.400000000000000000e+03 1.500000000000000000e+03 1.600000000000000000e+03 1.800000000000000000e+03 1.800000000000000000e+03 1.800000000000000000e+03 3.240000000000000000e+04 1.800000000000000000e+03 1.800000000000000000e+03 1.800000000000000000e+03 1.800000000000000000e+03 1.600000000000000000e+03 1.400000000000000000e+03 1.300000000000000000e+03 1.100000000000000000e+03 1.000000000000000000e+03 9.000000000000000000e+02 7.000000000000000000e+02 6.000000000000000000e+02 5.000000000000000000e+02 4.000000000000000000e+02 3.000000000000000000e+02 2.000000000000000000e+02 1.000000000000000000e+02 2.000000000000000000e+02 1.000000000000000000e+02 3.200000000000000000e+03 1.700000000000000000e+03 1.800000000000000000e+03 1.800000000000000000e+03 1.800000000000000000e+03 1.800000000000000000e+03 1.800000000000000000e+03 1.800000000000000000e+03 1.800000000000000000e+03 1.800000000000000000e+03 1.000000000000000000e+02 3.500000000000000000e+03 1.000000000000000000e+02 3.500000000000000000e+03 1.800000000000000000e+03 1.800000000000000000e+03 1.800000000000000000e+03 1.800000000000000000e+03 1.800000000000000000e+03 1.800000000000000000e+03 1.800000000000000000e+03 4.700000000000000000e+03 2.000000000000000000e+02 1.000000000000000000e+02 1.200000000000000000e+03 1.000000000000000000e+02 2.000000000000000000e+02 3.000000000000000000e+02 4.000000000000000000e+02 5.000000000000000000e+02 6.000000000000000000e+02 7.000000000000000000e+02 8.000000000000000000e+02
2.000000000000000000e+02 8.000000000000000000e+02 1.400000000000000000e+03 1.600000000000000000e+03 1.000000000000000000e+02 3.600000000000000000e+03 1.900000000000000000e+03 1.900000000000000000e+03 1.900000000000000000e+03 1.900000000000000000e+03 1.900000000000000000e+03 1.900000000000000000e+03 1.900000000000000000e+03 1.900000000000000000e+03 1.900000000000000000e+03 1.900000000000000000e+03 1.900000000000000000e+03 1.900000000000000000e+03 1.900000000000000000e+03 3.700000000000000000e+03 1.000000000000000000e+02 1.900000000000000000e+03 1.900000000000000000e+03 1.900000000000000000e+03 1.900000000000000000e+03 1.900000000000000000e+03 1.900000000000000000e+03 1.900000000000000000e+03 1.900000000000000000e+03 1.900000000000000000e+03 1.900000000000000000e+03 2.000000000000000000e+03 1.900000000000000000e+03 1.680000000000000000e+04 1.200000000000000000e+03 1.100000000000000000e+03 1.000000000000000000e+03 9.000000000000000000e+02 8.000000000000000000e+02 7.000000000000000000e+02 1.800000000000000000e+03 5.000000000000000000e+02 4.000000000000000000e+02 3.000000000000000000e+02 2.000000000000000000e+02 1.000000000000000000e+02 1.000000000000000000e+02 6.000000000000000000e+02 2.000000000000000000e+02 3.000000000000000000e+02 4.000000000000000000e+02 5.000000000000000000e+02 6.000000000000000000e+02 7.000000000000000000e+02 8.000000000000000000e+02 9.000000000000000000e+02 1.000000000000000000e+03 1.100000000000000000e+03 1.200000000000000000e+03 1.300000000000000000e+03 1.400000000000000000e+03 1.500000000000000000e+03 1.600000000000000000e+03 1.700000000000000000e+03 1.900000000000000000e+03 1.900000000000000000e+03 3.610000000000000000e+04 1.900000000000000000e+03 1.900000000000000000e+03 1.900000000000000000e+03 1.700000000000000000e+03 1.500000000000000000e+03 1.400000000000000000e+03 1.200000000000000000e+03 1.100000000000000000e+03 1.000000000000000000e+03 8.000000000000000000e+02 7.000000000000000000e+02 6.000000000000000000e+02 5.000000000000000000e+02 4.000000000000000000e+02 3.000000000000000000e+02 2.000000000000000000e+02 1.000000000000000000e+02 1.000000000000000000e+02 3.000000000000000000e+02 3.400000000000000000e+03 1.800000000000000000e+03 1.900000000000000000e+03 1.900000000000000000e+03 1.900000000000000000e+03 1.900000000000000000e+03 1.900000000000000000e+03 1.900000000000000000e+03 1.900000000000000000e+03 1.900000000000000000e+03 1.000000000000000000e+02 3.700000000000000000e+03 1.000000000000000000e+02 3.700000000000000000e+03 1.900000000000000000e+03 1.900000000000000000e+03 1.900000000000000000e+03 1.900000000000000000e+03 1.900000000000000000e+03 1.900000000000000000e+03 1.900000000000000000e+03 5.000000000000000000e+03 2.000000000000000000e+02 1.000000000000000000e+02 1.300000000000000000e+03 1.000000000000000000e+02 2.000000000000000000e+02 3.000000000000000000e+02 4.000000000000000000e+02 5.000000000000000000e+02 6.000000000000000000e+02 7.000000000000000000e+02 8.000000000000000000e+02
3.000000000000000000e+02 9.000000000000000000e+02 1.500000000000000000e+03 1.700000000000000000e+03 1.000000000000000000e+02 3.800000000000000000e+03 2.000000000000000000e+03 2.000000000000000000e+03 2.000000000000000000e+03 2.000000000000000000e+03 2.000000000000000000e+03 2.000000000000000000e+03 2.000000000000000000e+03 2.000000000000000000e+03 2.000000000000000000e+03 2.000000000000000000e+03 2.000000000000000000e+03 2.000000000000000000e+03 2.000000000000000000e+03 3.900000000000000000e+03 1.000000000000000000e+02 2.000000000000000000e+03 2.000000000000000000e+03 2.000000000000000000e+03 2.000000000000000000e+03 2.000000000000000000e+03 2.000000000000000000e+03 2.000000000000000000e+03 2.000000000000000000e+03 2.000000000000000000e+03 2.000000000000000000e+03 2.100000000000000000e+03 1.880000000000000000e+04 1.300000000000000000e+03 1.200000000000000000e+03 1.100000000000000000e+03 1.000000000000000000e+03 5.600000000000000000e+03 4.700000000000000000e+03 3.900000000000000000e+03 2.000000000000000000e+03 1.400000000000000000e+03 9.000000000000000000e+02 5.000000000000000000e+02 2.000000000000000000e+02 1.000000000000000000e+02 1.000000000000000000e+02 2.000000000000000000e+02 7.000000000000000000e+02 3.000000000000000000e+02 4.000000000000000000e+02 5.000000000000000000e+02 6.000000000000000000e+02 7.000000000000000000e+02 8.000000000000000000e+02 9.000000000000000000e+02 1.000000000000000000e+03 1.100000000000000000e+03 1.200000000000000000e+03 1.300000000000000000e+03 1.400000000000000000e+03 1.500000000000000000e+03 1.600000000000000000e+03 1.700000000000000000e+03 1.800000000000000000e+03 2.000000000000000000e+03 4.000000000000000000e+04 2.000000000000000000e+03 2.000000000000000000e+03 1.800000000000000000e+03 1.600000000000000000e+03 1.500000000000000000e+03 1.300000000000000000e+03 1.200000000000000000e+03 1.100000000000000000e+03 9.000000000000000000e+02 8.000000000000000000e+02 7.000000000000000000e+02 6.000000000000000000e+02 5.000000000000000000e+02 4.000000000000000000e+02 3.000000000000000000e+02 2.000000000000000000e+02 1.000000000000000000e+02 1.000000000000000000e+02 2.000000000000000000e+02 3.800000000000000000e+03 1.900000000000000000e+03 2.000000000000000000e+03 2.000000000000000000e+03 2.000000000000000000e+03 2.000000000000000000e+03 2.000000000000000000e+03 2.000000000000000000e+03 2.000000000000000000e+03 1.000000000000000000e+02 2.000000000000000000e+03 3.900000000000000000e+03 1.000000000000000000e+02 3.900000000000000000e+03 2.000000000000000000e+03 2.000000000000000000e+03 2.000000000000000000e+03 2.000000000000000000e+03 2.000000000000000000e+03 2.000000000000000000e+03 7.000000000000000000e+03 3.000000000000000000e+02 2.000000000000000000e+02 1.000000000000000000e+02 1.400000000000000000e+03 1.000000000000000000e+02 2.000000000000000000e+02 3.000000000000000000e+02 4.000000000000000000e+02 5.000000000000000000e+02 6.000000000000000000e+02 7.000000000000000000e+02 8.000000000000000000e+02
4.000000000000000000e+02 1.000000000000000000e+03 1.600000000000000000e+03 1.800000000000000000e+03 1.000000000000000000e+02 2.000000000000000000e+02 5.900000000000000000e+03 2.100000000000000000e+03 2.100000000000000000e+03 2.100000000000000000e+03 2.100000000000000000e+03 2.100000000000000000e+03 2.100000000000000000e+03 2.100000000000000000e+03 2.100000000000000000e+03 2.100000000000000000e+03 2.100000000000000000e+03 2.100000000000000000e+03 2.100000000000000000e+03 4.100000000000000000e+03 1.000000000000000000e+02 2.100000000000000000e+03 2.100000000000000000e+03 2.100000000000000000e+03 2.100000000000000000e+03 2.100000000000000000e+03 2.100000000000000000e+03 2.100000000000000000e+03 2.100000000000000000e+03 2.100000000000000000e+03 2.100000000000000000e+03 2.200000000000000000e+03 2.020000000000000000e+04 1.300000000000000000e+03 1.200000000000000000e+03 7.700000000000000000e+03 6.600000000000000000e+03 9.000000000000000000e+02 8.000000000000000000e+02 7.000000000000000000e+02 6.000000000000000000e+02 5.000000000000000000e+02 4.000000000000000000e+02 3.000000000000000000e+02 2.000000000000000000e+02 1.000000000000000000e+02 1.000000000000000000e+02 2.000000000000000000e+02 3.000000000000000000e+02 8.000000000000000000e+02 4.000000000000000000e+02 5.000000000000000000e+02 6.000000000000000000e+02 7.000000000000000000e+02 8.000000000000000000e+02 9.000000000000000000e+02 1.000000000000000000e+03 1.100000000000000000e+03 1.200000000000000000e+03 1.300000000000000000e+03 1.400000000000000000e+03 1.500000000000000000e+03 1.600000000000000000e+03 1.700000000000000000e+03 1.800000000000000000e+03 1.900000000000000000e+03 4.410000000000000000e+04 2.100000000000000000e+03 1.900000000000000000e+03 1.700000000000000000e+03 1.600000000000000000e+03 1.400000000000000000e+03 1.300000000000000000e+03 1.200000000000000000e+03 1.000000000000000000e+03 9.000000000000000000e+02 8.000000000000000000e+02 7.000000000000000000e+02 6.000000000000000000e+02 5.000000000000000000e+02 4.000000000000000000e+02 3.000000000000000000e+02 2.000000000000000000e+02 1.000000000000000000e+02 1.000000000000000000e+02 2.000000000000000000e+02 3.000000000000000000e+02 5.800000000000000000e+03 2.100000000000000000e+03 2.100000000000000000e+03 2.100000000000000000e+03 2.100000000000000000e+03 2.100000000000000000e+03 2.100000000000000000e+03 2.100000000000000000e+03 1.000000000000000000e+02 2.000000000000000000e+02 6.000000000000000000e+03 1.000000000000000000e+02 2.000000000000000000e+02 6.000000000000000000e+03 2.100000000000000000e+03 2.100000000000000000e+03 2.100000000000000000e+03 2.100000000000000000e+03 2.100000000000000000e+03 7.400000000000000000e+03 3.000000000000000000e+02 2.000000000000000000e+02 1.000000000000000000e+02 1.500000000000000000e+03 1.000000000000000000e+02 2.000000000000000000e+02 3.000000000000000000e+02 4.000000000000000000e+02 5.000000000000000000e+02 6.000000000000000000e+02 7.000000000000000000e+02 8.000000000000000000e+02
5.000000000000000000e+02 1.100000000000000000e+03 1.700000000000000000e+03 1.000000000000000000e+02 2.000000000000000000e+03 1.000000000000000000e+02 6.200000000000000000e+03 2.200000000000000000e+03 2.200000000000000000e+03 2.200000000000000000e+03 2.200000000000000000e+03 2.200000000000000000e+03 2.200000000000000000e+03 2.200000000000000000e+03 2.200000000000000000e+03 2.200000000000000000e+03 2.200000000000000000e+03 2.200000000000000000e+03 2.200000000000000000e+03 4.300000000000000000e+03 1.000000000000000000e+02 2.200000000000000000e+03 2.200000000000000000e+03 2.200000000000000000e+03 2.200000000000000000e+03 2.200000000000000000e+03 2.200000000000000000e+03 2.200000000000000000e+03 2.200000000000000000e+03 2.200000000000000000e+03 2.200000000000000000e+03 2.300000000000000000e+03 2.290000000000000000e+04 1.300000000000000000e+03 8.900000000000000000e+03 1.100000000000000000e+03 1.000000000000000000e+03 9.000000000000000000e+02 8.000000000000000000e+02 7.000000000000000000e+02 6.000000000000000000e+02 5.000000000000000000e+02 4.000000000000000000e+02 3.000000000000000000e+02 2.000000000000000000e+02 1.000000000000000000e+02 1.000000000000000000e+02 2.000000000000000000e+02 3.000000000000000000e+02 4.000000000000000000e+02 9.000000000000000000e+02 5.000000000000000000e+02 6.000000000000000000e+02 7.000000000000000000e+02 8.000000000000000000e+02 9.000000000000000000e+02 1.000000000000000000e+03 1.100000000000000000e+03 1.200000000000000000e+03 1.300000000000000000e+03 1.400000000000000000e+03 1.500000000000000000e+03 1.600000000000000000e+03 1.700000000000000000e+03 1.800000000000000000e+03 1.900000000000000000e+03 4.820000000000000000e+04 2.000000000000000000e+03 1.800000000000000000e+03 1.700000000000000000e+03 1.500000000000000000e+03 1.400000000000000000e+03 1.300000000000000000e+03 1.100000000000000000e+03 1.000000000000000000e+03 9.000000000000000000e+02 8.000000000000000000e+02 7.000000000000000000e+02 6.000000000000000000e+02 5.000000000000000000e+02 4.000000000000000000e+02 3.000000000000000000e+02 1.000000000000000000e+02 2.000000000000000000e+02 1.000000000000000000e+02 2.000000000000000000e+02 3.000000000000000000e+02 6.200000000000000000e+03 2.200000000000000000e+03 2.200000000000000000e+03 2.200000000000000000e+03 2.200000000000000000e+03 2.200000000000000000e+03 2.200000000000000000e+03 2.200000000000000000e+03 1.000000000000000000e+02 2.000000000000000000e+02 6.300000000000000000e+03 1.000000000000000000e+02 2.000000000000000000e+02 6.300000000000000000e+03 2.200000000000000000e+03 2.200000000000000000e+03 2.200000000000000000e+03 2.200000000000000000e+03 9.600000000000000000e+03 4.000000000000000000e+02 3.000000000000000000e+02 2.000000000000000000e+02 1.000000000000000000e+02 1.600000000000000000e+03 1.000000000000000000e+02 2.000000000000000000e+02 3.000000000000000000e+02 4.000000000000000000e+02 5.000000000000000000e+02 6.000000000000000000e+02 7.000000000000000000e+02 8.000000000000000000e+02
6.000000000000000000e+02 1.200000000000000000e+03 1.800000000000000000e+03 1.000000000000000000e+02 2.000000000000000000e+02 2.100000000000000000e+03 6.400000000000000000e+03 2.300000000000000000e+03 2.300000000000000000e+03 2.300000000000000000e+03 2.300000000000000000e+03 2.300000000000000000e+03 2.300000000000000000e+03 2.300000000000000000e+03 2.300000000000000000e+03 2.300000000000000000e+03 2.300000000000000000e+03 2.300000000000000000e+03 2.300000000000000000e+03 4.500000000000000000e+03 2.300000000000000000e+03 1.000000000000000000e+02 2.300000000000000000e+03 2.300000000000000000e+03 2.300000000000000000e+03 2.300000000000000000e+03 2.300000000000000000e+03 2.300000000000000000e+03 2.300000000000000000e+03 2.300000000000000000e+03 2.300000000000000000e+03 2.530000000000000000e+04 1.000000000000000000e+02 1.020000000000000000e+04 1.200000000000000000e+03 1.100000000000000000e+03 1.000000000000000000e+03 9.000000000000000000e+02 8.000000000000000000e+02 7.000000000000000000e+02 6.000000000000000000e+02 5.000000000000000000e+02 4.000000000000000000e+02 3.000000000000000000e+02 2.000000000000000000e+02 1.000000000000000000e+02 1.000000000000000000e+02 2.000000000000000000e+02 3.000000000000000000e+02 4.000000000000000000e+02 5.000000000000000000e+02 1.000000000000000000e+03 6.000000000000000000e+02 7.000000000000000000e+02 8.000000000000000000e+02 9.000000000000000000e+02 1.000000000000000000e+03 1.100000000000000000e+03 1.200000000000000000e+03 1.300000000000000000e+03 1.400000000000000000e+03 1.500000000000000000e+03 1.600000000000000000e+03 1.700000000000000000e+03 1.800000000000000000e+03 1.900000000000000000e+03 5.220000000000000000e+04 1.900000000000000000e+03 1.800000000000000000e+03 1.600000000000000000e+03 1.500000000000000000e+03 1.400000000000000000e+03 1.200000000000000000e+03 1.100000000000000000e+03 1.000000000000000000e+03 9.000000000000000000e+02 8.000000000000000000e+02 7.000000000000000000e+02 6.000000000000000000e+02 5.000000000000000000e+02 4.000000000000000000e+02 2.000000000000000000e+02 1.000000000000000000e+02 3.000000000000000000e+02 1.000000000000000000e+02 2.000000000000000000e+02 3.000000000000000000e+02 6.600000000000000000e+03 2.300000000000000000e+03 2.300000000000000000e+03 2.300000000000000000e+03 2.300000000000000000e+03 2.300000000000000000e+03 2.300000000000000000e+03 2.300000000000000000e+03 1.000000000000000000e+02 2.000000000000000000e+02 6.600000000000000000e+03 1.000000000000000000e+02 2.000000000000000000e+02 6.600000000000000000e+03 2.300000000000000000e+03 2.300000000000000000e+03 2.300000000000000000e+03 2.300000000000000000e+03 1.010000000000000000e+04 4.000000000000000000e+02 3.000000000000000000e+02 2.000000000000000000e+02 1.000000000000000000e+02 1.700000000000000000e+03 1.000000000000000000e+02 2.000000000000000000e+02 3.000000000000000000e+02 4.000000000000000000e+02 5.000000000000000000e+02 6.000000000000000000e+02 7.000000000000000000e+02 8.000000000000000000e+02
7.000000000000000000e+02 1.300000000000000000e+03 1.900000000000000000e+03 1.000000000000000000e+02 2.000000000000000000e+02 3.000000000000000000e+02 8.600000000000000000e+03 2.400000000000000000e+03 2.400000000000000000e+03 2.400000000000000000e+03 2.400000000000000000e+03 2.400000000000000000e+03 2.400000000000000000e+03 2.400000000000000000e+03 2.400000000000000000e+03 2.400000000000000000e+03 2.400000000000000000e+03 2.400000000000000000e+03 2.400000000000000000e+03 6.900000000000000000e+03 2.000000000000000000e+02 1.000000000000000000e+02 2.400000000000000000e+03 2.400000000000000000e+03 2.400000000000000000e+03 2.400000000000000000e+03 2.400000000000000000e+03 2.400000000000000000e+03 2.400000000000000000e+03 2.400000000000000000e+03 2.400000000000000000e+03 3.700000000000000000e+04 1.150000000000000000e+04 1.200000000000000000e+03 1.100000000000000000e+03 1.000000000000000000e+03 9.000000000000000000e+02 8.000000000000000000e+02 7.000000000000000000e+02 6.000000000000000000e+02 5.000000000000000000e+02 4.000000000000000000e+02 3.000000000000000000e+02 2.000000000000000000e+02 1.000000000000000000e+02 1.000000000000000000e+02 2.000000000000000000e+02 2.000000000000000000e+02 3.000000000000000000e+02 4.000000000000000000e+02 5.000000000000000000e+02 6.000000000000000000e+02 1.100000000000000000e+03 7.000000000000000000e+02 8.000000000000000000e+02 9.000000000000000000e+02 1.000000000000000000e+03 1.100000000000000000e+03 1.200000000000000000e+03 1.300000000000000000e+03 1.400000000000000000e+03 1.500000000000000000e+03 1.600000000000000000e+03 1.700000000000000000e+03 1.800000000000000000e+03 1.900000000000000000e+03 5.610000000000000000e+04 1.900000000000000000e+03 1.700000000000000000e+03 1.600000000000000000e+03 1.500000000000000000e+03 1.300000000000000000e+03 1.200000000000000000e+03 1.100000000000000000e+03 1.000000000000000000e+03 9.000000000000000000e+02 8.000000000000000000e+02 7.000000000000000000e+02 6.000000000000000000e+02 5.000000000000000000e+02 3.000000000000000000e+02 2.000000000000000000e+02 1.000000000000000000e+02 4.000000000000000000e+02 1.000000000000000000e+02 2.000000000000000000e+02 3.000000000000000000e+02 7.000000000000000000e+03 2.400000000000000000e+03 2.400000000000000000e+03 2.400000000000000000e+03 2.400000000000000000e+03 2.400000000000000000e+03 2.400000000000000000e+03 2.400000000000000000e+03 1.000000000000000000e+02 2.000000000000000000e+02 6.900000000000000000e+03 1.000000000000000000e+02 2.000000000000000000e+02 6.900000000000000000e+03 2.400000000000000000e+03 2.400000000000000000e+03 2.400000000000000000e+03 1.250000000000000000e+04 5.000000000000000000e+02 4.000000000000000000e+02 3.000000000000000000e+02 2.000000000000000000e+02 1.000000000000000000e+02 1.800000000000000000e+03 1.000000000000000000e+02 2.000000000000000000e+02 3.000000000000000000e+02 4.000000000000000000e+02 5.000000000000000000e+02 6.000000000000000000e+02 7.000000000000000000e+02 8.000000000000000000e+02
8.000000000000000000e+02 1.400000000000000000e+03 2.000000000000000000e+03 1.000000000000000000e+02 2.000000000000000000e+02 3.000000000000000000e+02 9.000000000000000000e+03 2.500000000000000000e+03 2.500000000000000000e+03 2.500000000000000000e+03 2.500000000000000000e+03 2.500000000000000000e+03 2.500000000000000000e+03 2.500000000000000000e+03 2.500000000000000000e+03 2.500000000000000000e+03 2.500000000000000000e+03 2.500000000000000000e+03 2.500000000000000000e+03 7.200000000000000000e+03 2.000000000000000000e+02 1.000000000000000000e+02 2.500000000000000000e+03 2.500000000000000000e+03 2.500000000000000000e+03 2.500000000000000000e+03 2.500000000000000000e+03 2.500000000000000000e+03 2.500000000000000000e+03 2.500000000000000000e+03 4.090000000000000000e+04 1.400000000000000000e+03 1.300000000000000000e+03 1.200000000000000000e+03 1.100000000000000000e+03 1.000000000000000000e+03 9.000000000000000000e+02 8.000000000000000000e+02 7.000000000000000000e+02 6.000000000000000000e+02 5.000000000000000000e+02 4.000000000000000000e+02 3.000000000000000000e+02 2.000000000000000000e+02 1.000000000000000000e+02 1.000000000000000000e+02 2.000000000000000000e+02 3.000000000000000000e+02 3.000000000000000000e+02 4.000000000000000000e+02 5.000000000000000000e+02 6.000000000000000000e+02 7.000000000000000000e+02 1.200000000000000000e+03 8.000000000000000000e+02 9.000000000000000000e+02 1.000000000000000000e+03 1.100000000000000000e+03 1.200000000000000000e+03 1.300000000000000000e+03 1.400000000000000000e+03 1.500000000000000000e+03 1.600000000000000000e+03 1.700000000000000000e+03 1.800000000000000000e+03 1.900000000000000000e+03 6.000000000000000000e+04 1.800000000000000000e+03 1.700000000000000000e+03 1.600000000000000000e+03 1.400000000000000000e+03 1.300000000000000000e+03 1.200000000000000000e+03 1.100000000000000000e+03 1.000000000000000000e+03 9.000000000000000000e+02 8.000000000000000000e+02 7.000000000000000000e+02 6.000000000000000000e+02 4.000000000000000000e+02 3.000000000000000000e+02 2.000000000000000000e+02 1.000000000000000000e+02 1.000000000000000000e+02 5.000000000000000000e+02 2.000000000000000000e+02 3.000000000000000000e+02 7.400000000000000000e+03 2.500000000000000000e+03 2.500000000000000000e+03 2.500000000000000000e+03 2.500000000000000000e+03 2.500000000000000000e+03 2.500000000000000000e+03 2.500000000000000000e+03 1.000000000000000000e+02 2.000000000000000000e+02 7.200000000000000000e+03 1.000000000000000000e+02 2.000000000000000000e+02 7.200000000000000000e+03 2.500000000000000000e+03 2.500000000000000000e+03 2.500000000000000000e+03 1.310000000000000000e+04 5.000000000000000000e+02 4.000000000000000000e+02 3.000000000000000000e+02 2.000000000000000000e+02 1.000000000000000000e+02 1.000000000000000000e+02 1.900000000000000000e+03 2.000000000000000000e+02 3.000000000000000000e+02 4.000000000000000000e+02 5.000000000000000000e+02 6.000000000000000000e+02 7.000000000000000000e+02 8.000000000000000000e+02
9.000000000000000000e+02 1.500000000000000000e+03 2.100000000000000000e+03 1.000000000000000000e+02 2.000000000000000000e+02 3.000000000000000000e+02 9.400000000000000000e+03 2.600000000000000000e+03 2.600000000000000000e+03 2.600000000000000000e+03 2.600000000000000000e+03 2.600000000000000000e+03 2.600000000000000000e+03 2.600000000000000000e+03 2.600000000000000000e+03 2.600000000000000000e+03 2.600000000000000000e+03 2.600000000000000000e+03 2.600000000000000000e+03 7.500000000000000000e+03 2.000000000000000000e+02 1.000000000000000000e+02 2.600000000000000000e+03 2.600000000000000000e+03 2.600000000000000000e+03 2.600000000000000000e+03 2.600000000000000000e+03 2.600000000000000000e+03 2.600000000000000000e+03 4.500000000000000000e+04 1.500000000000000000e+03 1.400000000000000000e+03 1.300000000000000000e+03 1.200000000000000000e+03 1.100000000000000000e+03 1.000000000000000000e+03 9.000000000000000000e+02 8.000000000000000000e+02 7.000000000000000000e+02 6.000000000000000000e+02 5.000000000000000000e+02 4.000000000000000000e+02 3.000000000000000000e+02 2.000000000000000000e+02 1.000000000000000000e+02 1.000000000000000000e+02 2.000000000000000000e+02 3.000000000000000000e+02 4.000000000000000000e+02 4.000000000000000000e+02 5.000000000000000000e+02 6.000000000000000000e+02 7.000000000000000000e+02 8.000000000000000000e+02 1.300000000000000000e+03 9.000000000000000000e+02 1.000000000000000000e+03 1.100000000000000000e+03 1.200000000000000000e+03 1.300000000000000000e+03 1.400000000000000000e+03 1.500000000000000000e+03 1.600000000000000000e+03 1.700000000000000000e+03 1.800000000000000000e+03 1.900000000000000000e+03 6.380000000000000000e+04 1.800000000000000000e+03 1.700000000000000000e+03 1.500000000000000000e+03 1.400000000000000000e+03 1.300000000000000000e+03 1.200000000000000000e+03 1.100000000000000000e+03 1.000000000000000000e+03 9.000000000000000000e+02 8.000000000000000000e+02 7.000000000000000000e+02 5.000000000000000000e+02 4.000000000000000000e+02 3.000000000000000000e+02 2.000000000000000000e+02 1.000000000000000000e+02 2.000000000000000000e+02 1.000000000000000000e+02 6.000000000000000000e+02 3.000000000000000000e+02 7.800000000000000000e+03 2.600000000000000000e+03 2.600000000000000000e+03 2.600000000000000000e+03 2.600000000000000000e+03 2.600000000000000000e+03 2.600000000000000000e+03 2.600000000000000000e+03 1.000000000000000000e+02 2.000000000000000000e+02 7.500000000000000000e+03 1.000000000000000000e+02 2.000000000000000000e+02 3.000000000000000000e+02 9.800000000000000000e+03 2.600000000000000000e+03 1.570000000000000000e+04 6.000000000000000000e+02 5.000000000000000000e+02 4.000000000000000000e+02 3.000000000000000000e+02 2.000000000000000000e+02 1.000000000000000000e+02 1.000000000000000000e+02 2.000000000000000000e+02 2.000000000000000000e+03 3.000000000000000000e+02 4.000000000000000000e+02 5.000000000000000000e+02 6.000000000000000000e+02 7.000000000000000000e+02 8.000000000000000000e+02
1.000000000000000000e+03 1.600000000000000000e+03 2.200000000000000000e+03 1.000000000000000000e+02 2.000000000000000000e+02 3.000000000000000000e+02 9.800000000000000000e+03 2.700000000000000000e+03 2.700000000000000000e+03 2.700000000000000000e+03 2.700000000000000000e+03 2.700000000000000000e+03 2.700000000000000000e+03 2.700000000000000000e+03 2.700000000000000000e+03 2.700000000000000000e+03 2.700000000000000000e+03 2.700000000000000000e+03 2.700000000000000000e+03 7.800000000000000000e+03 2.000000000000000000e+02 1.000000000000000000e+02 2.700000000000000000e+03 2.700000000000000000e+03 2.700000000000000000e+03 2.700000000000000000e+03 2.700000000000000000e+03 2.700000000000000000e+03 4.920000000000000000e+04 1.500000000000000000e+03 1.400000000000000000e+03 1.300000000000000000e+03 1.200000000000000000e+03 1.100000000000000000e+03 1.000000000000000000e+03 9.000000000000000000e+02 8.000000000000000000e+02 7.000000000000000000e+02 6.000000000000000000e+02 5.000000000000000000e+02 4.000000000000000000e+02 3.000000000000000000e+02 2.000000000000000000e+02 1.000000000000000000e+02 1.000000000000000000e+02 1.000000000000000000e+02 2.000000000000000000e+02 3.000000000000000000e+02 4.000000000000000000e+02 5.000000000000000000e+02 5.000000000000000000e+02 6.000000000000000000e+02 7.000000000000000000e+02 8.000000000000000000e+02 9.000000000000000000e+02 1.400000000000000000e+03 1.000000000000000000e+03 1.100000000000000000e+03 1.200000000000000000e+03 1.300000000000000000e+03 1.400000000000000000e+03 1.500000000000000000e+03 1.600000000000000000e+03 1.700000000000000000e+03 1.800000000000000000e+03 1.900000000000000000e+03 6.760000000000000000e+04 1.800000000000000000e+03 1.600000000000000000e+03 1.500000000000000000e+03 1.400000000000000000e+03 1.300000000000000000e+03 1.200000000000000000e+03 1.100000000000000000e+03 1.000000000000000000e+03 9.000000000000000000e+02 8.000000000000000000e+02 6.000000000000000000e+02 5.000000000000000000e+02 4.000000000000000000e+02 3.000000000000000000e+02 2.000000000000000000e+02 1.000000000000000000e+02 1.000000000000000000e+02 3.000000000000000000e+02 2.000000000000000000e+02 7.000000000000000000e+02 8.200000000000000000e+03 2.700000000000000000e+03 2.700000000000000000e+03 2.700000000000000000e+03 2.700000000000000000e+03 2.700000000000000000e+03 2.700000000000000000e+03 2.700000000000000000e+03 1.000000000000000000e+02 2.000000000000000000e+02 7.800000000000000000e+03 1.000000000000000000e+02 2.000000000000000000e+02 3.000000000000000000e+02 1.020000000000000000e+04 2.700000000000000000e+03 1.700000000000000000e+04 6.000000000000000000e+02 5.000000000000000000e+02 4.000000000000000000e+02 3.000000000000000000e+02 2.000000000000000000e+02 1.000000000000000000e+02 1.000000000000000000e+02 2.000000000000000000e+02 3.000000000000000000e+02 2.100000000000000000e+03 4.000000000000000000e+02 5.000000000000000000e+02 6.000000000000000000e+02 7.000000000000000000e+02 8.000000000000000000e+02
1.100000000000000000e+03 1.700000000000000000e+03 2.300000000000000000e+03 2.000000000000000000e+02 1.000000000000000000e+02 3.000000000000000000e+02 1.020000000000000000e+04 2.800000000000000000e+03 2.800000000000000000e+03 2.800000000000000000e+03 2.800000000000000000e+03 2.800000000000000000e+03 2.800000000000000000e+03 2.800000000000000000e+03 2.800000000000000000e+03 2.800000000000000000e+03 2.800000000000000000e+03 2.800000000000000000e+03 2.800000000000000000e+03 8.100000000000000000e+03 2.000000000000000000e+02 1.000000000000000000e+02 2.800000000000000000e+03 2.800000000000000000e+03 2.800000000000000000e+03 2.800000000000000000e+03 2.800000000000000000e+03 5.360000000000000000e+04 1.600000000000000000e+03 1.500000000000000000e+03 1.400000000000000000e+03 1.300000000000000000e+03 1.200000000000000000e+03 1.100000000000000000e+03 1.000000000000000000e+03 9.000000000000000000e+02 8.000000000000000000e+02 7.000000000000000000e+02 6.000000000000000000e+02 5.000000000000000000e+02 4.000000000000000000e+02 3.000000000000000000e+02 2.000000000000000000e+02 1.000000000000000000e+02 1.000000000000000000e+02 2.000000000000000000e+02 2.000000000000000000e+02 3.000000000000000000e+02 4.000000000000000000e+02 5.000000000000000000e+02 6.000000000000000000e+02 6.000000000000000000e+02 7.000000000000000000e+02 8.000000000000000000e+02 9.000000000000000000e+02 1.000000000000000000e+03 1.500000000000000000e+03 1.100000000000000000e+03 1.200000000000000000e+03 1.300000000000000000e+03 1.400000000000000000e+03 1.500000000000000000e+03 1.600000000000000000e+03 1.700000000000000000e+03 1.800000000000000000e+03 1.900000000000000000e+03 7.140000000000000000e+04 1.700000000000000000e+03 1.600000000000000000e+03 1.500000000000000000e+03 1.400000000000000000e+03 1.300000000000000000e+03 1.200000000000000000e+03 1.100000000000000000e+03 1.000000000000000000e+03 9.000000000000000000e+02 7.000000000000000000e+02 6.000000000000000000e+02 5.000000000000000000e+02 4.000000000000000000e+02 3.000000000000000000e+02 2.000000000000000000e+02 1.000000000000000000e+02 1.000000000000000000e+02 2.000000000000000000e+02 4.000000000000000000e+02 3.000000000000000000e+02 9.000000000000000000e+03 2.800000000000000000e+03 2.800000000000000000e+03 2.800000000000000000e+03 2.800000000000000000e+03 2.800000000000000000e+03 2.800000000000000000e+03 2.800000000000000000e+03 1.000000000000000000e+02 2.000000000000000000e+02 8.100000000000000000e+03 1.000000000000000000e+02 2.000000000000000000e+02 3.000000000000000000e+02 1.060000000000000000e+04 1.980000000000000000e+04 1.000000000000000000e+02 6.000000000000000000e+02 5.000000000000000000e+02 4.000000000000000000e+02 3.000000000000000000e+02 2.000000000000000000e+02 1.000000000000000000e+02 1.000000000000000000e+02 2.000000000000000000e+02 3.000000000000000000e+02 4.000000000000000000e+02 2.200000000000000000e+03 5.000000000000000000e+02 6.000000000000000000e+02 7.000000000000000000e+02 8.000000000000000000e+02
1.200000000000000000e+03 1.800000000000000000e+03 2.400000000000000000e+03 3.000000000000000000e+02 1.000000000000000000e+02 2.000000000000000000e+02 1.060000000000000000e+04 2.900000000000000000e+03 2.900000000000000000e+03 2.900000000000000000e+03 2.900000000000000000e+03 2.900000000000000000e+03 2.900000000000000000e+03 2.900000000000000000e+03 2.900000000000000000e+03 5.700000000000000000e+03 1.000000000000000000e+02 2.900000000000000000e+03 2.900000000000000000e+03 8.400000000000000000e+03 2.000000000000000000e+02 1.000000000000000000e+02 2.900000000000000000e+03 2.900000000000000000e+03 2.900000000000000000e+03 2.900000000000000000e+03 5.650000000000000000e+04 1.700000000000000000e+03 1.600000000000000000e+03 1.500000000000000000e+03 1.400000000000000000e+03 1.300000000000000000e+03 1.200000000000000000e+03 1.100000000000000000e+03 1.000000000000000000e+03 9.000000000000000000e+02 8.000000000000000000e+02 7.000000000000000000e+02 6.000000000000000000e+02 5.000000000000000000e+02 4.000000000000000000e+02 3.000000000000000000e+02 2.000000000000000000e+02 1.000000000000000000e+02 1.000000000000000000e+02 2.000000000000000000e+02 3.000000000000000000e+02 3.000000000000000000e+02 4.000000000000000000e+02 5.000000000000000000e+02 6.000000000000000000e+02 7.000000000000000000e+02 7.000000000000000000e+02 8.000000000000000000e+02 9.000000000000000000e+02 1.000000000000000000e+03 1.100000000000000000e+03 1.600000000000000000e+03 1.200000000000000000e+03 1.300000000000000000e+03 1.400000000000000000e+03 1.500000000000000000e+03 1.600000000000000000e+03 1.700000000000000000e+03 1.800000000000000000e+03 1.900000000000000000e+03 7.510000000000000000e+04 1.700000000000000000e+03 1.600000000000000000e+03 1.500000000000000000e+03 1.400000000000000000e+03 1.300000000000000000e+03 1.200000000000000000e+03 1.100000000000000000e+03 1.000000000000000000e+03 8.000000000000000000e+02 7.000000000000000000e+02 6.000000000000000000e+02 5.000000000000000000e+02 4.000000000000000000e+02 3.000000000000000000e+02 2.000000000000000000e+02 1.000000000000000000e+02 1.000000000000000000e+02 2.000000000000000000e+02 3.000000000000000000e+02 5.000000000000000000e+02 9.400000000000000000e+03 2.900000000000000000e+03 2.900000000000000000e+03 2.900000000000000000e+03 2.900000000000000000e+03 2.900000000000000000e+03 2.900000000000000000e+03 2.900000000000000000e+03 1.000000000000000000e+02 2.000000000000000000e+02 8.400000000000000000e+03 1.000000000000000000e+02 2.000000000000000000e+02 3.000000000000000000e+02 1.100000000000000000e+04 2.070000000000000000e+04 7.000000000000000000e+02 6.000000000000000000e+02 5.000000000000000000e+02 4.000000000000000000e+02 3.000000000000000000e+02 2.000000000000000000e+02 1.000000000000000000e+02 1.000000000000000000e+02 2.000000000000000000e+02 3.000000000000000000e+02 4.000000000000000000e+02 5.000000000000000000e+02 2.300000000000000000e+03 6.000000000000000000e+02 7.000000000000000000e+02 8.000000000000000000e+02
1.300000000000000000e+03 1.900000000000000000e+03 2.500000000000000000e+03 4.000000000000000000e+02 1.000000000000000000e+02 2.000000000000000000e+02 1.090000000000000000e+04 3.000000000000000000e+03 3.000000000000000000e+03 3.000000000000000000e+03 3.000000000000000000e+03 3.000000000000000000e+03 3.000000000000000000e+03 3.000000000000000000e+03 3.000000000000000000e+03 5.900000000000000000e+03 1.000000000000000000e+02 3.000000000000000000e+03 3.000000000000000000e+03 8.700000000000000000e+03 1.000000000000000000e+02 3.100000000000000000e+03 1.000000000000000000e+02 3.000000000000000000e+03 3.000000000000000000e+03 3.000000000000000000e+03 5.990000000000000000e+04 1.600000000000000000e+03 1.500000000000000000e+03 1.400000000000000000e+03 1.300000000000000000e+03 1.200000000000000000e+03 1.100000000000000000e+03 1.000000000000000000e+03 9.000000000000000000e+02 8.000000000000000000e+02 7.000000000000000000e+02 6.000000000000000000e+02 5.000000000000000000e+02 4.000000000000000000e+02 3.000000000000000000e+02 2.000000000000000000e+02 1.000000000000000000e+02 1.000000000000000000e+02 1.000000000000000000e+02 2.000000000000000000e+02 3.000000000000000000e+02 4.000000000000000000e+02 4.000000000000000000e+02 5.000000000000000000e+02 6.000000000000000000e+02 7.000000000000000000e+02 8.000000000000000000e+02 8.000000000000000000e+02 9.000000000000000000e+02 1.000000000000000000e+03 1.100000000000000000e+03 1.200000000000000000e+03 1.700000000000000000e+03 1.300000000000000000e+03 1.400000000000000000e+03 1.500000000000000000e+03 1.600000000000000000e+03 1.700000000000000000e+03 1.800000000000000000e+03 1.900000000000000000e+03 7.880000000000000000e+04 1.700000000000000000e+03 1.600000000000000000e+03 1.500000000000000000e+03 1.400000000000000000e+03 1.300000000000000000e+03 1.200000000000000000e+03 1.100000000000000000e+03 9.000000000000000000e+02 8.000000000000000000e+02 7.000000000000000000e+02 6.000000000000000000e+02 5.000000000000000000e+02 4.000000000000000000e+02 3.000000000000000000e+02 2.000000000000000000e+02 1.000000000000000000e+02 1.000000000000000000e+02 2.000000000000000000e+02 3.000000000000000000e+02 4.000000000000000000e+02 1.000000000000000000e+04 3.000000000000000000e+03 3.000000000000000000e+03 3.000000000000000000e+03 3.000000000000000000e+03 3.000000000000000000e+03 3.000000000000000000e+03 3.000000000000000000e+03 1.000000000000000000e+02 2.000000000000000000e+02 3.000000000000000000e+02 8.900000000000000000e+03 1.000000000000000000e+02 3.000000000000000000e+02 3.210000000000000000e+04 1.000000000000000000e+02 7.000000000000000000e+02 6.000000000000000000e+02 5.000000000000000000e+02 4.000000000000000000e+02 3.000000000000000000e+02 2.000000000000000000e+02 1.000000000000000000e+02 1.000000000000000000e+02 2.000000000000000000e+02 3.000000000000000000e+02 7.000000000000000000e+02 1.200000000000000000e+03 1.800000000000000000e+03 4.200000000000000000e+03 4.900000000000000000e+03 5.700000000000000000e+03
1.400000000000000000e+03 2.000000000000000000e+03 2.600000000000000000e+03 5.000000000000000000e+02 1.000000000000000000e+02 2.000000000000000000e+02 1.120000000000000000e+04 3.100000000000000000e+03 3.100000000000000000e+03 3.100000000000000000e+03 3.100000000000000000e+03 3.100000000000000000e+03 3.100000000000000000e+03 3.100000000000000000e+03 3.100000000000000000e+03 6.100000000000000000e+03 1.000000000000000000e+02 3.100000000000000000e+03 3.100000000000000000e+03 8.900000000000000000e+03 3.200000000000000000e+03 2.000000000000000000e+02 1.000000000000000000e+02 3.100000000000000000e+03 3.100000000000000000e+03 6.470000000000000000e+04 1.700000000000000000e+03 1.600000000000000000e+03 1.500000000000000000e+03 1.400000000000000000e+03 1.300000000000000000e+03 1.200000000000000000e+03 1.100000000000000000e+03 1.000000000000000000e+03 9.000000000000000000e+02 8.000000000000000000e+02 7.000000000000000000e+02 6.000000000000000000e+02 5.000000000000000000e+02 4.000000000000000000e+02 3.000000000000000000e+02 2.000000000000000000e+02 1.000000000000000000e+02 1.000000000000000000e+02 2.000000000000000000e+02 2.000000000000000000e+02 3.000000000000000000e+02 4.000000000000000000e+02 5.000000000000000000e+02 5.000000000000000000e+02 6.000000000000000000e+02 7.000000000000000000e+02 8.000000000000000000e+02 9.000000000000000000e+02 9.000000000000000000e+02 1.000000000000000000e+03 1.100000000000000000e+03 1.200000000000000000e+03 1.300000000000000000e+03 1.800000000000000000e+03 1.400000000000000000e+03 1.500000000000000000e+03 1.600000000000000000e+03 1.700000000000000000e+03 1.800000000000000000e+03 1.900000000000000000e+03 8.250000000000000000e+04 1.700000000000000000e+03 1.600000000000000000e+03 1.500000000000000000e+03 1.400000000000000000e+03 1.300000000000000000e+03 1.200000000000000000e+03 1.000000000000000000e+03 9.000000000000000000e+02 8.000000000000000000e+02 7.000000000000000000e+02 6.000000000000000000e+02 5.000000000000000000e+02 4.000000000000000000e+02 3.000000000000000000e+02 2.000000000000000000e+02 1.000000000000000000e+02 1.000000000000000000e+02 2.000000000000000000e+02 3.000000000000000000e+02 4.000000000000000000e+02 1.050000000000000000e+04 3.100000000000000000e+03 3.100000000000000000e+03 3.100000000000000000e+03 3.100000000000000000e+03 3.100000000000000000e+03 3.100000000000000000e+03 3.100000000000000000e+03 1.000000000000000000e+02 2.000000000000000000e+02 3.000000000000000000e+02 1.000000000000000000e+02 9.200000000000000000e+03 1.000000000000000000e+02 3.260000000000000000e+04 8.000000000000000000e+02 7.000000000000000000e+02 6.000000000000000000e+02 5.000000000000000000e+02 4.000000000000000000e+02 3.000000000000000000e+02 2.000000000000000000e+02 1.000000000000000000e+02 1.000000000000000000e+02 2.000000000000000000e+02 3.000000000000000000e+02 1.000000000000000000e+02 2.000000000000000000e+02 3.000000000000000000e+02 4.000000000000000000e+02 5.000000000000000000e+02 6.000000000000000000e+02
1.500000000000000000e+03 2.100000000000000000e+03 2.700000000000000000e+03 6.000000000000000000e+02 1.000000000000000000e+02 2.000000000000000000e+02 1.150000000000000000e+04 3.200000000000000000e+03 3.200000000000000000e+03 3.200000000000000000e+03 3.200000000000000000e+03 3.200000000000000000e+03 3.200000000000000000e+03 3.200000000000000000e+03 3.200000000000000000e+03 6.300000000000000000e+03 1.000000000000000000e+02 3.200000000000000000e+03 3.200000000000000000e+03 1.220000000000000000e+04 3.000000000000000000e+02 1.000000000000000000e+02 3.300000000000000000e+03 1.000000000000000000e+02 7.910000000000000000e+04 1.120000000000000000e+04 1.010000000000000000e+04 9.000000000000000000e+03 8.000000000000000000e+03 7.000000000000000000e+03 6.100000000000000000e+03 5.300000000000000000e+03 4.500000000000000000e+03 3.800000000000000000e+03 9.000000000000000000e+02 8.000000000000000000e+02 7.000000000000000000e+02 6.000000000000000000e+02 5.000000000000000000e+02 4.000000000000000000e+02 3.000000000000000000e+02 2.000000000000000000e+02 1.000000000000000000e+02 1.000000000000000000e+02 2.000000000000000000e+02 3.000000000000000000e+02 3.000000000000000000e+02 4.000000000000000000e+02 5.000000000000000000e+02 6.000000000000000000e+02 6.000000000000000000e+02 7.000000000000000000e+02 8.000000000000000000e+02 9.000000000000000000e+02 1.000000000000000000e+03 1.000000000000000000e+03 1.100000000000000000e+03 1.200000000000000000e+03 1.300000000000000000e+03 1.400000000000000000e+03 1.900000000000000000e+03 1.500000000000000000e+03 1.600000000000000000e+03 1.700000000000000000e+03 1.800000000000000000e+03 1.900000000000000000e+03 8.620000000000000000e+04 1.700000000000000000e+03 1.600000000000000000e+03 1.500000000000000000e+03 1.400000000000000000e+03 1.300000000000000000e+03 1.100000000000000000e+03 1.000000000000000000e+03 9.000000000000000000e+02 8.000000000000000000e+02 7.000000000000000000e+02 6.000000000000000000e+02 5.000000000000000000e+02 4.000000000000000000e+02 3.000000000000000000e+02 2.000000000000000000e+02 1.000000000000000000e+02 1.000000000000000000e+02 2.000000000000000000e+02 3.000000000000000000e+02 4.000000000000000000e+02 1.100000000000000000e+04 3.200000000000000000e+03 3.200000000000000000e+03 3.200000000000000000e+03 3.200000000000000000e+03 3.200000000000000000e+03 3.200000000000000000e+03 3.200000000000000000e+03 1.000000000000000000e+02 2.000000000000000000e+02 3.000000000000000000e+02 4.000000000000000000e+02 1.000000000000000000e+02 9.400000000000000000e+03 3.360000000000000000e+04 8.000000000000000000e+02 7.000000000000000000e+02 6.000000000000000000e+02 5.000000000000000000e+02 4.000000000000000000e+02 3.000000000000000000e+02 2.000000000000000000e+02 1.000000000000000000e+02 1.000000000000000000e+02 2.000000000000000000e+02 3.000000000000000000e+02 4.000000000000000000e+02 1.000000000000000000e+02 1.000000000000000000e+02 1.000000000000000000e+02 2.000000000000000000e+02 3.000000000000000000e+02
1.600000000000000000e+03 2.200000000000000000e+03 2.800000000000000000e+03 7.000000000000000000e+02 1.000000000000000000e+02 2.000000000000000000e+02 1.180000000000000000e+04 3.300000000000000000e+03 3.300000000000000000e+03 3.300000000000000000e+03 3.300000000000000000e+03 3.300000000000000000e+03 3.300000000000000000e+03 3.300000000000000000e+03 3.300000000000000000e+03 6.500000000000000000e+03 1.000000000000000000e+02 3.300000000000000000e+03 3.300000000000000000e+03 1.260000000000000000e+04 1.000000000000000000e+02 3.500000000000000000e+03 1.000000000000000000e+02 8.160000000000000000e+04 2.300000000000000000e+03 1.100000000000000000e+03 1.000000000000000000e+03 1.000000000000000000e+03 9.000000000000000000e+02 9.000000000000000000e+02 8.000000000000000000e+02 7.000000000000000000e+02 7.000000000000000000e+02 6.000000000000000000e+02 2.800000000000000000e+03 2.200000000000000000e+03 1.700000000000000000e+03 5.000000000000000000e+02 4.000000000000000000e+02 3.000000000000000000e+02 2.000000000000000000e+02 1.000000000000000000e+02 1.000000000000000000e+02 1.000000000000000000e+02 2.000000000000000000e+02 3.000000000000000000e+02 4.000000000000000000e+02 4.000000000000000000e+02 5.000000000000000000e+02 6.000000000000000000e+02 7.000000000000000000e+02 7.000000000000000000e+02 8.000000000000000000e+02 9.000000000000000000e+02 1.000000000000000000e+03 1.100000000000000000e+03 1.100000000000000000e+03 1.200000000000000000e+03 1.300000000000000000e+03 1.400000000000000000e+03 1.500000000000000000e+03 2.000000000000000000e+03 1.600000000000000000e+03 1.700000000000000000e+03 1.800000000000000000e+03 1.900000000000000000e+03 8.990000000000000000e+04 1.700000000000000000e+03 1.600000000000000000e+03 1.500000000000000000e+03 1.400000000000000000e+03 1.200000000000000000e+03 1.100000000000000000e+03 1.000000000000000000e+03 9.000000000000000000e+02 8.000000000000000000e+02 7.000000000000000000e+02 6.000000000000000000e+02 5.000000000000000000e+02 4.000000000000000000e+02 3.000000000000000000e+02 2.000000000000000000e+02 1.000000000000000000e+02 1.000000000000000000e+02 2.000000000000000000e+02 3.000000000000000000e+02 4.000000000000000000e+02 1.150000000000000000e+04 3.300000000000000000e+03 3.300000000000000000e+03 3.300000000000000000e+03 3.300000000000000000e+03 3.300000000000000000e+03 3.300000000000000000e+03 3.300000000000000000e+03 1.000000000000000000e+02 2.000000000000000000e+02 3.000000000000000000e+02 4.000000000000000000e+02 5.000000000000000000e+02 1.000000000000000000e+02 4.390000000000000000e+04 8.000000000000000000e+02 7.000000000000000000e+02 6.000000000000000000e+02 5.000000000000000000e+02 4.000000000000000000e+02 3.000000000000000000e+02 2.000000000000000000e+02 1.000000000000000000e+02 1.000000000000000000e+02 2.000000000000000000e+02 3.000000000000000000e+02 4.000000000000000000e+02 5.000000000000000000e+02 2.000000000000000000e+02 2.000000000000000000e+02 1.000000000000000000e+02 1.000000000000000000e+02
1.700000000000000000e+03 2.300000000000000000e+03 2.900000000000000000e+03 8.000000000000000000e+02 1.000000000000000000e+02 2.000000000000000000e+02 1.210000000000000000e+04 3.400000000000000000e+03 3.400000000000000000e+03 3.400000000000000000e+03 3.400000000000000000e+03 3.400000000000000000e+03 3.400000000000000000e+03 3.400000000000000000e+03 3.400000000000000000e+03 6.600000000000000000e+03 2.000000000000000000e+02 6.700000000000000000e+03 1.000000000000000000e+02 1.048000000000000000e+05 9.090000000000000000e+04 8.610000000000000000e+04 8.490000000000000000e+04 2.200000000000000000e+03 1.100000000000000000e+03 1.100000000000000000e+03 1.000000000000000000e+03 9.000000000000000000e+02 9.000000000000000000e+02 8.000000000000000000e+02 8.000000000000000000e+02 7.000000000000000000e+02 6.000000000000000000e+02 6.000000000000000000e+02 5.000000000000000000e+02 5.000000000000000000e+02 4.000000000000000000e+02 1.100000000000000000e+03 8.000000000000000000e+02 5.000000000000000000e+02 3.000000000000000000e+02 1.000000000000000000e+02 1.000000000000000000e+02 2.000000000000000000e+02 2.000000000000000000e+02 3.000000000000000000e+02 4.000000000000000000e+02 5.000000000000000000e+02 5.000000000000000000e+02 6.000000000000000000e+02 7.000000000000000000e+02 8.000000000000000000e+02 8.000000000000000000e+02 9.000000000000000000e+02 1.000000000000000000e+03 1.100000000000000000e+03 1.200000000000000000e+03 1.200000000000000000e+03 1.300000000000000000e+03 1.400000000000000000e+03 1.500000000000000000e+03 1.600000000000000000e+03 2.100000000000000000e+03 1.700000000000000000e+03 1.800000000000000000e+03 1.900000000000000000e+03 9.360000000000000000e+04 1.700000000000000000e+03 1.600000000000000000e+03 1.500000000000000000e+03 1.300000000000000000e+03 1.200000000000000000e+03 1.100000000000000000e+03 1.000000000000000000e+03 9.000000000000000000e+02 8.000000000000000000e+02 7.000000000000000000e+02 6.000000000000000000e+02 5.000000000000000000e+02 4.000000000000000000e+02 3.000000000000000000e+02 2.000000000000000000e+02 1.000000000000000000e+02 1.000000000000000000e+02 2.000000000000000000e+02 3.000000000000000000e+02 4.000000000000000000e+02 1.200000000000000000e+04 3.400000000000000000e+03 3.400000000000000000e+03 3.400000000000000000e+03 3.400000000000000000e+03 3.400000000000000000e+03 3.400000000000000000e+03 3.400000000000000000e+03 1.000000000000000000e+02 2.000000000000000000e+02 3.000000000000000000e+02 4.000000000000000000e+02 5.000000000000000000e+02 6.000000000000000000e+02 4.490000000000000000e+04 8.000000000000000000e+02 7.000000000000000000e+02 6.000000000000000000e+02 5.000000000000000000e+02 4.000000000000000000e+02 3.000000000000000000e+02 2.000000000000000000e+02 1.000000000000000000e+02 1.000000000000000000e+02 2.000000000000000000e+02 3.000000000000000000e+02 4.000000000000000000e+02 5.000000000000000000e+02 6.000000000000000000e+02 3.000000000000000000e+02 3.000000000000000000e+02 2.000000000000000000e+02
1.800000000000000000e+03 2.400000000000000000e+03 3.000000000000000000e+03 9.000000000000000000e+02 1.000000000000000000e+02 2.000000000000000000e+02 1.240000000000000000e+04 3.500000000000000000e+03 3.500000000000000000e+03 3.500000000000000000e+03 3.500000000000000000e+03 3.500000000000000000e+03 3.500000000000000000e+03 3.500000000000000000e+03 3.500000000000000000e+03 6.700000000000000000e+03 1.166000000000000000e+05 1.085000000000000000e+05 1.070000000000000000e+05 1.100000000000000000e+03 1.100000000000000000e+03 1.200000000000000000e+03 1.000000000000000000e+03 1.000000000000000000e+03 1.000000000000000000e+03 1.000000000000000000e+03 1.000000000000000000e+03 9.000000000000000000e+02 8.000000000000000000e+02 8.000000000000000000e+02 7.000000000000000000e+02 7.000000000000000000e+02 6.000000000000000000e+02 5.000000000000000000e+02 5.000000000000000000e+02 4.000000000000000000e+02 4.000000000000000000e+02 3.000000000000000000e+02 2.000000000000000000e+02 2.000000000000000000e+02 1.000000000000000000e+02 1.000000000000000000e+02 1.000000000000000000e+02 2.000000000000000000e+02 3.000000000000000000e+02 3.000000000000000000e+02 4.000000000000000000e+02 5.000000000000000000e+02 6.000000000000000000e+02 6.000000000000000000e+02 7.000000000000000000e+02 8.000000000000000000e+02 9.000000000000000000e+02 9.000000000000000000e+02 1.000000000000000000e+03 1.100000000000000000e+03 1.200000000000000000e+03 1.300000000000000000e+03 1.300000000000000000e+03 1.400000000000000000e+03 1.500000000000000000e+03 1.600000000000000000e+03 1.700000000000000000e+03 2.200000000000000000e+03 1.800000000000000000e+03 1.900000000000000000e+03 9.730000000000000000e+04 1.700000000000000000e+03 1.600000000000000000e+03 1.400000000000000000e+03 1.300000000000000000e+03 1.200000000000000000e+03 1.100000000000000000e+03 1.000000000000000000e+03 9.000000000000000000e+02 8.000000000000000000e+02 7.000000000000000000e+02 6.000000000000000000e+02 5.000000000000000000e+02 4.000000000000000000e+02 3.000000000000000000e+02 2.000000000000000000e+02 1.000000000000000000e+02 1.000000000000000000e+02 2.000000000000000000e+02 3.000000000000000000e+02 4.000000000000000000e+02 1.250000000000000000e+04 3.500000000000000000e+03 6.900000000000000000e+03 1.000000000000000000e+02 3.500000000000000000e+03 3.500000000000000000e+03 3.500000000000000000e+03 3.500000000000000000e+03 1.000000000000000000e+02 2.000000000000000000e+02 3.000000000000000000e+02 4.000000000000000000e+02 5.000000000000000000e+02 6.000000000000000000e+02 4.640000000000000000e+04 8.000000000000000000e+02 7.000000000000000000e+02 6.000000000000000000e+02 5.000000000000000000e+02 4.000000000000000000e+02 3.000000000000000000e+02 2.000000000000000000e+02 1.000000000000000000e+02 1.000000000000000000e+02 2.000000000000000000e+02 3.000000000000000000e+02 4.000000000000000000e+02 5.000000000000000000e+02 6.000000000000000000e+02 7.000000000000000000e+02 4.000000000000000000e+02 4.000000000000000000e+02
1.900000000000000000e+03 2.500000000000000000e+03 3.100000000000000000e+03 1.000000000000000000e+03 2.000000000000000000e+02 1.000000000000000000e+02 1.270000000000000000e+04 3.600000000000000000e+03 3.600000000000000000e+03 3.600000000000000000e+03 3.600000000000000000e+03 3.600000000000000000e+03 3.600000000000000000e+03 3.600000000000000000e+03 1.304000000000000000e+05 1.190000000000000000e+05 1.100000000000000000e+03 1.100000000000000000e+03 1.300000000000000000e+03 1.000000000000000000e+03 1.000000000000000000e+03 1.000000000000000000e+03 1.100000000000000000e+03 9.000000000000000000e+02 9.000000000000000000e+02 9.000000000000000000e+02 9.000000000000000000e+02 9.000000000000000000e+02 8.000000000000000000e+02 7.000000000000000000e+02 7.000000000000000000e+02 6.000000000000000000e+02 6.000000000000000000e+02 5.000000000000000000e+02 4.000000000000000000e+02 4.000000000000000000e+02 3.000000000000000000e+02 3.000000000000000000e+02 2.000000000000000000e+02 1.000000000000000000e+02 1.000000000000000000e+02 1.000000000000000000e+02 1.000000000000000000e+02 2.000000000000000000e+02 3.000000000000000000e+02 4.000000000000000000e+02 4.000000000000000000e+02 5.000000000000000000e+02 6.000000000000000000e+02 7.000000000000000000e+02 7.000000000000000000e+02 8.000000000000000000e+02 9.000000000000000000e+02 1.000000000000000000e+03 1.000000000000000000e+03 1.100000000000000000e+03 1.200000000000000000e+03 1.300000000000000000e+03 1.400000000000000000e+03 1.400000000000000000e+03 1.500000000000000000e+03 1.600000000000000000e+03 1.700000000000000000e+03 1.800000000000000000e+03 2.300000000000000000e+03 1.900000000000000000e+03 1.010000000000000000e+05 1.700000000000000000e+03 1.500000000000000000e+03 1.400000000000000000e+03 1.300000000000000000e+03 1.200000000000000000e+03 1.100000000000000000e+03 1.000000000000000000e+03 9.000000000000000000e+02 8.000000000000000000e+02 7.000000000000000000e+02 6.000000000000000000e+02 5.000000000000000000e+02 4.000000000000000000e+02 3.000000000000000000e+02 2.000000000000000000e+02 1.000000000000000000e+02 1.000000000000000000e+02 2.000000000000000000e+02 3.000000000000000000e+02 4.000000000000000000e+02 5.000000000000000000e+02 2.300000000000000000e+04 2.000000000000000000e+02 1.000000000000000000e+02 3.600000000000000000e+03 3.600000000000000000e+03 3.600000000000000000e+03 3.600000000000000000e+03 1.000000000000000000e+02 2.000000000000000000e+02 3.000000000000000000e+02 4.000000000000000000e+02 5.000000000000000000e+02 6.000000000000000000e+02 4.790000000000000000e+04 8.000000000000000000e+02 7.000000000000000000e+02 6.000000000000000000e+02 5.000000000000000000e+02 4.000000000000000000e+02 3.000000000000000000e+02 2.000000000000000000e+02 1.000000000000000000e+02 1.000000000000000000e+02 2.000000000000000000e+02 5.000000000000000000e+02 9.000000000000000000e+02 1.400000000000000000e+03 2.000000000000000000e+03 2.700000000000000000e+03 3.500000000000000000e+03 4.000000000000000000e+03
2.000000000000000000e+03 2.600000000000000000e+03 3.200000000000000000e+03 1.100000000000000000e+03 3.000000000000000000e+02 1.000000000000000000e+02 1.290000000000000000e+04 3.700000000000000000e+03 3.700000000000000000e+03 3.700000000000000000e+03 3.700000000000000000e+03 3.700000000000000000e+03 1.409000000000000000e+05 1.326000000000000000e+05 1.100000000000000000e+03 1.100000000000000000e+03 1.200000000000000000e+03 1.000000000000000000e+03 1.000000000000000000e+03 1.200000000000000000e+03 9.000000000000000000e+02 9.000000000000000000e+02 9.000000000000000000e+02 1.000000000000000000e+03 8.000000000000000000e+02 8.000000000000000000e+02 8.000000000000000000e+02 8.000000000000000000e+02 8.000000000000000000e+02 7.000000000000000000e+02 6.000000000000000000e+02 6.000000000000000000e+02 5.000000000000000000e+02 5.000000000000000000e+02 4.000000000000000000e+02 3.000000000000000000e+02 3.000000000000000000e+02 2.000000000000000000e+02 2.000000000000000000e+02 1.000000000000000000e+02 1.000000000000000000e+02 1.000000000000000000e+02 2.000000000000000000e+02 2.000000000000000000e+02 3.000000000000000000e+02 4.000000000000000000e+02 5.000000000000000000e+02 5.000000000000000000e+02 6.000000000000000000e+02 7.000000000000000000e+02 8.000000000000000000e+02 8.000000000000000000e+02 9.000000000000000000e+02 1.000000000000000000e+03 1.100000000000000000e+03 1.100000000000000000e+03 1.200000000000000000e+03 1.300000000000000000e+03 1.400000000000000000e+03 1.500000000000000000e+03 1.500000000000000000e+03 1.600000000000000000e+03 1.700000000000000000e+03 1.800000000000000000e+03 1.900000000000000000e+03 2.400000000000000000e+03 1.047000000000000000e+05 1.600000000000000000e+03 1.500000000000000000e+03 1.400000000000000000e+03 1.300000000000000000e+03 1.200000000000000000e+03 1.100000000000000000e+03 1.000000000000000000e+03 9.000000000000000000e+02 8.000000000000000000e+02 7.000000000000000000e+02 6.000000000000000000e+02 5.000000000000000000e+02 4.000000000000000000e+02 3.000000000000000000e+02 1.000000000000000000e+02 1.000000000000000000e+02 2.000000000000000000e+02 2.000000000000000000e+02 3.000000000000000000e+02 4.000000000000000000e+02 5.000000000000000000e+02 2.380000000000000000e+04 2.000000000000000000e+02 1.000000000000000000e+02 3.700000000000000000e+03 3.700000000000000000e+03 3.700000000000000000e+03 3.700000000000000000e+03 1.000000000000000000e+02 2.000000000000000000e+02 3.000000000000000000e+02 4.000000000000000000e+02 5.000000000000000000e+02 6.000000000000000000e+02 4.940000000000000000e+04 8.000000000000000000e+02 7.000000000000000000e+02 6.000000000000000000e+02 5.000000000000000000e+02 4.000000000000000000e+02 3.000000000000000000e+02 2.000000000000000000e+02 1.000000000000000000e+02 1.000000000000000000e+02 2.000000000000000000e+02 1.000000000000000000e+02 1.000000000000000000e+02 2.000000000000000000e+02 3.000000000000000000e+02 4.000000000000000000e+02 5.000000000000000000e+02 6.000000000000000000e+02
2.100000000000000000e+03 2.700000000000000000e+03 3.300000000000000000e+03 1.200000000000000000e+03 4.000000000000000000e+02 1.000000000000000000e+02 1.310000000000000000e+04 3.800000000000000000e+03 3.800000000000000000e+03 3.800000000000000000e+03 1.513000000000000000e+05 1.429000000000000000e+05 1.000000000000000000e+03 1.000000000000000000e+03 1.000000000000000000e+03 1.000000000000000000e+03 1.000000000000000000e+03 1.100000000000000000e+03 9.000000000000000000e+02 9.000000000000000000e+02 1.100000000000000000e+03 8.000000000000000000e+02 8.000000000000000000e+02 8.000000000000000000e+02 9.000000000000000000e+02 7.000000000000000000e+02 7.000000000000000000e+02 7.000000000000000000e+02 7.000000000000000000e+02 7.000000000000000000e+02 6.000000000000000000e+02 5.000000000000000000e+02 5.000000000000000000e+02 4.000000000000000000e+02 4.000000000000000000e+02 3.000000000000000000e+02 2.000000000000000000e+02 2.000000000000000000e+02 1.000000000000000000e+02 1.000000000000000000e+02 1.000000000000000000e+02 2.000000000000000000e+02 2.000000000000000000e+02 3.000000000000000000e+02 3.000000000000000000e+02 4.000000000000000000e+02 5.000000000000000000e+02 6.000000000000000000e+02 6.000000000000000000e+02 7.000000000000000000e+02 8.000000000000000000e+02 9.000000000000000000e+02 9.000000000000000000e+02 1.000000000000000000e+03 1.100000000000000000e+03 1.200000000000000000e+03 1.200000000000000000e+03 1.300000000000000000e+03 1.400000000000000000e+03 1.500000000000000000e+03 1.600000000000000000e+03 1.600000000000000000e+03 1.700000000000000000e+03 1.800000000000000000e+03 1.900000000000000000e+03 2.000000000000000000e+03 1.088000000000000000e+05 1.320000000000000000e+04 1.160000000000000000e+04 1.010000000000000000e+04 8.700000000000000000e+03 7.400000000000000000e+03 6.200000000000000000e+03 5.100000000000000000e+03 4.100000000000000000e+03 3.200000000000000000e+03 2.400000000000000000e+03 1.700000000000000000e+03 1.100000000000000000e+03 6.000000000000000000e+02 2.000000000000000000e+02 1.000000000000000000e+02 1.000000000000000000e+02 2.000000000000000000e+02 3.000000000000000000e+02 3.000000000000000000e+02 4.000000000000000000e+02 5.000000000000000000e+02 2.460000000000000000e+04 2.000000000000000000e+02 1.000000000000000000e+02 3.800000000000000000e+03 3.800000000000000000e+03 3.800000000000000000e+03 3.800000000000000000e+03 1.000000000000000000e+02 2.000000000000000000e+02 3.000000000000000000e+02 4.000000000000000000e+02 5.000000000000000000e+02 6.000000000000000000e+02 5.090000000000000000e+04 8.000000000000000000e+02 7.000000000000000000e+02 6.000000000000000000e+02 5.000000000000000000e+02 4.000000000000000000e+02 3.000000000000000000e+02 2.000000000000000000e+02 1.000000000000000000e+02 1.000000000000000000e+02 2.000000000000000000e+02 3.000000000000000000e+02 2.000000000000000000e+02 1.000000000000000000e+02 2.000000000000000000e+02 3.000000000000000000e+02 4.000000000000000000e+02 5.000000000000000000e+02
2.200000000000000000e+03 2.800000000000000000e+03 3.400000000000000000e+03 1.300000000000000000e+03 5.000000000000000000e+02 1.000000000000000000e+02 1.330000000000000000e+04 7.700000000000000000e+03 1.000000000000000000e+02 1.569000000000000000e+05 9.000000000000000000e+02 9.000000000000000000e+02 9.000000000000000000e+02 9.000000000000000000e+02 9.000000000000000000e+02 9.000000000000000000e+02 9.000000000000000000e+02 9.000000000000000000e+02 1.000000000000000000e+03 8.000000000000000000e+02 8.000000000000000000e+02 1.000000000000000000e+03 7.000000000000000000e+02 7.000000000000000000e+02 7.000000000000000000e+02 8.000000000000000000e+02 6.000000000000000000e+02 6.000000000000000000e+02 6.000000000000000000e+02 6.000000000000000000e+02 6.000000000000000000e+02 5.000000000000000000e+02 4.000000000000000000e+02 4.000000000000000000e+02 3.000000000000000000e+02 3.000000000000000000e+02 2.000000000000000000e+02 1.000000000000000000e+02 1.000000000000000000e+02 1.000000000000000000e+02 1.000000000000000000e+02 2.000000000000000000e+02 3.000000000000000000e+02 3.000000000000000000e+02 4.000000000000000000e+02 4.000000000000000000e+02 5.000000000000000000e+02 6.000000000000000000e+02 7.000000000000000000e+02 7.000000000000000000e+02 8.000000000000000000e+02 9.000000000000000000e+02 1.000000000000000000e+03 1.000000000000000000e+03 1.100000000000000000e+03 1.200000000000000000e+03 1.300000000000000000e+03 1.300000000000000000e+03 1.400000000000000000e+03 1.500000000000000000e+03 1.600000000000000000e+03 1.700000000000000000e+03 1.700000000000000000e+03 1.800000000000000000e+03 1.900000000000000000e+03 2.000000000000000000e+03 1.242000000000000000e+05 1.000000000000000000e+02 1.200000000000000000e+03 1.100000000000000000e+03 1.000000000000000000e+03 9.000000000000000000e+02 8.000000000000000000e+02 7.000000000000000000e+02 6.000000000000000000e+02 5.000000000000000000e+02 4.000000000000000000e+02 3.000000000000000000e+02 2.000000000000000000e+02 1.000000000000000000e+02 2.000000000000000000e+02 1.000000000000000000e+02 1.000000000000000000e+02 2.000000000000000000e+02 3.000000000000000000e+02 4.000000000000000000e+02 4.000000000000000000e+02 5.000000000000000000e+02 2.540000000000000000e+04 2.000000000000000000e+02 1.000000000000000000e+02 3.900000000000000000e+03 3.900000000000000000e+03 3.900000000000000000e+03 3.900000000000000000e+03 1.000000000000000000e+02 2.000000000000000000e+02 3.000000000000000000e+02 4.000000000000000000e+02 5.000000000000000000e+02 6.000000000000000000e+02 5.240000000000000000e+04 8.000000000000000000e+02 7.000000000000000000e+02 6.000000000000000000e+02 5.000000000000000000e+02 4.000000000000000000e+02 3.000000000000000000e+02 2.000000000000000000e+02 1.000000000000000000e+02 1.000000000000000000e+02 2.000000000000000000e+02 3.000000000000000000e+02 4.000000000000000000e+02 3.000000000000000000e+02 1.000000000000000000e+02 1.000000000000000000e+02 2.000000000000000000e+02 3.000000000000000000e+02
2.300000000000000000e+03 2.900000000000000000e+03 3.500000000000000000e+03 1.400000000000000000e+03 6.000000000000000000e+02 2.000000000000000000e+02 1.340000000000000000e+04 1.668000000000000000e+05 1.589000000000000000e+05 7.000000000000000000e+02 8.000000000000000000e+02 8.000000000000000000e+02 8.000000000000000000e+02 8.000000000000000000e+02 8.000000000000000000e+02 8.000000000000000000e+02 8.000000000000000000e+02 8.000000000000000000e+02 8.000000000000000000e+02 9.000000000000000000e+02 7.000000000000000000e+02 7.000000000000000000e+02 9.000000000000000000e+02 6.000000000000000000e+02 6.000000000000000000e+02 6.000000000000000000e+02 7.000000000000000000e+02 5.000000000000000000e+02 5.000000000000000000e+02 5.000000000000000000e+02 5.000000000000000000e+02 5.000000000000000000e+02 4.000000000000000000e+02 3.000000000000000000e+02 3.000000000000000000e+02 2.000000000000000000e+02 2.000000000000000000e+02 1.000000000000000000e+02 1.000000000000000000e+02 1.000000000000000000e+02 2.000000000000000000e+02 2.000000000000000000e+02 3.000000000000000000e+02 4.000000000000000000e+02 4.000000000000000000e+02 5.000000000000000000e+02 5.000000000000000000e+02 6.000000000000000000e+02 7.000000000000000000e+02 8.000000000000000000e+02 8.000000000000000000e+02 9.000000000000000000e+02 1.000000000000000000e+03 1.100000000000000000e+03 1.100000000000000000e+03 1.200000000000000000e+03 1.300000000000000000e+03 1.400000000000000000e+03 1.400000000000000000e+03 1.500000000000000000e+03 1.600000000000000000e+03 1.700000000000000000e+03 1.800000000000000000e+03 1.800000000000000000e+03 1.900000000000000000e+03 2.000000000000000000e+03 1.263000000000000000e+05 2.400000000000000000e+03 1.100000000000000000e+03 1.000000000000000000e+03 9.000000000000000000e+02 8.000000000000000000e+02 7.000000000000000000e+02 6.000000000000000000e+02 5.000000000000000000e+02 4.000000000000000000e+02 3.000000000000000000e+02 2.000000000000000000e+02 1.000000000000000000e+02 3.000000000000000000e+02 2.000000000000000000e+02 1.000000000000000000e+02 1.000000000000000000e+02 2.000000000000000000e+02 3.000000000000000000e+02 4.000000000000000000e+02 5.000000000000000000e+02 5.000000000000000000e+02 2.620000000000000000e+04 2.000000000000000000e+02 1.000000000000000000e+02 4.000000000000000000e+03 4.000000000000000000e+03 4.000000000000000000e+03 4.000000000000000000e+03 1.000000000000000000e+02 2.000000000000000000e+02 3.000000000000000000e+02 4.000000000000000000e+02 5.000000000000000000e+02 6.000000000000000000e+02 5.390000000000000000e+04 8.000000000000000000e+02 7.000000000000000000e+02 6.000000000000000000e+02 5.000000000000000000e+02 4.000000000000000000e+02 3.000000000000000000e+02 2.000000000000000000e+02 1.000000000000000000e+02 1.000000000000000000e+02 2.000000000000000000e+02 3.000000000000000000e+02 4.000000000000000000e+02 5.000000000000000000e+02 4.000000000000000000e+02 2.000000000000000000e+02 1.000000000000000000e+02 1.000000000000000000e+02
2.400000000000000000e+03 3.000000000000000000e+03 3.600000000000000000e+03 1.500000000000000000e+03 7.000000000000000000e+02 1.822000000000000000e+05 1.685000000000000000e+05 6.000000000000000000e+02 6.000000000000000000e+02 6.000000000000000000e+02 6.000000000000000000e+02 7.000000000000000000e+02 7.000000000000000000e+02 7.000000000000000000e+02 7.000000000000000000e+02 7.000000000000000000e+02 7.000000000000000000e+02 7.000000000000000000e+02 7.000000000000000000e+02 7.000000000000000000e+02 8.000000000000000000e+02 6.000000000000000000e+02 6.000000000000000000e+02 8.000000000000000000e+02 5.000000000000000000e+02 5.000000000000000000e+02 5.000000000000000000e+02 6.000000000000000000e+02 4.000000000000000000e+02 4.000000000000000000e+02 4.000000000000000000e+02 4.000000000000000000e+02 4.000000000000000000e+02 3.000000000000000000e+02 2.000000000000000000e+02 2.000000000000000000e+02 1.000000000000000000e+02 1.000000000000000000e+02 1.000000000000000000e+02 2.000000000000000000e+02 2.000000000000000000e+02 3.000000000000000000e+02 3.000000000000000000e+02 4.000000000000000000e+02 5.000000000000000000e+02 5.000000000000000000e+02 6.000000000000000000e+02 6.000000000000000000e+02 7.000000000000000000e+02 8.000000000000000000e+02 9.000000000000000000e+02 9.000000000000000000e+02 1.000000000000000000e+03 1.100000000000000000e+03 1.200000000000000000e+03 1.200000000000000000e+03 1.300000000000000000e+03 1.400000000000000000e+03 1.500000000000000000e+03 1.500000000000000000e+03 1.600000000000000000e+03 1.700000000000000000e+03 1.800000000000000000e+03 1.900000000000000000e+03 1.900000000000000000e+03 2.000000000000000000e+03 1.309000000000000000e+05 1.000000000000000000e+02 1.000000000000000000e+02 1.000000000000000000e+02 1.000000000000000000e+02 1.000000000000000000e+02 1.000000000000000000e+02 1.000000000000000000e+02 1.000000000000000000e+02 1.000000000000000000e+02 1.000000000000000000e+02 1.000000000000000000e+02 4.000000000000000000e+02 3.000000000000000000e+02 2.000000000000000000e+02 1.000000000000000000e+02 1.000000000000000000e+02 2.000000000000000000e+02 3.000000000000000000e+02 4.000000000000000000e+02 5.000000000000000000e+02 6.000000000000000000e+02 2.700000000000000000e+04 2.000000000000000000e+02 1.000000000000000000e+02 4.100000000000000000e+03 4.100000000000000000e+03 4.100000000000000000e+03 4.100000000000000000e+03 1.000000000000000000e+02 2.000000000000000000e+02 3.000000000000000000e+02 4.000000000000000000e+02 5.000000000000000000e+02 6.000000000000000000e+02 5.540000000000000000e+04 8.000000000000000000e+02 7.000000000000000000e+02 6.000000000000000000e+02 5.000000000000000000e+02 4.000000000000000000e+02 3.000000000000000000e+02 2.000000000000000000e+02 1.000000000000000000e+02 1.000000000000000000e+02 2.000000000000000000e+02 3.000000000000000000e+02 4.000000000000000000e+02 5.000000000000000000e+02 6.000000000000000000e+02 5.000000000000000000e+02 3.000000000000000000e+02 2.000000000000000000e+02
2.500000000000000000e+03 3.100000000000000000e+03 3.700000000000000000e+03 1.859000000000000000e+05 1.836000000000000000e+05 5.000000000000000000e+02 5.000000000000000000e+02 5.000000000000000000e+02 5.000000000000000000e+02 5.000000000000000000e+02 5.000000000000000000e+02 5.000000000000000000e+02 6.000000000000000000e+02 6.000000000000000000e+02 6.000000000000000000e+02 6.000000000000000000e+02 6.000000000000000000e+02 6.000000000000000000e+02 6.000000000000000000e+02 6.000000000000000000e+02 6.000000000000000000e+02 7.000000000000000000e+02 5.000000000000000000e+02 5.000000000000000000e+02 7.000000000000000000e+02 4.000000000000000000e+02 4.000000000000000000e+02 4.000000000000000000e+02 5.000000000000000000e+02 3.000000000000000000e+02 3.000000000000000000e+02 3.000000000000000000e+02 3.000000000000000000e+02 3.000000000000000000e+02 2.000000000000000000e+02 1.000000000000000000e+02 1.000000000000000000e+02 1.000000000000000000e+02 1.000000000000000000e+02 2.000000000000000000e+02 3.000000000000000000e+02 3.000000000000000000e+02 4.000000000000000000e+02 4.000000000000000000e+02 5.000000000000000000e+02 6.000000000000000000e+02 6.000000000000000000e+02 7.000000000000000000e+02 7.000000000000000000e+02 8.000000000000000000e+02 9.000000000000000000e+02 1.000000000000000000e+03 1.000000000000000000e+03 1.100000000000000000e+03 1.200000000000000000e+03 1.300000000000000000e+03 1.300000000000000000e+03 1.400000000000000000e+03 1.500000000000000000e+03 1.600000000000000000e+03 1.600000000000000000e+03 1.700000000000000000e+03 1.800000000000000000e+03 1.900000000000000000e+03 2.000000000000000000e+03 2.000000000000000000e+03 1.330000000000000000e+05 3.200000000000000000e+03 3.000000000000000000e+03 2.800000000000000000e+03 2.600000000000000000e+03 2.400000000000000000e+03 2.200000000000000000e+03 2.000000000000000000e+03 1.800000000000000000e+03 1.600000000000000000e+03 1.400000000000000000e+03 1.200000000000000000e+03 7.000000000000000000e+02 3.000000000000000000e+02 2.000000000000000000e+02 1.000000000000000000e+02 1.000000000000000000e+02 2.000000000000000000e+02 3.000000000000000000e+02 4.000000000000000000e+02 5.000000000000000000e+02 6.000000000000000000e+02 2.790000000000000000e+04 2.000000000000000000e+02 1.000000000000000000e+02 4.200000000000000000e+03 4.200000000000000000e+03 4.200000000000000000e+03 4.200000000000000000e+03 2.000000000000000000e+02 1.000000000000000000e+02 3.000000000000000000e+02 4.000000000000000000e+02 5.000000000000000000e+02 6.000000000000000000e+02 5.690000000000000000e+04 8.000000000000000000e+02 7.000000000000000000e+02 6.000000000000000000e+02 5.000000000000000000e+02 4.000000000000000000e+02 3.000000000000000000e+02 2.000000000000000000e+02 1.000000000000000000e+02 1.000000000000000000e+02 2.000000000000000000e+02 3.000000000000000000e+02 4.000000000000000000e+02 5.000000000000000000e+02 6.000000000000000000e+02 7.000000000000000000e+02 6.000000000000000000e+02 4.000000000000000000e+02
2.600000000000000000e+03 1.939000000000000000e+05 1.870000000000000000e+05 4.000000000000000000e+02 4.000000000000000000e+02 4.000000000000000000e+02 4.000000000000000000e+02 4.000000000000000000e+02 4.000000000000000000e+02 4.000000000000000000e+02 4.000000000000000000e+02 4.000000000000000000e+02 4.000000000000000000e+02 5.000000000000000000e+02 5.000000000000000000e+02 5.000000000000000000e+02 5.000000000000000000e+02 5.000000000000000000e+02 5.000000000000000000e+02 5.000000000000000000e+02 5.000000000000000000e+02 5.000000000000000000e+02 6.000000000000000000e+02 4.000000000000000000e+02 4.000000000000000000e+02 6.000000000000000000e+02 3.000000000000000000e+02 3.000000000000000000e+02 3.000000000000000000e+02 4.000000000000000000e+02 2.000000000000000000e+02 2.000000000000000000e+02 2.000000000000000000e+02 2.000000000000000000e+02 2.000000000000000000e+02 1.000000000000000000e+02 1.000000000000000000e+02 1.000000000000000000e+02 2.000000000000000000e+02 2.000000000000000000e+02 3.000000000000000000e+02 4.000000000000000000e+02 4.000000000000000000e+02 5.000000000000000000e+02 5.000000000000000000e+02 6.000000000000000000e+02 7.000000000000000000e+02 7.000000000000000000e+02 8.000000000000000000e+02 8.000000000000000000e+02 9.000000000000000000e+02 1.000000000000000000e+03 1.100000000000000000e+03 1.100000000000000000e+03 1.200000000000000000e+03 1.300000000000000000e+03 1.400000000000000000e+03 1.400000000000000000e+03 1.500000000000000000e+03 1.600000000000000000e+03 1.700000000000000000e+03 1.700000000000000000e+03 1.800000000000000000e+03 1.900000000000000000e+03 2.000000000000000000e+03 2.100000000000000000e+03 1.384000000000000000e+05 1.000000000000000000e+02 1.100000000000000000e+03 1.000000000000000000e+03 9.000000000000000000e+02 8.000000000000000000e+02 7.000000000000000000e+02 6.000000000000000000e+02 5.000000000000000000e+02 4.000000000000000000e+02 3.000000000000000000e+02 2.000000000000000000e+02 1.000000000000000000e+02 3.000000000000000000e+02 1.000000000000000000e+02 1.000000000000000000e+02 2.000000000000000000e+02 2.000000000000000000e+02 3.000000000000000000e+02 4.000000000000000000e+02 5.000000000000000000e+02 6.000000000000000000e+02 2.880000000000000000e+04 2.000000000000000000e+02 1.000000000000000000e+02 4.300000000000000000e+03 4.300000000000000000e+03 4.300000000000000000e+03 4.300000000000000000e+03 3.000000000000000000e+02 1.000000000000000000e+02 2.000000000000000000e+02 4.000000000000000000e+02 5.000000000000000000e+02 6.000000000000000000e+02 5.840000000000000000e+04 8.000000000000000000e+02 7.000000000000000000e+02 6.000000000000000000e+02 5.000000000000000000e+02 4.000000000000000000e+02 3.000000000000000000e+02 2.000000000000000000e+02 1.000000000000000000e+02 1.000000000000000000e+02 2.000000000000000000e+02 3.000000000000000000e+02 4.000000000000000000e+02 5.000000000000000000e+02 6.000000000000000000e+02 7.000000000000000000e+02 8.000000000000000000e+02 7.000000000000000000e+02
