ncols 119
nrows 32
xllcorner 960
yllcorner 170
cellsize 10.0
8.789900000000000000e+04 8.790100000000000000e+04 8.790300000000000000e+04 8.790500000000000000e+04 2.855200000000000000e+04 8.790900000000000000e+04 2.855400000000000000e+04 2.855500000000000000e+04 8.791500000000000000e+04 8.791700000000000000e+04 8.791900000000000000e+04 8.792100000000000000e+04 2.886000000000000000e+04 2.856100000000000000e+04 2.886100000000000000e+04 8.792600000000000000e+04 8.792800000000000000e+04 8.793000000000000000e+04 8.793200000000000000e+04 8.793400000000000000e+04 8.793600000000000000e+04 8.793800000000000000e+04 8.794000000000000000e+04 8.794200000000000000e+04 8.794400000000000000e+04 8.794600000000000000e+04 8.794800000000000000e+04 8.795000000000000000e+04 8.795500000000000000e+04 8.795700000000000000e+04 8.795900000000000000e+04 8.796100000000000000e+04 8.796300000000000000e+04 8.796500000000000000e+04 8.796700000000000000e+04 2.858300000000000000e+04 2.858400000000000000e+04 2.858500000000000000e+04 2.858600000000000000e+04 2.858700000000000000e+04 8.797600000000000000e+04 2.858900000000000000e+04 8.798000000000000000e+04 8.798500000000000000e+04 8.798700000000000000e+04 8.798900000000000000e+04 8.799100000000000000e+04 8.799300000000000000e+04 2.859600000000000000e+04 8.799400000000000000e+04 2.889700000000000000e+04 2.889800000000000000e+04 2.889900000000000000e+04 2.890000000000000000e+04 2.890100000000000000e+04 2.890200000000000000e+04 2.890300000000000000e+04 8.801000000000000000e+04 8.801500000000000000e+04 2.890700000000000000e+04 2.890800000000000000e+04 2.890900000000000000e+04 2.891000000000000000e+04 2.891100000000000000e+04 2.891200000000000000e+04 2.891300000000000000e+04 2.891400000000000000e+04 2.891500000000000000e+04 2.891600000000000000e+04 2.891700000000000000e+04 2.891800000000000000e+04 2.861900000000000000e+04 2.891900000000000000e+04 8.804200000000000000e+04 2.892100000000000000e+04 2.892200000000000000e+04 2.892300000000000000e+04 2.892400000000000000e+04 2.892500000000000000e+04 2.892600000000000000e+04 2.892700000000000000e+04 2.892800000000000000e+04 2.892900000000000000e+04 2.893000000000000000e+04 2.893100000000000000e+04 2.893200000000000000e+04 2.893300000000000000e+04 8.807000000000000000e+04 8.807200000000000000e+04 8.807400000000000000e+04 8.807600000000000000e+04 8.807800000000000000e+04 8.808000000000000000e+04 8.808200000000000000e+04 8.808400000000000000e+04 8.808600000000000000e+04 8.808800000000000000e+04 8.809000000000000000e+04 8.809200000000000000e+04 8.809400000000000000e+04 8.809600000000000000e+04 2.864900000000000000e+04 2.895000000000000000e+04 2.895100000000000000e+04 2.895200000000000000e+04 2.895300000000000000e+04 2.895400000000000000e+04 2.895500000000000000e+04 2.895600000000000000e+04 2.895700000000000000e+04 2.895800000000000000e+04 2.895900000000000000e+04 2.896000000000000000e+04 2.896100000000000000e+04 2.896200000000000000e+04 2.896300000000000000e+04 8.813100000000000000e+04 2.866500000000000000e+04 2.866600000000000000e+04
2.824900000000000000e+04 2.825000000000000000e+04 2.825100000000000000e+04 2.825200000000000000e+04 8.730900000000000000e+04 8.731100000000000000e+04 2.795500000000000000e+04 2.795600000000000000e+04 8.731700000000000000e+04 8.731900000000000000e+04 8.732100000000000000e+04 8.732300000000000000e+04 2.826100000000000000e+04 2.796200000000000000e+04 2.826200000000000000e+04 8.732800000000000000e+04 8.733000000000000000e+04 8.733200000000000000e+04 8.733400000000000000e+04 8.733600000000000000e+04 8.733800000000000000e+04 8.734000000000000000e+04 8.734200000000000000e+04 8.734400000000000000e+04 8.734600000000000000e+04 8.734800000000000000e+04 8.735000000000000000e+04 8.735200000000000000e+04 8.735700000000000000e+04 8.735900000000000000e+04 8.736100000000000000e+04 8.736300000000000000e+04 8.736500000000000000e+04 8.736700000000000000e+04 8.736900000000000000e+04 2.798400000000000000e+04 2.798500000000000000e+04 2.798600000000000000e+04 2.798700000000000000e+04 2.798800000000000000e+04 8.737800000000000000e+04 2.799000000000000000e+04 8.738200000000000000e+04 8.738700000000000000e+04 8.738900000000000000e+04 8.739100000000000000e+04 8.739300000000000000e+04 2.799600000000000000e+04 2.799700000000000000e+04 2.829700000000000000e+04 8.739800000000000000e+04 8.740000000000000000e+04 8.740200000000000000e+04 8.740400000000000000e+04 8.740600000000000000e+04 8.740800000000000000e+04 8.741000000000000000e+04 8.741200000000000000e+04 8.741700000000000000e+04 8.741900000000000000e+04 2.830900000000000000e+04 2.831000000000000000e+04 2.831100000000000000e+04 2.831200000000000000e+04 2.831300000000000000e+04 2.831400000000000000e+04 2.831500000000000000e+04 2.831600000000000000e+04 2.831700000000000000e+04 8.743900000000000000e+04 2.831900000000000000e+04 2.802000000000000000e+04 2.832000000000000000e+04 2.832100000000000000e+04 2.832200000000000000e+04 2.832300000000000000e+04 2.832400000000000000e+04 2.832500000000000000e+04 8.745400000000000000e+04 8.745600000000000000e+04 8.745800000000000000e+04 8.746000000000000000e+04 8.746200000000000000e+04 8.746400000000000000e+04 8.746600000000000000e+04 8.746800000000000000e+04 8.747000000000000000e+04 8.747200000000000000e+04 8.747400000000000000e+04 8.747600000000000000e+04 8.747800000000000000e+04 8.748000000000000000e+04 8.748200000000000000e+04 8.748400000000000000e+04 2.804300000000000000e+04 8.748800000000000000e+04 8.749000000000000000e+04 8.749200000000000000e+04 8.749400000000000000e+04 8.749600000000000000e+04 8.749800000000000000e+04 8.750000000000000000e+04 8.750500000000000000e+04 2.835200000000000000e+04 2.835300000000000000e+04 2.835400000000000000e+04 2.835500000000000000e+04 2.835600000000000000e+04 2.835700000000000000e+04 2.835800000000000000e+04 2.835900000000000000e+04 2.836000000000000000e+04 2.836100000000000000e+04 2.836200000000000000e+04 2.836300000000000000e+04 2.836400000000000000e+04 2.836500000000000000e+04 8.753500000000000000e+04 2.806700000000000000e+04
2.765000000000000000e+04 2.765100000000000000e+04 2.765200000000000000e+04 2.765300000000000000e+04 2.765400000000000000e+04 2.765500000000000000e+04 8.671500000000000000e+04 2.735700000000000000e+04 2.735800000000000000e+04 8.672100000000000000e+04 8.672300000000000000e+04 8.672500000000000000e+04 2.766200000000000000e+04 2.736300000000000000e+04 2.766300000000000000e+04 2.766400000000000000e+04 2.766500000000000000e+04 2.766600000000000000e+04 2.766700000000000000e+04 2.766800000000000000e+04 2.766900000000000000e+04 2.767000000000000000e+04 2.767100000000000000e+04 2.767200000000000000e+04 2.767300000000000000e+04 2.767400000000000000e+04 2.767500000000000000e+04 8.675700000000000000e+04 8.675900000000000000e+04 8.676100000000000000e+04 8.676300000000000000e+04 8.676500000000000000e+04 8.676700000000000000e+04 8.676900000000000000e+04 8.677100000000000000e+04 2.738500000000000000e+04 2.738600000000000000e+04 2.738700000000000000e+04 2.738800000000000000e+04 2.738900000000000000e+04 8.678000000000000000e+04 2.739100000000000000e+04 8.678400000000000000e+04 8.678900000000000000e+04 8.679100000000000000e+04 8.679300000000000000e+04 8.679500000000000000e+04 2.739700000000000000e+04 8.679600000000000000e+04 2.769800000000000000e+04 2.769900000000000000e+04 2.770000000000000000e+04 2.770100000000000000e+04 2.770200000000000000e+04 2.770300000000000000e+04 2.770400000000000000e+04 2.770500000000000000e+04 8.681400000000000000e+04 8.681900000000000000e+04 8.682100000000000000e+04 8.682300000000000000e+04 2.771100000000000000e+04 2.771200000000000000e+04 2.771300000000000000e+04 2.771400000000000000e+04 2.771500000000000000e+04 2.771600000000000000e+04 2.771700000000000000e+04 2.771800000000000000e+04 2.771900000000000000e+04 2.772000000000000000e+04 2.742100000000000000e+04 2.772100000000000000e+04 2.772200000000000000e+04 8.684800000000000000e+04 8.685000000000000000e+04 8.685200000000000000e+04 8.685400000000000000e+04 8.685600000000000000e+04 8.685800000000000000e+04 8.686000000000000000e+04 8.686200000000000000e+04 8.686400000000000000e+04 8.686600000000000000e+04 8.686800000000000000e+04 8.687000000000000000e+04 8.687200000000000000e+04 8.687400000000000000e+04 8.687600000000000000e+04 8.687800000000000000e+04 8.688000000000000000e+04 8.688200000000000000e+04 8.688400000000000000e+04 8.688600000000000000e+04 2.744400000000000000e+04 8.689000000000000000e+04 8.689200000000000000e+04 8.689400000000000000e+04 8.689600000000000000e+04 8.689800000000000000e+04 8.690000000000000000e+04 8.690200000000000000e+04 2.745200000000000000e+04 2.775300000000000000e+04 2.775400000000000000e+04 2.775500000000000000e+04 2.775600000000000000e+04 2.775700000000000000e+04 2.775800000000000000e+04 2.775900000000000000e+04 8.752000000000000000e+04 8.752200000000000000e+04 8.752400000000000000e+04 8.752600000000000000e+04 8.752800000000000000e+04 8.753000000000000000e+04 2.776600000000000000e+04 2.776700000000000000e+04 8.693900000000000000e+04
2.705100000000000000e+04 2.705200000000000000e+04 2.705300000000000000e+04 2.705400000000000000e+04 2.705500000000000000e+04 2.705600000000000000e+04 2.705700000000000000e+04 8.611900000000000000e+04 2.675900000000000000e+04 2.676000000000000000e+04 8.612500000000000000e+04 8.612700000000000000e+04 2.706300000000000000e+04 2.676400000000000000e+04 2.706400000000000000e+04 2.706500000000000000e+04 2.706600000000000000e+04 2.706700000000000000e+04 2.706800000000000000e+04 2.706900000000000000e+04 2.707000000000000000e+04 2.707100000000000000e+04 2.707200000000000000e+04 2.707300000000000000e+04 2.707400000000000000e+04 2.707500000000000000e+04 2.707600000000000000e+04 8.615900000000000000e+04 8.616100000000000000e+04 8.616300000000000000e+04 8.616500000000000000e+04 8.616700000000000000e+04 8.616900000000000000e+04 8.617100000000000000e+04 8.617300000000000000e+04 2.678600000000000000e+04 2.678700000000000000e+04 2.678800000000000000e+04 2.678900000000000000e+04 2.679000000000000000e+04 8.618200000000000000e+04 2.679200000000000000e+04 8.618600000000000000e+04 8.619100000000000000e+04 8.619300000000000000e+04 8.619500000000000000e+04 8.619700000000000000e+04 2.679800000000000000e+04 8.619800000000000000e+04 2.709900000000000000e+04 2.710000000000000000e+04 2.710100000000000000e+04 2.710200000000000000e+04 2.710300000000000000e+04 2.710400000000000000e+04 8.621200000000000000e+04 8.621400000000000000e+04 8.621600000000000000e+04 8.622100000000000000e+04 8.622300000000000000e+04 8.622500000000000000e+04 8.622700000000000000e+04 8.622900000000000000e+04 2.711400000000000000e+04 2.711500000000000000e+04 2.711600000000000000e+04 2.711700000000000000e+04 8.623900000000000000e+04 2.711900000000000000e+04 2.712000000000000000e+04 2.712100000000000000e+04 2.682200000000000000e+04 2.712200000000000000e+04 8.624800000000000000e+04 8.625000000000000000e+04 8.625200000000000000e+04 8.625400000000000000e+04 8.625600000000000000e+04 8.625800000000000000e+04 8.626000000000000000e+04 8.626200000000000000e+04 8.626400000000000000e+04 8.626600000000000000e+04 8.626800000000000000e+04 8.627000000000000000e+04 8.627200000000000000e+04 8.627400000000000000e+04 8.627600000000000000e+04 8.627800000000000000e+04 8.628000000000000000e+04 8.628200000000000000e+04 8.628400000000000000e+04 8.628600000000000000e+04 2.684400000000000000e+04 2.684500000000000000e+04 8.629200000000000000e+04 8.629400000000000000e+04 8.629600000000000000e+04 8.629800000000000000e+04 8.630000000000000000e+04 8.630200000000000000e+04 8.630400000000000000e+04 8.630600000000000000e+04 2.685400000000000000e+04 2.715500000000000000e+04 2.715600000000000000e+04 2.715700000000000000e+04 2.715800000000000000e+04 8.691800000000000000e+04 2.716000000000000000e+04 2.716100000000000000e+04 2.716200000000000000e+04 2.716300000000000000e+04 2.716400000000000000e+04 2.716500000000000000e+04 2.716600000000000000e+04 2.716700000000000000e+04 2.716800000000000000e+04 2.716900000000000000e+04
2.645200000000000000e+04 2.645300000000000000e+04 2.645400000000000000e+04 2.645500000000000000e+04 2.645600000000000000e+04 2.645700000000000000e+04 2.645800000000000000e+04 2.645900000000000000e+04 8.552300000000000000e+04 2.616100000000000000e+04 2.616200000000000000e+04 8.552900000000000000e+04 8.553100000000000000e+04 2.616500000000000000e+04 2.646500000000000000e+04 2.646600000000000000e+04 2.646700000000000000e+04 2.646800000000000000e+04 2.646900000000000000e+04 2.647000000000000000e+04 2.647100000000000000e+04 2.647200000000000000e+04 2.647300000000000000e+04 2.647400000000000000e+04 2.647500000000000000e+04 2.647600000000000000e+04 8.555600000000000000e+04 8.556100000000000000e+04 2.648000000000000000e+04 2.648100000000000000e+04 2.648200000000000000e+04 2.648300000000000000e+04 2.648400000000000000e+04 2.648500000000000000e+04 2.648600000000000000e+04 8.557700000000000000e+04 2.618800000000000000e+04 2.618900000000000000e+04 8.558000000000000000e+04 2.619100000000000000e+04 2.619200000000000000e+04 8.558600000000000000e+04 8.559100000000000000e+04 8.559300000000000000e+04 8.559500000000000000e+04 8.559700000000000000e+04 8.559900000000000000e+04 2.619900000000000000e+04 8.560000000000000000e+04 8.560200000000000000e+04 8.560400000000000000e+04 8.560600000000000000e+04 8.560800000000000000e+04 8.561000000000000000e+04 8.561200000000000000e+04 8.561400000000000000e+04 8.561600000000000000e+04 8.561800000000000000e+04 8.562300000000000000e+04 8.562500000000000000e+04 8.562700000000000000e+04 8.562900000000000000e+04 8.563100000000000000e+04 8.563300000000000000e+04 8.563500000000000000e+04 8.563700000000000000e+04 8.563900000000000000e+04 2.651900000000000000e+04 8.564300000000000000e+04 2.652100000000000000e+04 2.652200000000000000e+04 2.622300000000000000e+04 2.652300000000000000e+04 8.565000000000000000e+04 8.565200000000000000e+04 8.565400000000000000e+04 8.565600000000000000e+04 8.565800000000000000e+04 8.566000000000000000e+04 8.566200000000000000e+04 8.566400000000000000e+04 8.566600000000000000e+04 8.566800000000000000e+04 8.567000000000000000e+04 8.567200000000000000e+04 8.567400000000000000e+04 8.567600000000000000e+04 8.567800000000000000e+04 8.568000000000000000e+04 8.568200000000000000e+04 8.568400000000000000e+04 8.568600000000000000e+04 8.568800000000000000e+04 2.624500000000000000e+04 2.624600000000000000e+04 8.569400000000000000e+04 8.569600000000000000e+04 8.569800000000000000e+04 8.570000000000000000e+04 8.570200000000000000e+04 8.570400000000000000e+04 8.570600000000000000e+04 8.570800000000000000e+04 8.571000000000000000e+04 8.571500000000000000e+04 2.655700000000000000e+04 2.655800000000000000e+04 2.655900000000000000e+04 2.656000000000000000e+04 2.656100000000000000e+04 2.656200000000000000e+04 2.656300000000000000e+04 2.656400000000000000e+04 2.656500000000000000e+04 2.656600000000000000e+04 2.656700000000000000e+04 8.633600000000000000e+04 8.633800000000000000e+04 8.634000000000000000e+04
2.585300000000000000e+04 2.585400000000000000e+04 2.585500000000000000e+04 2.585600000000000000e+04 2.585700000000000000e+04 2.585800000000000000e+04 2.585900000000000000e+04 2.586000000000000000e+04 2.586100000000000000e+04 8.492700000000000000e+04 2.556300000000000000e+04 8.493100000000000000e+04 2.556500000000000000e+04 2.556600000000000000e+04 2.586600000000000000e+04 2.586700000000000000e+04 2.586800000000000000e+04 2.586900000000000000e+04 2.587000000000000000e+04 2.587100000000000000e+04 2.587200000000000000e+04 2.587300000000000000e+04 2.587400000000000000e+04 2.587500000000000000e+04 2.587600000000000000e+04 2.587700000000000000e+04 2.587800000000000000e+04 8.496300000000000000e+04 2.588100000000000000e+04 2.588200000000000000e+04 2.588300000000000000e+04 2.588400000000000000e+04 2.588500000000000000e+04 2.588600000000000000e+04 2.588700000000000000e+04 2.588800000000000000e+04 8.498100000000000000e+04 2.559000000000000000e+04 8.498200000000000000e+04 2.559200000000000000e+04 8.498600000000000000e+04 2.589300000000000000e+04 8.499300000000000000e+04 8.499500000000000000e+04 8.499700000000000000e+04 8.499900000000000000e+04 8.500100000000000000e+04 2.560000000000000000e+04 8.500200000000000000e+04 8.500400000000000000e+04 8.500600000000000000e+04 8.500800000000000000e+04 8.501000000000000000e+04 8.501200000000000000e+04 8.501400000000000000e+04 8.501600000000000000e+04 8.501800000000000000e+04 8.502000000000000000e+04 8.502500000000000000e+04 8.502700000000000000e+04 8.502900000000000000e+04 8.503100000000000000e+04 8.503300000000000000e+04 8.503500000000000000e+04 8.503700000000000000e+04 8.503900000000000000e+04 8.504100000000000000e+04 8.504300000000000000e+04 2.592100000000000000e+04 8.504700000000000000e+04 2.592300000000000000e+04 2.562400000000000000e+04 8.505000000000000000e+04 2.592500000000000000e+04 2.592600000000000000e+04 2.592700000000000000e+04 2.592800000000000000e+04 2.592900000000000000e+04 2.593000000000000000e+04 2.593100000000000000e+04 2.593200000000000000e+04 2.593300000000000000e+04 2.593400000000000000e+04 2.593500000000000000e+04 2.593600000000000000e+04 2.593700000000000000e+04 2.593800000000000000e+04 2.593900000000000000e+04 2.594000000000000000e+04 2.594100000000000000e+04 2.594200000000000000e+04 2.594300000000000000e+04 2.564500000000000000e+04 2.564600000000000000e+04 2.564700000000000000e+04 8.509600000000000000e+04 8.509800000000000000e+04 8.510000000000000000e+04 8.510200000000000000e+04 8.510400000000000000e+04 8.510600000000000000e+04 8.510800000000000000e+04 8.511000000000000000e+04 8.511200000000000000e+04 8.511400000000000000e+04 2.595800000000000000e+04 2.595900000000000000e+04 2.596000000000000000e+04 2.596100000000000000e+04 2.596200000000000000e+04 2.596300000000000000e+04 2.596400000000000000e+04 2.596500000000000000e+04 8.573200000000000000e+04 8.573400000000000000e+04 8.573600000000000000e+04 8.573800000000000000e+04 8.574000000000000000e+04 8.574200000000000000e+04
2.525400000000000000e+04 2.525500000000000000e+04 2.525600000000000000e+04 2.525700000000000000e+04 2.525800000000000000e+04 2.525900000000000000e+04 2.526000000000000000e+04 2.526100000000000000e+04 2.526200000000000000e+04 2.526300000000000000e+04 8.433100000000000000e+04 8.433300000000000000e+04 2.496600000000000000e+04 8.433400000000000000e+04 2.526700000000000000e+04 2.526800000000000000e+04 2.526900000000000000e+04 2.527000000000000000e+04 2.527100000000000000e+04 2.527200000000000000e+04 2.527300000000000000e+04 2.527400000000000000e+04 2.527500000000000000e+04 2.527600000000000000e+04 2.527700000000000000e+04 2.527800000000000000e+04 2.527900000000000000e+04 8.436500000000000000e+04 2.528200000000000000e+04 2.528300000000000000e+04 2.528400000000000000e+04 2.528500000000000000e+04 2.528600000000000000e+04 2.528700000000000000e+04 2.528800000000000000e+04 2.528900000000000000e+04 8.438300000000000000e+04 2.499100000000000000e+04 8.438400000000000000e+04 2.499300000000000000e+04 8.438800000000000000e+04 8.439000000000000000e+04 8.439500000000000000e+04 8.439700000000000000e+04 8.439900000000000000e+04 8.440100000000000000e+04 8.440300000000000000e+04 2.500100000000000000e+04 8.440400000000000000e+04 8.440600000000000000e+04 8.440800000000000000e+04 8.441000000000000000e+04 8.441200000000000000e+04 8.441400000000000000e+04 8.441600000000000000e+04 8.441800000000000000e+04 8.442000000000000000e+04 8.442200000000000000e+04 8.442700000000000000e+04 8.442900000000000000e+04 8.443100000000000000e+04 8.443300000000000000e+04 8.443500000000000000e+04 8.443700000000000000e+04 8.443900000000000000e+04 8.444100000000000000e+04 8.444300000000000000e+04 8.444500000000000000e+04 8.444700000000000000e+04 2.532300000000000000e+04 2.532400000000000000e+04 2.502500000000000000e+04 2.532500000000000000e+04 8.445400000000000000e+04 2.532700000000000000e+04 2.532800000000000000e+04 2.532900000000000000e+04 2.533000000000000000e+04 2.533100000000000000e+04 2.533200000000000000e+04 2.533300000000000000e+04 2.533400000000000000e+04 2.533500000000000000e+04 2.533600000000000000e+04 2.533700000000000000e+04 2.533800000000000000e+04 2.533900000000000000e+04 2.534000000000000000e+04 2.534100000000000000e+04 2.534200000000000000e+04 2.534300000000000000e+04 8.449000000000000000e+04 2.504600000000000000e+04 2.504700000000000000e+04 2.504800000000000000e+04 8.449800000000000000e+04 8.450000000000000000e+04 8.450200000000000000e+04 8.450400000000000000e+04 8.450600000000000000e+04 8.450800000000000000e+04 8.451000000000000000e+04 8.451200000000000000e+04 8.451400000000000000e+04 8.451600000000000000e+04 2.505900000000000000e+04 2.536000000000000000e+04 2.536100000000000000e+04 2.536200000000000000e+04 2.536300000000000000e+04 2.536400000000000000e+04 2.536500000000000000e+04 2.536600000000000000e+04 2.536700000000000000e+04 2.536800000000000000e+04 2.536900000000000000e+04 2.537000000000000000e+04 2.537100000000000000e+04 2.537200000000000000e+04
2.465500000000000000e+04 2.465600000000000000e+04 2.465700000000000000e+04 2.465800000000000000e+04 2.465900000000000000e+04 2.466000000000000000e+04 2.466100000000000000e+04 2.466200000000000000e+04 2.466300000000000000e+04 2.466400000000000000e+04 2.466500000000000000e+04 8.373500000000000000e+04 2.436700000000000000e+04 2.466700000000000000e+04 2.466800000000000000e+04 2.466900000000000000e+04 2.467000000000000000e+04 2.467100000000000000e+04 2.467200000000000000e+04 2.467300000000000000e+04 2.467400000000000000e+04 2.467500000000000000e+04 2.467600000000000000e+04 2.467700000000000000e+04 2.467800000000000000e+04 2.467900000000000000e+04 2.468000000000000000e+04 8.376700000000000000e+04 2.468300000000000000e+04 2.468400000000000000e+04 2.468500000000000000e+04 2.468600000000000000e+04 2.468700000000000000e+04 2.468800000000000000e+04 2.468900000000000000e+04 8.378300000000000000e+04 2.469100000000000000e+04 2.439200000000000000e+04 8.378600000000000000e+04 2.439400000000000000e+04 8.379000000000000000e+04 8.379200000000000000e+04 8.379700000000000000e+04 8.379900000000000000e+04 8.380100000000000000e+04 8.380300000000000000e+04 8.380500000000000000e+04 2.440200000000000000e+04 8.380600000000000000e+04 8.380800000000000000e+04 8.381000000000000000e+04 8.381200000000000000e+04 8.381400000000000000e+04 8.381600000000000000e+04 8.381800000000000000e+04 8.382000000000000000e+04 8.382200000000000000e+04 8.382400000000000000e+04 8.382900000000000000e+04 2.471400000000000000e+04 2.471500000000000000e+04 2.471600000000000000e+04 2.471700000000000000e+04 2.471800000000000000e+04 2.471900000000000000e+04 2.472000000000000000e+04 2.472100000000000000e+04 2.472200000000000000e+04 2.472300000000000000e+04 2.472400000000000000e+04 2.472500000000000000e+04 2.442600000000000000e+04 2.472600000000000000e+04 2.472700000000000000e+04 2.472800000000000000e+04 2.472900000000000000e+04 2.473000000000000000e+04 2.473100000000000000e+04 2.473200000000000000e+04 2.473300000000000000e+04 2.473400000000000000e+04 2.473500000000000000e+04 2.473600000000000000e+04 2.473700000000000000e+04 2.473800000000000000e+04 2.473900000000000000e+04 2.474000000000000000e+04 2.474100000000000000e+04 2.474200000000000000e+04 2.474300000000000000e+04 8.389000000000000000e+04 2.444600000000000000e+04 2.444700000000000000e+04 2.444800000000000000e+04 2.444900000000000000e+04 8.390000000000000000e+04 8.390200000000000000e+04 8.390400000000000000e+04 8.390600000000000000e+04 8.390800000000000000e+04 8.391000000000000000e+04 8.391200000000000000e+04 8.391400000000000000e+04 8.391600000000000000e+04 8.391800000000000000e+04 8.392000000000000000e+04 8.392500000000000000e+04 2.476200000000000000e+04 2.476300000000000000e+04 2.476400000000000000e+04 2.476500000000000000e+04 2.476600000000000000e+04 2.476700000000000000e+04 2.476800000000000000e+04 2.476900000000000000e+04 2.477000000000000000e+04 2.477100000000000000e+04 2.477200000000000000e+04 2.477300000000000000e+04
2.405600000000000000e+04 2.405700000000000000e+04 2.405800000000000000e+04 2.405900000000000000e+04 2.406000000000000000e+04 2.406100000000000000e+04 8.312700000000000000e+04 8.312900000000000000e+04 8.313100000000000000e+04 8.313300000000000000e+04 8.313500000000000000e+04 2.406700000000000000e+04 2.376800000000000000e+04 2.406800000000000000e+04 2.406900000000000000e+04 2.407000000000000000e+04 2.407100000000000000e+04 2.407200000000000000e+04 2.407300000000000000e+04 2.407400000000000000e+04 2.407500000000000000e+04 2.407600000000000000e+04 2.407700000000000000e+04 2.407800000000000000e+04 2.407900000000000000e+04 2.408000000000000000e+04 2.408100000000000000e+04 8.316900000000000000e+04 8.317100000000000000e+04 8.317300000000000000e+04 8.317500000000000000e+04 8.317700000000000000e+04 8.317900000000000000e+04 8.318100000000000000e+04 8.318300000000000000e+04 2.409100000000000000e+04 8.318700000000000000e+04 2.379300000000000000e+04 8.318800000000000000e+04 2.379500000000000000e+04 8.319200000000000000e+04 8.319400000000000000e+04 8.319900000000000000e+04 8.320100000000000000e+04 8.320300000000000000e+04 8.320500000000000000e+04 8.320700000000000000e+04 2.380300000000000000e+04 8.320800000000000000e+04 8.321000000000000000e+04 8.321200000000000000e+04 8.321400000000000000e+04 8.321600000000000000e+04 8.321800000000000000e+04 8.322000000000000000e+04 8.322200000000000000e+04 8.322400000000000000e+04 8.322600000000000000e+04 8.323100000000000000e+04 8.323300000000000000e+04 2.411600000000000000e+04 2.411700000000000000e+04 2.411800000000000000e+04 2.411900000000000000e+04 2.412000000000000000e+04 2.412100000000000000e+04 2.412200000000000000e+04 2.412300000000000000e+04 2.412400000000000000e+04 2.412500000000000000e+04 2.412600000000000000e+04 2.382700000000000000e+04 2.412700000000000000e+04 8.325800000000000000e+04 8.326000000000000000e+04 8.326200000000000000e+04 8.326400000000000000e+04 8.326600000000000000e+04 8.326800000000000000e+04 8.327000000000000000e+04 8.327200000000000000e+04 8.327400000000000000e+04 8.327600000000000000e+04 2.413800000000000000e+04 2.413900000000000000e+04 2.414000000000000000e+04 2.414100000000000000e+04 2.414200000000000000e+04 2.414300000000000000e+04 8.329000000000000000e+04 8.329200000000000000e+04 2.384700000000000000e+04 8.329900000000000000e+04 2.384900000000000000e+04 2.385000000000000000e+04 8.330200000000000000e+04 8.330400000000000000e+04 8.330600000000000000e+04 8.330800000000000000e+04 8.331000000000000000e+04 8.331200000000000000e+04 8.331400000000000000e+04 8.331600000000000000e+04 8.331800000000000000e+04 8.332000000000000000e+04 8.332200000000000000e+04 2.386200000000000000e+04 2.416300000000000000e+04 2.416400000000000000e+04 2.416500000000000000e+04 2.416600000000000000e+04 2.416700000000000000e+04 2.416800000000000000e+04 2.416900000000000000e+04 2.417000000000000000e+04 2.417100000000000000e+04 2.417200000000000000e+04 2.417300000000000000e+04 2.417400000000000000e+04
2.345700000000000000e+04 2.345800000000000000e+04 2.345900000000000000e+04 2.346000000000000000e+04 2.346100000000000000e+04 2.346200000000000000e+04 2.346300000000000000e+04 8.253100000000000000e+04 8.253300000000000000e+04 8.253500000000000000e+04 8.253700000000000000e+04 2.316800000000000000e+04 8.253800000000000000e+04 2.346900000000000000e+04 2.347000000000000000e+04 2.347100000000000000e+04 2.347200000000000000e+04 2.347300000000000000e+04 2.347400000000000000e+04 2.347500000000000000e+04 2.347600000000000000e+04 2.347700000000000000e+04 2.347800000000000000e+04 2.347900000000000000e+04 2.348000000000000000e+04 2.348100000000000000e+04 8.256600000000000000e+04 8.257100000000000000e+04 2.348500000000000000e+04 2.348600000000000000e+04 2.348700000000000000e+04 2.348800000000000000e+04 2.348900000000000000e+04 2.349000000000000000e+04 2.349100000000000000e+04 2.349200000000000000e+04 8.258900000000000000e+04 2.319400000000000000e+04 2.319500000000000000e+04 2.319600000000000000e+04 8.259400000000000000e+04 8.259600000000000000e+04 8.260100000000000000e+04 8.260300000000000000e+04 8.260500000000000000e+04 8.260700000000000000e+04 8.260900000000000000e+04 2.320400000000000000e+04 8.261000000000000000e+04 8.261200000000000000e+04 8.261400000000000000e+04 8.261600000000000000e+04 8.261800000000000000e+04 8.262000000000000000e+04 8.262200000000000000e+04 8.262400000000000000e+04 8.262600000000000000e+04 8.262800000000000000e+04 8.263300000000000000e+04 8.263500000000000000e+04 8.263700000000000000e+04 2.351800000000000000e+04 2.351900000000000000e+04 2.352000000000000000e+04 2.352100000000000000e+04 2.352200000000000000e+04 2.352300000000000000e+04 2.352400000000000000e+04 2.352500000000000000e+04 2.352600000000000000e+04 2.352700000000000000e+04 2.322800000000000000e+04 2.352800000000000000e+04 2.352900000000000000e+04 2.353000000000000000e+04 2.353100000000000000e+04 2.353200000000000000e+04 2.353300000000000000e+04 2.353400000000000000e+04 2.353500000000000000e+04 2.353600000000000000e+04 2.353700000000000000e+04 2.353800000000000000e+04 2.353900000000000000e+04 2.354000000000000000e+04 2.354100000000000000e+04 2.354200000000000000e+04 2.354300000000000000e+04 2.354400000000000000e+04 8.269200000000000000e+04 2.324700000000000000e+04 8.269900000000000000e+04 2.324900000000000000e+04 8.270300000000000000e+04 2.325100000000000000e+04 8.270400000000000000e+04 8.270600000000000000e+04 8.270800000000000000e+04 8.271000000000000000e+04 8.271200000000000000e+04 8.271400000000000000e+04 8.271600000000000000e+04 8.271800000000000000e+04 8.272000000000000000e+04 8.272200000000000000e+04 8.272400000000000000e+04 8.272600000000000000e+04 8.273100000000000000e+04 2.356500000000000000e+04 2.356600000000000000e+04 2.356700000000000000e+04 2.356800000000000000e+04 2.356900000000000000e+04 2.357000000000000000e+04 2.357100000000000000e+04 2.357200000000000000e+04 2.357300000000000000e+04 2.357400000000000000e+04 2.357500000000000000e+04
2.285800000000000000e+04 2.285900000000000000e+04 2.286000000000000000e+04 2.286100000000000000e+04 2.286200000000000000e+04 2.286300000000000000e+04 2.286400000000000000e+04 2.286500000000000000e+04 2.286600000000000000e+04 2.286700000000000000e+04 2.286800000000000000e+04 2.256900000000000000e+04 8.194000000000000000e+04 2.287000000000000000e+04 2.287100000000000000e+04 2.287200000000000000e+04 2.287300000000000000e+04 2.287400000000000000e+04 2.287500000000000000e+04 2.287600000000000000e+04 2.287700000000000000e+04 2.287800000000000000e+04 2.287900000000000000e+04 2.288000000000000000e+04 2.288100000000000000e+04 2.288200000000000000e+04 2.288300000000000000e+04 2.288500000000000000e+04 2.288600000000000000e+04 2.288700000000000000e+04 2.288800000000000000e+04 2.288900000000000000e+04 2.289000000000000000e+04 2.289100000000000000e+04 2.289200000000000000e+04 2.289300000000000000e+04 8.199100000000000000e+04 2.259500000000000000e+04 2.259600000000000000e+04 2.259700000000000000e+04 8.199600000000000000e+04 8.199800000000000000e+04 8.200300000000000000e+04 8.200500000000000000e+04 8.200700000000000000e+04 8.200900000000000000e+04 8.201100000000000000e+04 2.260500000000000000e+04 8.201200000000000000e+04 2.290600000000000000e+04 2.290700000000000000e+04 2.290800000000000000e+04 2.290900000000000000e+04 2.291000000000000000e+04 2.291100000000000000e+04 2.291200000000000000e+04 2.291300000000000000e+04 8.203000000000000000e+04 8.203500000000000000e+04 8.203700000000000000e+04 8.203900000000000000e+04 8.204100000000000000e+04 8.204300000000000000e+04 8.204500000000000000e+04 8.204700000000000000e+04 8.204900000000000000e+04 8.205100000000000000e+04 8.205300000000000000e+04 8.205500000000000000e+04 8.205700000000000000e+04 2.292800000000000000e+04 2.262900000000000000e+04 2.292900000000000000e+04 8.206200000000000000e+04 8.206400000000000000e+04 2.293200000000000000e+04 2.293300000000000000e+04 2.293400000000000000e+04 2.293500000000000000e+04 2.293600000000000000e+04 2.293700000000000000e+04 2.293800000000000000e+04 2.293900000000000000e+04 2.294000000000000000e+04 2.294100000000000000e+04 2.294200000000000000e+04 2.294300000000000000e+04 2.294400000000000000e+04 8.209200000000000000e+04 8.209400000000000000e+04 2.264800000000000000e+04 2.264900000000000000e+04 8.210300000000000000e+04 8.210500000000000000e+04 2.265200000000000000e+04 8.210600000000000000e+04 8.210800000000000000e+04 8.211000000000000000e+04 8.211200000000000000e+04 8.211400000000000000e+04 8.211600000000000000e+04 8.211800000000000000e+04 8.212000000000000000e+04 8.212200000000000000e+04 8.212400000000000000e+04 8.212600000000000000e+04 8.212800000000000000e+04 2.266500000000000000e+04 8.213500000000000000e+04 2.296700000000000000e+04 2.296800000000000000e+04 2.296900000000000000e+04 2.297000000000000000e+04 2.297100000000000000e+04 2.297200000000000000e+04 2.297300000000000000e+04 2.297400000000000000e+04 2.297500000000000000e+04 2.297600000000000000e+04
2.225900000000000000e+04 2.226000000000000000e+04 2.226100000000000000e+04 2.226200000000000000e+04 2.226300000000000000e+04 2.226400000000000000e+04 2.226500000000000000e+04 2.226600000000000000e+04 2.226700000000000000e+04 2.226800000000000000e+04 2.226900000000000000e+04 2.197000000000000000e+04 2.227000000000000000e+04 2.227100000000000000e+04 2.227200000000000000e+04 2.227300000000000000e+04 2.227400000000000000e+04 2.227500000000000000e+04 2.227600000000000000e+04 2.227700000000000000e+04 2.227800000000000000e+04 2.227900000000000000e+04 2.228000000000000000e+04 2.228100000000000000e+04 2.228200000000000000e+04 2.228300000000000000e+04 8.137000000000000000e+04 8.137500000000000000e+04 8.137700000000000000e+04 2.228800000000000000e+04 2.228900000000000000e+04 2.229000000000000000e+04 2.229100000000000000e+04 2.229200000000000000e+04 2.229300000000000000e+04 2.229400000000000000e+04 2.229500000000000000e+04 8.139500000000000000e+04 2.199700000000000000e+04 8.139600000000000000e+04 2.229800000000000000e+04 8.140000000000000000e+04 8.140500000000000000e+04 8.140700000000000000e+04 8.140900000000000000e+04 8.141100000000000000e+04 8.141300000000000000e+04 2.200600000000000000e+04 8.141400000000000000e+04 2.230700000000000000e+04 2.230800000000000000e+04 2.230900000000000000e+04 2.231000000000000000e+04 2.231100000000000000e+04 8.142600000000000000e+04 8.142800000000000000e+04 8.143000000000000000e+04 8.143200000000000000e+04 8.143700000000000000e+04 2.231800000000000000e+04 2.231900000000000000e+04 2.232000000000000000e+04 2.232100000000000000e+04 2.232200000000000000e+04 2.232300000000000000e+04 2.232400000000000000e+04 2.232500000000000000e+04 2.232600000000000000e+04 2.232700000000000000e+04 2.232800000000000000e+04 2.232900000000000000e+04 2.203000000000000000e+04 2.233000000000000000e+04 2.233100000000000000e+04 2.233200000000000000e+04 2.233300000000000000e+04 2.233400000000000000e+04 2.233500000000000000e+04 2.233600000000000000e+04 2.233700000000000000e+04 2.233800000000000000e+04 2.233900000000000000e+04 2.234000000000000000e+04 2.234100000000000000e+04 2.234200000000000000e+04 2.234300000000000000e+04 8.149000000000000000e+04 8.149200000000000000e+04 8.149400000000000000e+04 2.204800000000000000e+04 2.204900000000000000e+04 8.150300000000000000e+04 8.150500000000000000e+04 8.150700000000000000e+04 2.205300000000000000e+04 8.150800000000000000e+04 8.151000000000000000e+04 8.151200000000000000e+04 8.151400000000000000e+04 8.151600000000000000e+04 8.151800000000000000e+04 8.152000000000000000e+04 8.152200000000000000e+04 8.152400000000000000e+04 8.152600000000000000e+04 8.152800000000000000e+04 8.153000000000000000e+04 8.153200000000000000e+04 8.153700000000000000e+04 8.153900000000000000e+04 2.236900000000000000e+04 2.237000000000000000e+04 2.237100000000000000e+04 2.237200000000000000e+04 2.237300000000000000e+04 2.237400000000000000e+04 2.237500000000000000e+04 2.237600000000000000e+04 2.237700000000000000e+04
8.072300000000000000e+04 8.072500000000000000e+04 2.166200000000000000e+04 2.166300000000000000e+04 2.166400000000000000e+04 2.166500000000000000e+04 2.166600000000000000e+04 2.166700000000000000e+04 2.166800000000000000e+04 2.166900000000000000e+04 2.167000000000000000e+04 2.137100000000000000e+04 2.167100000000000000e+04 2.167200000000000000e+04 2.167300000000000000e+04 2.167400000000000000e+04 2.167500000000000000e+04 2.167600000000000000e+04 2.167700000000000000e+04 2.167800000000000000e+04 2.167900000000000000e+04 2.168000000000000000e+04 2.168100000000000000e+04 2.168200000000000000e+04 2.168300000000000000e+04 8.077000000000000000e+04 8.077200000000000000e+04 2.168700000000000000e+04 2.168800000000000000e+04 2.168900000000000000e+04 2.169000000000000000e+04 2.169100000000000000e+04 2.169200000000000000e+04 2.169300000000000000e+04 2.169400000000000000e+04 2.169500000000000000e+04 2.169600000000000000e+04 8.079700000000000000e+04 2.139800000000000000e+04 8.079800000000000000e+04 8.080000000000000000e+04 8.080200000000000000e+04 8.080700000000000000e+04 8.080900000000000000e+04 8.081100000000000000e+04 8.081300000000000000e+04 2.140600000000000000e+04 2.140700000000000000e+04 2.170700000000000000e+04 8.081800000000000000e+04 8.082000000000000000e+04 8.082200000000000000e+04 8.082400000000000000e+04 8.082600000000000000e+04 2.171300000000000000e+04 2.171400000000000000e+04 2.171500000000000000e+04 2.171600000000000000e+04 8.083900000000000000e+04 8.084100000000000000e+04 2.172000000000000000e+04 2.172100000000000000e+04 2.172200000000000000e+04 2.172300000000000000e+04 2.172400000000000000e+04 2.172500000000000000e+04 2.172600000000000000e+04 2.172700000000000000e+04 2.172800000000000000e+04 8.086100000000000000e+04 2.173000000000000000e+04 2.143100000000000000e+04 2.173100000000000000e+04 2.173200000000000000e+04 2.173300000000000000e+04 2.173400000000000000e+04 8.087200000000000000e+04 8.087400000000000000e+04 8.087600000000000000e+04 8.087800000000000000e+04 8.088000000000000000e+04 8.088200000000000000e+04 8.088400000000000000e+04 8.088600000000000000e+04 8.088800000000000000e+04 8.089000000000000000e+04 8.089200000000000000e+04 8.089400000000000000e+04 8.089600000000000000e+04 2.144900000000000000e+04 8.090300000000000000e+04 8.090500000000000000e+04 8.090700000000000000e+04 8.090900000000000000e+04 2.145400000000000000e+04 8.091000000000000000e+04 8.091200000000000000e+04 8.091400000000000000e+04 8.091600000000000000e+04 8.091800000000000000e+04 8.092000000000000000e+04 8.092200000000000000e+04 8.092400000000000000e+04 8.092600000000000000e+04 8.092800000000000000e+04 8.093000000000000000e+04 8.093200000000000000e+04 8.093400000000000000e+04 2.146800000000000000e+04 8.094100000000000000e+04 2.177000000000000000e+04 2.177100000000000000e+04 2.177200000000000000e+04 2.177300000000000000e+04 2.177400000000000000e+04 2.177500000000000000e+04 2.177600000000000000e+04 2.177700000000000000e+04 2.177800000000000000e+04
8.012500000000000000e+04 8.012700000000000000e+04 8.012900000000000000e+04 8.013100000000000000e+04 2.106500000000000000e+04 2.106600000000000000e+04 2.106700000000000000e+04 2.106800000000000000e+04 2.106900000000000000e+04 2.107000000000000000e+04 2.107100000000000000e+04 2.077200000000000000e+04 2.107200000000000000e+04 2.107300000000000000e+04 2.107400000000000000e+04 2.107500000000000000e+04 2.107600000000000000e+04 2.107700000000000000e+04 2.107800000000000000e+04 2.107900000000000000e+04 2.108000000000000000e+04 2.108100000000000000e+04 8.016600000000000000e+04 8.016800000000000000e+04 8.017000000000000000e+04 8.017200000000000000e+04 8.017400000000000000e+04 8.017900000000000000e+04 8.018100000000000000e+04 2.109000000000000000e+04 2.109100000000000000e+04 2.109200000000000000e+04 2.109300000000000000e+04 2.109400000000000000e+04 2.109500000000000000e+04 2.109600000000000000e+04 2.109700000000000000e+04 8.019900000000000000e+04 2.079900000000000000e+04 8.020000000000000000e+04 8.020200000000000000e+04 8.020400000000000000e+04 8.020900000000000000e+04 8.021100000000000000e+04 8.021300000000000000e+04 8.021500000000000000e+04 2.080700000000000000e+04 8.021600000000000000e+04 2.110800000000000000e+04 2.110900000000000000e+04 2.111000000000000000e+04 2.111100000000000000e+04 2.111200000000000000e+04 2.111300000000000000e+04 2.111400000000000000e+04 2.111500000000000000e+04 2.111600000000000000e+04 8.023600000000000000e+04 8.024100000000000000e+04 8.024300000000000000e+04 8.024500000000000000e+04 8.024700000000000000e+04 8.024900000000000000e+04 8.025100000000000000e+04 8.025300000000000000e+04 2.112600000000000000e+04 2.112700000000000000e+04 2.112800000000000000e+04 2.112900000000000000e+04 2.113000000000000000e+04 2.113100000000000000e+04 2.083200000000000000e+04 2.113200000000000000e+04 8.026800000000000000e+04 8.027000000000000000e+04 8.027200000000000000e+04 8.027400000000000000e+04 8.027600000000000000e+04 8.027800000000000000e+04 8.028000000000000000e+04 8.028200000000000000e+04 8.028400000000000000e+04 8.028600000000000000e+04 8.028800000000000000e+04 8.029000000000000000e+04 8.029200000000000000e+04 8.029400000000000000e+04 8.029600000000000000e+04 8.029800000000000000e+04 8.030300000000000000e+04 8.030500000000000000e+04 8.030700000000000000e+04 8.030900000000000000e+04 8.031100000000000000e+04 2.085500000000000000e+04 8.031200000000000000e+04 8.031400000000000000e+04 8.031600000000000000e+04 8.031800000000000000e+04 8.032000000000000000e+04 8.032200000000000000e+04 8.032400000000000000e+04 8.032600000000000000e+04 8.032800000000000000e+04 8.033000000000000000e+04 8.033200000000000000e+04 8.033400000000000000e+04 8.033600000000000000e+04 2.086900000000000000e+04 8.034300000000000000e+04 8.034500000000000000e+04 2.117200000000000000e+04 2.117300000000000000e+04 2.117400000000000000e+04 2.117500000000000000e+04 2.117600000000000000e+04 2.117700000000000000e+04 2.117800000000000000e+04 2.117900000000000000e+04
7.952700000000000000e+04 7.952900000000000000e+04 7.953100000000000000e+04 7.953300000000000000e+04 7.953500000000000000e+04 7.953700000000000000e+04 2.046800000000000000e+04 2.046900000000000000e+04 2.047000000000000000e+04 2.047100000000000000e+04 2.047200000000000000e+04 2.017300000000000000e+04 2.047300000000000000e+04 2.047400000000000000e+04 7.955200000000000000e+04 7.955400000000000000e+04 7.955600000000000000e+04 7.955800000000000000e+04 7.956000000000000000e+04 7.956200000000000000e+04 7.956400000000000000e+04 7.956600000000000000e+04 7.956800000000000000e+04 7.957000000000000000e+04 7.957200000000000000e+04 7.957400000000000000e+04 7.957600000000000000e+04 7.958100000000000000e+04 2.049000000000000000e+04 2.049100000000000000e+04 7.958700000000000000e+04 7.958900000000000000e+04 7.959100000000000000e+04 7.959300000000000000e+04 7.959500000000000000e+04 7.959700000000000000e+04 7.959900000000000000e+04 2.049900000000000000e+04 2.020000000000000000e+04 7.960200000000000000e+04 7.960400000000000000e+04 7.960900000000000000e+04 7.961100000000000000e+04 7.961300000000000000e+04 7.961500000000000000e+04 7.961700000000000000e+04 2.020800000000000000e+04 7.961800000000000000e+04 2.050900000000000000e+04 2.051000000000000000e+04 2.051100000000000000e+04 2.051200000000000000e+04 2.051300000000000000e+04 2.051400000000000000e+04 2.051500000000000000e+04 2.051600000000000000e+04 2.051700000000000000e+04 2.051800000000000000e+04 7.964300000000000000e+04 7.964500000000000000e+04 7.964700000000000000e+04 7.964900000000000000e+04 7.965100000000000000e+04 7.965300000000000000e+04 7.965500000000000000e+04 7.965700000000000000e+04 7.965900000000000000e+04 7.966100000000000000e+04 7.966300000000000000e+04 7.966500000000000000e+04 2.053200000000000000e+04 2.023300000000000000e+04 2.053300000000000000e+04 2.053400000000000000e+04 2.053500000000000000e+04 2.053600000000000000e+04 2.053700000000000000e+04 2.053800000000000000e+04 2.053900000000000000e+04 2.054000000000000000e+04 2.054100000000000000e+04 2.054200000000000000e+04 2.054300000000000000e+04 2.054400000000000000e+04 2.054500000000000000e+04 2.054600000000000000e+04 2.054700000000000000e+04 7.969800000000000000e+04 7.970000000000000000e+04 7.970500000000000000e+04 7.970700000000000000e+04 7.970900000000000000e+04 7.971100000000000000e+04 7.971300000000000000e+04 2.025600000000000000e+04 7.971400000000000000e+04 7.971600000000000000e+04 7.971800000000000000e+04 7.972000000000000000e+04 7.972200000000000000e+04 7.972400000000000000e+04 7.972600000000000000e+04 7.972800000000000000e+04 7.973000000000000000e+04 7.973200000000000000e+04 7.973400000000000000e+04 7.973600000000000000e+04 7.973800000000000000e+04 2.027000000000000000e+04 2.027100000000000000e+04 7.974700000000000000e+04 2.057300000000000000e+04 2.057400000000000000e+04 2.057500000000000000e+04 2.057600000000000000e+04 2.057700000000000000e+04 2.057800000000000000e+04 2.057900000000000000e+04 2.058000000000000000e+04
7.892900000000000000e+04 7.893100000000000000e+04 7.893300000000000000e+04 7.893500000000000000e+04 7.893700000000000000e+04 7.893900000000000000e+04 7.894100000000000000e+04 1.987000000000000000e+04 1.987100000000000000e+04 1.987200000000000000e+04 1.987300000000000000e+04 1.957400000000000000e+04 1.987400000000000000e+04 1.987500000000000000e+04 7.895400000000000000e+04 7.895600000000000000e+04 7.895800000000000000e+04 7.896000000000000000e+04 7.896200000000000000e+04 7.896400000000000000e+04 7.896600000000000000e+04 7.896800000000000000e+04 7.897000000000000000e+04 7.897200000000000000e+04 7.897400000000000000e+04 7.897600000000000000e+04 7.897800000000000000e+04 7.898300000000000000e+04 7.898500000000000000e+04 7.898700000000000000e+04 1.989300000000000000e+04 1.989400000000000000e+04 1.989500000000000000e+04 1.989600000000000000e+04 1.989700000000000000e+04 1.989800000000000000e+04 1.989900000000000000e+04 7.900300000000000000e+04 1.960100000000000000e+04 7.900400000000000000e+04 7.900600000000000000e+04 1.960400000000000000e+04 7.901300000000000000e+04 7.901500000000000000e+04 7.901700000000000000e+04 7.901900000000000000e+04 1.960900000000000000e+04 1.990900000000000000e+04 7.902200000000000000e+04 1.991100000000000000e+04 1.991200000000000000e+04 1.991300000000000000e+04 1.991400000000000000e+04 1.991500000000000000e+04 1.991600000000000000e+04 1.991700000000000000e+04 1.991800000000000000e+04 7.904000000000000000e+04 7.904500000000000000e+04 1.992200000000000000e+04 1.992300000000000000e+04 1.992400000000000000e+04 1.992500000000000000e+04 1.992600000000000000e+04 1.992700000000000000e+04 1.992800000000000000e+04 1.992900000000000000e+04 1.993000000000000000e+04 1.993100000000000000e+04 1.993200000000000000e+04 1.993300000000000000e+04 1.963400000000000000e+04 1.993400000000000000e+04 1.993500000000000000e+04 7.907400000000000000e+04 1.993700000000000000e+04 1.993800000000000000e+04 1.993900000000000000e+04 1.994000000000000000e+04 1.994100000000000000e+04 1.994200000000000000e+04 1.994300000000000000e+04 1.994400000000000000e+04 1.994500000000000000e+04 1.994600000000000000e+04 1.994700000000000000e+04 7.909800000000000000e+04 7.910000000000000000e+04 1.965100000000000000e+04 7.910700000000000000e+04 7.910900000000000000e+04 7.911100000000000000e+04 7.911300000000000000e+04 7.911500000000000000e+04 1.965700000000000000e+04 7.911600000000000000e+04 7.911800000000000000e+04 7.912000000000000000e+04 7.912200000000000000e+04 7.912400000000000000e+04 7.912600000000000000e+04 7.912800000000000000e+04 7.913000000000000000e+04 7.913200000000000000e+04 7.913400000000000000e+04 7.913600000000000000e+04 7.913800000000000000e+04 1.967000000000000000e+04 1.967100000000000000e+04 1.967200000000000000e+04 1.967300000000000000e+04 7.915100000000000000e+04 1.997500000000000000e+04 1.997600000000000000e+04 1.997700000000000000e+04 1.997800000000000000e+04 1.997900000000000000e+04 1.998000000000000000e+04 1.998100000000000000e+04
7.833100000000000000e+04 7.833300000000000000e+04 7.833500000000000000e+04 7.833700000000000000e+04 7.833900000000000000e+04 7.834100000000000000e+04 7.834300000000000000e+04 7.834500000000000000e+04 1.927200000000000000e+04 1.927300000000000000e+04 1.927400000000000000e+04 1.897500000000000000e+04 1.927500000000000000e+04 7.835400000000000000e+04 1.927700000000000000e+04 1.927800000000000000e+04 1.927900000000000000e+04 1.928000000000000000e+04 1.928100000000000000e+04 1.928200000000000000e+04 1.928300000000000000e+04 1.928400000000000000e+04 1.928500000000000000e+04 1.928600000000000000e+04 1.928700000000000000e+04 1.928800000000000000e+04 1.928900000000000000e+04 7.838500000000000000e+04 7.838700000000000000e+04 7.838900000000000000e+04 7.839100000000000000e+04 7.839300000000000000e+04 7.839500000000000000e+04 1.929700000000000000e+04 1.929800000000000000e+04 1.929900000000000000e+04 1.930000000000000000e+04 1.930100000000000000e+04 1.900200000000000000e+04 7.840600000000000000e+04 7.840800000000000000e+04 1.900500000000000000e+04 7.841500000000000000e+04 7.841700000000000000e+04 7.841900000000000000e+04 7.842100000000000000e+04 1.901000000000000000e+04 7.842200000000000000e+04 1.931100000000000000e+04 1.931200000000000000e+04 1.931300000000000000e+04 1.931400000000000000e+04 1.931500000000000000e+04 1.931600000000000000e+04 1.931700000000000000e+04 1.931800000000000000e+04 7.844000000000000000e+04 7.844200000000000000e+04 7.844700000000000000e+04 7.844900000000000000e+04 1.932400000000000000e+04 1.932500000000000000e+04 1.932600000000000000e+04 1.932700000000000000e+04 1.932800000000000000e+04 1.932900000000000000e+04 1.933000000000000000e+04 1.933100000000000000e+04 1.933200000000000000e+04 7.846900000000000000e+04 1.933400000000000000e+04 1.903500000000000000e+04 1.933500000000000000e+04 7.847400000000000000e+04 1.933700000000000000e+04 1.933800000000000000e+04 1.933900000000000000e+04 1.934000000000000000e+04 1.934100000000000000e+04 1.934200000000000000e+04 1.934300000000000000e+04 1.934400000000000000e+04 1.934500000000000000e+04 1.934600000000000000e+04 1.934700000000000000e+04 7.849800000000000000e+04 7.850000000000000000e+04 7.850200000000000000e+04 7.850700000000000000e+04 7.850900000000000000e+04 7.851100000000000000e+04 7.851300000000000000e+04 7.851500000000000000e+04 7.851700000000000000e+04 1.905800000000000000e+04 7.851800000000000000e+04 7.852000000000000000e+04 7.852200000000000000e+04 7.852400000000000000e+04 7.852600000000000000e+04 7.852800000000000000e+04 7.853000000000000000e+04 7.853200000000000000e+04 7.853400000000000000e+04 7.853600000000000000e+04 7.853800000000000000e+04 7.854000000000000000e+04 1.907100000000000000e+04 1.907200000000000000e+04 1.907300000000000000e+04 1.907400000000000000e+04 1.907500000000000000e+04 7.855500000000000000e+04 1.937700000000000000e+04 1.937800000000000000e+04 1.937900000000000000e+04 1.938000000000000000e+04 1.938100000000000000e+04 1.938200000000000000e+04
7.773300000000000000e+04 7.773500000000000000e+04 7.773700000000000000e+04 7.773900000000000000e+04 7.774100000000000000e+04 7.774300000000000000e+04 7.774500000000000000e+04 7.774700000000000000e+04 7.774900000000000000e+04 1.867400000000000000e+04 1.867500000000000000e+04 1.837600000000000000e+04 1.867600000000000000e+04 1.867700000000000000e+04 1.867800000000000000e+04 1.867900000000000000e+04 1.868000000000000000e+04 1.868100000000000000e+04 1.868200000000000000e+04 1.868300000000000000e+04 1.868400000000000000e+04 1.868500000000000000e+04 1.868600000000000000e+04 1.868700000000000000e+04 1.868800000000000000e+04 7.778000000000000000e+04 7.778200000000000000e+04 1.869200000000000000e+04 1.869300000000000000e+04 1.869400000000000000e+04 1.869500000000000000e+04 1.869600000000000000e+04 1.869700000000000000e+04 7.779900000000000000e+04 7.780100000000000000e+04 7.780300000000000000e+04 1.870100000000000000e+04 1.870200000000000000e+04 1.840300000000000000e+04 7.780800000000000000e+04 7.781000000000000000e+04 1.840600000000000000e+04 7.781700000000000000e+04 7.781900000000000000e+04 7.782100000000000000e+04 7.782300000000000000e+04 1.841100000000000000e+04 1.871100000000000000e+04 7.782600000000000000e+04 7.782800000000000000e+04 7.783000000000000000e+04 7.783200000000000000e+04 7.783400000000000000e+04 7.783600000000000000e+04 7.783800000000000000e+04 7.784000000000000000e+04 7.784200000000000000e+04 7.784400000000000000e+04 7.784900000000000000e+04 7.785100000000000000e+04 7.785300000000000000e+04 1.872600000000000000e+04 1.872700000000000000e+04 1.872800000000000000e+04 1.872900000000000000e+04 1.873000000000000000e+04 1.873100000000000000e+04 1.873200000000000000e+04 1.873300000000000000e+04 1.873400000000000000e+04 1.873500000000000000e+04 1.843600000000000000e+04 1.873600000000000000e+04 1.873700000000000000e+04 1.873800000000000000e+04 1.873900000000000000e+04 1.874000000000000000e+04 1.874100000000000000e+04 1.874200000000000000e+04 1.874300000000000000e+04 1.874400000000000000e+04 1.874500000000000000e+04 1.874600000000000000e+04 1.874700000000000000e+04 7.789800000000000000e+04 7.790000000000000000e+04 7.790200000000000000e+04 7.790400000000000000e+04 7.790900000000000000e+04 7.791100000000000000e+04 7.791300000000000000e+04 7.791500000000000000e+04 7.791700000000000000e+04 7.791900000000000000e+04 1.845900000000000000e+04 7.792000000000000000e+04 7.792200000000000000e+04 7.792400000000000000e+04 7.792600000000000000e+04 7.792800000000000000e+04 7.793000000000000000e+04 7.793200000000000000e+04 7.793400000000000000e+04 7.793600000000000000e+04 7.793800000000000000e+04 7.794000000000000000e+04 7.794200000000000000e+04 1.847200000000000000e+04 1.847300000000000000e+04 1.847400000000000000e+04 1.847500000000000000e+04 1.847600000000000000e+04 1.847700000000000000e+04 7.795900000000000000e+04 1.877900000000000000e+04 1.878000000000000000e+04 1.878100000000000000e+04 1.878200000000000000e+04 7.856600000000000000e+04
7.713500000000000000e+04 7.713700000000000000e+04 7.713900000000000000e+04 7.714100000000000000e+04 7.714300000000000000e+04 7.714500000000000000e+04 7.714700000000000000e+04 7.714900000000000000e+04 7.715100000000000000e+04 7.715300000000000000e+04 1.807600000000000000e+04 1.777700000000000000e+04 1.807700000000000000e+04 1.807800000000000000e+04 1.807900000000000000e+04 1.808000000000000000e+04 1.808100000000000000e+04 1.808200000000000000e+04 1.808300000000000000e+04 1.808400000000000000e+04 1.808500000000000000e+04 1.808600000000000000e+04 1.808700000000000000e+04 1.808800000000000000e+04 1.808900000000000000e+04 1.809000000000000000e+04 1.809100000000000000e+04 1.809300000000000000e+04 1.809400000000000000e+04 1.809500000000000000e+04 1.809600000000000000e+04 1.809700000000000000e+04 1.809800000000000000e+04 1.809900000000000000e+04 1.810000000000000000e+04 1.810100000000000000e+04 7.720700000000000000e+04 1.810300000000000000e+04 1.780400000000000000e+04 1.780500000000000000e+04 7.721200000000000000e+04 1.780700000000000000e+04 7.721900000000000000e+04 7.722100000000000000e+04 7.722300000000000000e+04 7.722500000000000000e+04 1.781200000000000000e+04 7.722600000000000000e+04 1.811300000000000000e+04 1.811400000000000000e+04 1.811500000000000000e+04 1.811600000000000000e+04 7.723600000000000000e+04 7.723800000000000000e+04 7.724000000000000000e+04 7.724200000000000000e+04 7.724400000000000000e+04 7.724600000000000000e+04 7.725100000000000000e+04 7.725300000000000000e+04 7.725500000000000000e+04 7.725700000000000000e+04 7.725900000000000000e+04 1.812900000000000000e+04 1.813000000000000000e+04 1.813100000000000000e+04 1.813200000000000000e+04 1.813300000000000000e+04 1.813400000000000000e+04 1.813500000000000000e+04 1.813600000000000000e+04 1.783700000000000000e+04 1.813700000000000000e+04 1.813800000000000000e+04 7.728000000000000000e+04 1.814000000000000000e+04 1.814100000000000000e+04 1.814200000000000000e+04 1.814300000000000000e+04 1.814400000000000000e+04 1.814500000000000000e+04 1.814600000000000000e+04 1.814700000000000000e+04 7.729800000000000000e+04 7.730000000000000000e+04 7.730200000000000000e+04 7.730400000000000000e+04 7.730600000000000000e+04 7.731100000000000000e+04 7.731300000000000000e+04 7.731500000000000000e+04 7.731700000000000000e+04 7.731900000000000000e+04 7.732100000000000000e+04 1.786000000000000000e+04 7.732200000000000000e+04 7.732400000000000000e+04 7.732600000000000000e+04 7.732800000000000000e+04 7.733000000000000000e+04 7.733200000000000000e+04 7.733400000000000000e+04 7.733600000000000000e+04 7.733800000000000000e+04 7.734000000000000000e+04 7.734200000000000000e+04 7.734400000000000000e+04 1.787300000000000000e+04 1.787400000000000000e+04 1.787500000000000000e+04 1.787600000000000000e+04 1.787700000000000000e+04 1.787800000000000000e+04 1.787900000000000000e+04 7.736300000000000000e+04 1.818100000000000000e+04 1.818200000000000000e+04 1.818300000000000000e+04 1.818400000000000000e+04
7.653700000000000000e+04 7.653900000000000000e+04 7.654100000000000000e+04 7.654300000000000000e+04 7.654500000000000000e+04 7.654700000000000000e+04 7.654900000000000000e+04 7.655100000000000000e+04 7.655300000000000000e+04 7.655500000000000000e+04 1.747700000000000000e+04 1.717800000000000000e+04 1.747800000000000000e+04 1.747900000000000000e+04 1.748000000000000000e+04 1.748100000000000000e+04 1.748200000000000000e+04 1.748300000000000000e+04 1.748400000000000000e+04 1.748500000000000000e+04 1.748600000000000000e+04 1.748700000000000000e+04 1.748800000000000000e+04 1.748900000000000000e+04 1.749000000000000000e+04 1.749100000000000000e+04 1.749200000000000000e+04 1.749400000000000000e+04 1.749500000000000000e+04 1.749600000000000000e+04 1.749700000000000000e+04 1.749800000000000000e+04 1.749900000000000000e+04 1.750000000000000000e+04 1.750100000000000000e+04 1.750200000000000000e+04 1.750300000000000000e+04 1.750400000000000000e+04 7.661300000000000000e+04 1.720600000000000000e+04 7.661400000000000000e+04 1.720800000000000000e+04 1.720900000000000000e+04 7.662300000000000000e+04 7.662500000000000000e+04 7.662700000000000000e+04 1.721300000000000000e+04 1.751300000000000000e+04 7.663000000000000000e+04 7.663200000000000000e+04 7.663400000000000000e+04 7.663600000000000000e+04 7.663800000000000000e+04 7.664000000000000000e+04 7.664200000000000000e+04 7.664400000000000000e+04 7.664600000000000000e+04 7.664800000000000000e+04 7.665300000000000000e+04 7.665500000000000000e+04 7.665700000000000000e+04 7.665900000000000000e+04 7.666100000000000000e+04 7.666300000000000000e+04 7.666500000000000000e+04 7.666700000000000000e+04 7.666900000000000000e+04 7.667100000000000000e+04 1.753500000000000000e+04 1.753600000000000000e+04 1.753700000000000000e+04 1.723800000000000000e+04 1.753800000000000000e+04 7.668000000000000000e+04 1.754000000000000000e+04 1.754100000000000000e+04 1.754200000000000000e+04 1.754300000000000000e+04 1.754400000000000000e+04 7.669200000000000000e+04 7.669400000000000000e+04 7.669600000000000000e+04 7.669800000000000000e+04 7.670000000000000000e+04 7.670200000000000000e+04 7.670400000000000000e+04 7.670600000000000000e+04 7.671100000000000000e+04 7.671300000000000000e+04 7.671500000000000000e+04 7.671700000000000000e+04 7.671900000000000000e+04 7.672100000000000000e+04 7.672300000000000000e+04 1.726100000000000000e+04 7.672400000000000000e+04 7.672600000000000000e+04 7.672800000000000000e+04 7.673000000000000000e+04 7.673200000000000000e+04 7.673400000000000000e+04 7.673600000000000000e+04 7.673800000000000000e+04 7.674000000000000000e+04 7.674200000000000000e+04 7.674400000000000000e+04 7.674600000000000000e+04 1.727400000000000000e+04 1.727500000000000000e+04 1.727600000000000000e+04 1.727700000000000000e+04 1.727800000000000000e+04 1.727900000000000000e+04 1.728000000000000000e+04 1.728100000000000000e+04 7.676700000000000000e+04 7.676900000000000000e+04 1.758400000000000000e+04 1.758500000000000000e+04
7.593900000000000000e+04 7.594100000000000000e+04 7.594300000000000000e+04 7.594500000000000000e+04 7.594700000000000000e+04 7.594900000000000000e+04 7.595100000000000000e+04 7.595300000000000000e+04 7.595500000000000000e+04 7.595700000000000000e+04 1.687800000000000000e+04 1.657900000000000000e+04 1.687900000000000000e+04 1.688000000000000000e+04 1.688100000000000000e+04 1.688200000000000000e+04 1.688300000000000000e+04 1.688400000000000000e+04 1.688500000000000000e+04 1.688600000000000000e+04 1.688700000000000000e+04 1.688800000000000000e+04 1.688900000000000000e+04 1.689000000000000000e+04 1.689100000000000000e+04 1.689200000000000000e+04 1.689300000000000000e+04 1.689500000000000000e+04 1.689600000000000000e+04 1.689700000000000000e+04 1.689800000000000000e+04 1.689900000000000000e+04 1.690000000000000000e+04 1.690100000000000000e+04 1.690200000000000000e+04 1.690300000000000000e+04 1.690400000000000000e+04 1.690500000000000000e+04 7.601500000000000000e+04 1.660700000000000000e+04 1.660800000000000000e+04 1.660900000000000000e+04 1.661000000000000000e+04 7.602500000000000000e+04 7.602700000000000000e+04 7.602900000000000000e+04 1.661400000000000000e+04 1.691400000000000000e+04 1.691500000000000000e+04 7.603400000000000000e+04 7.603600000000000000e+04 7.603800000000000000e+04 7.604000000000000000e+04 7.604200000000000000e+04 7.604400000000000000e+04 7.604600000000000000e+04 7.604800000000000000e+04 7.605000000000000000e+04 7.605500000000000000e+04 7.605700000000000000e+04 7.605900000000000000e+04 7.606100000000000000e+04 7.606300000000000000e+04 7.606500000000000000e+04 7.606700000000000000e+04 7.606900000000000000e+04 7.607100000000000000e+04 7.607300000000000000e+04 7.607500000000000000e+04 7.607700000000000000e+04 1.693800000000000000e+04 1.663900000000000000e+04 1.693900000000000000e+04 1.694000000000000000e+04 1.694100000000000000e+04 7.608600000000000000e+04 7.608800000000000000e+04 7.609000000000000000e+04 7.609200000000000000e+04 7.609400000000000000e+04 7.609600000000000000e+04 7.609800000000000000e+04 7.610000000000000000e+04 7.610200000000000000e+04 7.610400000000000000e+04 7.610600000000000000e+04 7.610800000000000000e+04 7.611300000000000000e+04 7.611500000000000000e+04 7.611700000000000000e+04 7.611900000000000000e+04 7.612100000000000000e+04 7.612300000000000000e+04 7.612500000000000000e+04 1.666200000000000000e+04 7.612600000000000000e+04 7.612800000000000000e+04 7.613000000000000000e+04 7.613200000000000000e+04 7.613400000000000000e+04 7.613600000000000000e+04 7.613800000000000000e+04 7.614000000000000000e+04 7.614200000000000000e+04 7.614400000000000000e+04 7.614600000000000000e+04 1.667400000000000000e+04 1.667500000000000000e+04 1.667600000000000000e+04 1.667700000000000000e+04 1.667800000000000000e+04 1.667900000000000000e+04 1.668000000000000000e+04 1.668100000000000000e+04 1.668200000000000000e+04 1.668300000000000000e+04 7.617100000000000000e+04 7.617300000000000000e+04 1.698600000000000000e+04
7.534100000000000000e+04 7.534300000000000000e+04 7.534500000000000000e+04 7.534700000000000000e+04 7.534900000000000000e+04 7.535100000000000000e+04 7.535300000000000000e+04 7.535500000000000000e+04 7.535700000000000000e+04 7.535900000000000000e+04 1.597900000000000000e+04 7.536000000000000000e+04 1.628000000000000000e+04 1.628100000000000000e+04 1.628200000000000000e+04 1.628300000000000000e+04 1.628400000000000000e+04 1.628500000000000000e+04 1.628600000000000000e+04 1.628700000000000000e+04 1.628800000000000000e+04 1.628900000000000000e+04 1.629000000000000000e+04 1.629100000000000000e+04 1.629200000000000000e+04 1.629300000000000000e+04 1.629400000000000000e+04 1.629600000000000000e+04 1.629700000000000000e+04 1.629800000000000000e+04 1.629900000000000000e+04 1.630000000000000000e+04 1.630100000000000000e+04 1.630200000000000000e+04 1.630300000000000000e+04 1.630400000000000000e+04 1.630500000000000000e+04 1.630600000000000000e+04 1.630700000000000000e+04 7.541900000000000000e+04 1.600900000000000000e+04 1.601000000000000000e+04 1.601100000000000000e+04 7.542700000000000000e+04 7.542900000000000000e+04 1.601400000000000000e+04 1.601500000000000000e+04 1.631500000000000000e+04 7.543400000000000000e+04 7.543600000000000000e+04 7.543800000000000000e+04 1.631900000000000000e+04 1.632000000000000000e+04 1.632100000000000000e+04 1.632200000000000000e+04 1.632300000000000000e+04 1.632400000000000000e+04 1.632500000000000000e+04 7.545700000000000000e+04 1.632800000000000000e+04 1.632900000000000000e+04 1.633000000000000000e+04 1.633100000000000000e+04 1.633200000000000000e+04 1.633300000000000000e+04 1.633400000000000000e+04 1.633500000000000000e+04 1.633600000000000000e+04 1.633700000000000000e+04 1.633800000000000000e+04 1.633900000000000000e+04 1.604000000000000000e+04 1.634000000000000000e+04 7.548400000000000000e+04 7.548600000000000000e+04 7.548800000000000000e+04 7.549000000000000000e+04 7.549200000000000000e+04 7.549400000000000000e+04 7.549600000000000000e+04 7.549800000000000000e+04 7.550000000000000000e+04 7.550200000000000000e+04 7.550400000000000000e+04 7.550600000000000000e+04 7.550800000000000000e+04 7.551000000000000000e+04 7.551500000000000000e+04 7.551700000000000000e+04 7.551900000000000000e+04 7.552100000000000000e+04 7.552300000000000000e+04 7.552500000000000000e+04 7.552700000000000000e+04 1.606300000000000000e+04 7.552800000000000000e+04 7.553000000000000000e+04 7.553200000000000000e+04 7.553400000000000000e+04 7.553600000000000000e+04 7.553800000000000000e+04 7.554000000000000000e+04 7.554200000000000000e+04 7.554400000000000000e+04 7.554600000000000000e+04 7.554800000000000000e+04 1.607500000000000000e+04 1.607600000000000000e+04 1.607700000000000000e+04 1.607800000000000000e+04 1.607900000000000000e+04 1.608000000000000000e+04 1.608100000000000000e+04 1.608200000000000000e+04 1.608300000000000000e+04 1.608400000000000000e+04 1.608500000000000000e+04 7.557500000000000000e+04 1.608700000000000000e+04
1.567000000000000000e+04 1.567100000000000000e+04 1.567200000000000000e+04 1.567300000000000000e+04 1.567400000000000000e+04 1.567500000000000000e+04 1.567600000000000000e+04 1.567700000000000000e+04 1.567800000000000000e+04 7.476100000000000000e+04 1.538000000000000000e+04 1.568000000000000000e+04 7.536300000000000000e+04 1.568200000000000000e+04 1.568300000000000000e+04 1.568400000000000000e+04 1.568500000000000000e+04 1.568600000000000000e+04 1.568700000000000000e+04 1.568800000000000000e+04 1.568900000000000000e+04 1.569000000000000000e+04 1.569100000000000000e+04 1.569200000000000000e+04 1.569300000000000000e+04 1.569400000000000000e+04 7.479200000000000000e+04 1.569700000000000000e+04 1.569800000000000000e+04 1.569900000000000000e+04 1.570000000000000000e+04 1.570100000000000000e+04 1.570200000000000000e+04 1.570300000000000000e+04 1.570400000000000000e+04 1.570500000000000000e+04 1.570600000000000000e+04 1.570700000000000000e+04 1.570800000000000000e+04 1.570900000000000000e+04 7.482300000000000000e+04 1.541100000000000000e+04 1.541200000000000000e+04 7.482900000000000000e+04 7.483100000000000000e+04 1.541500000000000000e+04 7.483200000000000000e+04 1.571600000000000000e+04 1.571700000000000000e+04 1.571800000000000000e+04 1.571900000000000000e+04 1.572000000000000000e+04 1.572100000000000000e+04 1.572200000000000000e+04 1.572300000000000000e+04 1.572400000000000000e+04 1.572500000000000000e+04 1.572600000000000000e+04 7.485900000000000000e+04 7.486100000000000000e+04 1.573000000000000000e+04 1.573100000000000000e+04 1.573200000000000000e+04 1.573300000000000000e+04 1.573400000000000000e+04 1.573500000000000000e+04 1.573600000000000000e+04 1.573700000000000000e+04 1.573800000000000000e+04 1.573900000000000000e+04 1.574000000000000000e+04 1.544100000000000000e+04 1.574100000000000000e+04 1.574200000000000000e+04 1.574300000000000000e+04 1.574400000000000000e+04 1.574500000000000000e+04 1.574600000000000000e+04 1.574700000000000000e+04 1.574800000000000000e+04 1.574900000000000000e+04 1.575000000000000000e+04 1.575100000000000000e+04 1.575200000000000000e+04 1.575300000000000000e+04 1.575400000000000000e+04 7.491200000000000000e+04 7.491700000000000000e+04 7.491900000000000000e+04 7.492100000000000000e+04 7.492300000000000000e+04 7.492500000000000000e+04 7.492700000000000000e+04 7.492900000000000000e+04 1.546400000000000000e+04 7.493000000000000000e+04 7.493200000000000000e+04 7.493400000000000000e+04 7.493600000000000000e+04 7.493800000000000000e+04 7.494000000000000000e+04 7.494200000000000000e+04 7.494400000000000000e+04 7.494600000000000000e+04 7.494800000000000000e+04 7.495000000000000000e+04 1.547600000000000000e+04 1.547700000000000000e+04 1.547800000000000000e+04 1.547900000000000000e+04 1.548000000000000000e+04 1.548100000000000000e+04 1.548200000000000000e+04 1.548300000000000000e+04 1.548400000000000000e+04 1.548500000000000000e+04 1.548600000000000000e+04 1.548700000000000000e+04 1.548800000000000000e+04
1.507100000000000000e+04 1.507200000000000000e+04 1.507300000000000000e+04 1.507400000000000000e+04 1.507500000000000000e+04 1.507600000000000000e+04 1.507700000000000000e+04 1.507800000000000000e+04 7.416100000000000000e+04 1.508000000000000000e+04 1.478100000000000000e+04 1.508100000000000000e+04 1.508200000000000000e+04 1.508300000000000000e+04 1.508400000000000000e+04 1.508500000000000000e+04 1.508600000000000000e+04 1.508700000000000000e+04 1.508800000000000000e+04 1.508900000000000000e+04 1.509000000000000000e+04 1.509100000000000000e+04 1.509200000000000000e+04 1.509300000000000000e+04 1.509400000000000000e+04 7.419200000000000000e+04 7.419400000000000000e+04 1.509800000000000000e+04 1.509900000000000000e+04 1.510000000000000000e+04 1.510100000000000000e+04 1.510200000000000000e+04 1.510300000000000000e+04 1.510400000000000000e+04 1.510500000000000000e+04 1.510600000000000000e+04 1.510700000000000000e+04 1.510800000000000000e+04 1.510900000000000000e+04 1.511000000000000000e+04 1.511100000000000000e+04 7.422700000000000000e+04 1.481300000000000000e+04 1.481400000000000000e+04 7.423300000000000000e+04 1.481600000000000000e+04 7.423400000000000000e+04 1.511700000000000000e+04 1.511800000000000000e+04 1.511900000000000000e+04 1.512000000000000000e+04 1.512100000000000000e+04 1.512200000000000000e+04 1.512300000000000000e+04 1.512400000000000000e+04 1.512500000000000000e+04 1.512600000000000000e+04 1.512700000000000000e+04 7.426100000000000000e+04 7.426300000000000000e+04 7.426500000000000000e+04 1.513200000000000000e+04 1.513300000000000000e+04 1.513400000000000000e+04 1.513500000000000000e+04 1.513600000000000000e+04 1.513700000000000000e+04 1.513800000000000000e+04 1.513900000000000000e+04 7.428300000000000000e+04 1.514100000000000000e+04 1.484200000000000000e+04 1.514200000000000000e+04 1.514300000000000000e+04 1.514400000000000000e+04 1.514500000000000000e+04 1.514600000000000000e+04 1.514700000000000000e+04 1.514800000000000000e+04 1.514900000000000000e+04 1.515000000000000000e+04 1.515100000000000000e+04 1.515200000000000000e+04 1.515300000000000000e+04 7.431000000000000000e+04 7.431200000000000000e+04 1.485700000000000000e+04 7.431900000000000000e+04 7.432100000000000000e+04 7.432300000000000000e+04 7.432500000000000000e+04 7.432700000000000000e+04 7.432900000000000000e+04 7.433100000000000000e+04 1.486500000000000000e+04 7.433200000000000000e+04 7.433400000000000000e+04 7.433600000000000000e+04 7.433800000000000000e+04 7.434000000000000000e+04 7.434200000000000000e+04 7.434400000000000000e+04 7.434600000000000000e+04 7.434800000000000000e+04 7.435000000000000000e+04 1.487600000000000000e+04 1.487700000000000000e+04 1.487800000000000000e+04 1.487900000000000000e+04 1.488000000000000000e+04 1.488100000000000000e+04 1.488200000000000000e+04 1.488300000000000000e+04 1.488400000000000000e+04 1.488500000000000000e+04 1.488600000000000000e+04 1.488700000000000000e+04 1.488800000000000000e+04 1.488900000000000000e+04
1.447200000000000000e+04 1.447300000000000000e+04 1.447400000000000000e+04 1.447500000000000000e+04 1.447600000000000000e+04 1.447700000000000000e+04 1.447800000000000000e+04 1.447900000000000000e+04 1.448000000000000000e+04 1.448100000000000000e+04 1.418200000000000000e+04 1.448200000000000000e+04 1.448300000000000000e+04 1.448400000000000000e+04 1.448500000000000000e+04 1.448600000000000000e+04 1.448700000000000000e+04 1.448800000000000000e+04 1.448900000000000000e+04 1.449000000000000000e+04 1.449100000000000000e+04 1.449200000000000000e+04 1.449300000000000000e+04 1.449400000000000000e+04 7.359200000000000000e+04 7.359400000000000000e+04 7.359600000000000000e+04 7.360100000000000000e+04 1.450000000000000000e+04 1.450100000000000000e+04 1.450200000000000000e+04 1.450300000000000000e+04 1.450400000000000000e+04 1.450500000000000000e+04 1.450600000000000000e+04 1.450700000000000000e+04 1.450800000000000000e+04 1.450900000000000000e+04 1.451000000000000000e+04 1.451100000000000000e+04 1.451200000000000000e+04 1.451300000000000000e+04 7.363100000000000000e+04 1.421500000000000000e+04 7.363500000000000000e+04 1.421700000000000000e+04 1.451700000000000000e+04 1.451800000000000000e+04 1.451900000000000000e+04 1.452000000000000000e+04 1.452100000000000000e+04 1.452200000000000000e+04 1.452300000000000000e+04 1.452400000000000000e+04 1.452500000000000000e+04 1.452600000000000000e+04 1.452700000000000000e+04 1.452800000000000000e+04 7.366300000000000000e+04 7.366500000000000000e+04 7.366700000000000000e+04 7.366900000000000000e+04 1.453400000000000000e+04 1.453500000000000000e+04 1.453600000000000000e+04 1.453700000000000000e+04 1.453800000000000000e+04 1.453900000000000000e+04 1.454000000000000000e+04 1.454100000000000000e+04 1.454200000000000000e+04 1.424300000000000000e+04 1.454300000000000000e+04 1.454400000000000000e+04 7.369200000000000000e+04 1.454600000000000000e+04 1.454700000000000000e+04 1.454800000000000000e+04 1.454900000000000000e+04 1.455000000000000000e+04 1.455100000000000000e+04 1.455200000000000000e+04 1.455300000000000000e+04 7.371000000000000000e+04 7.371200000000000000e+04 7.371400000000000000e+04 7.371900000000000000e+04 7.372100000000000000e+04 7.372300000000000000e+04 7.372500000000000000e+04 7.372700000000000000e+04 7.372900000000000000e+04 7.373100000000000000e+04 7.373300000000000000e+04 1.426600000000000000e+04 7.373400000000000000e+04 7.373600000000000000e+04 7.373800000000000000e+04 7.374000000000000000e+04 7.374200000000000000e+04 7.374400000000000000e+04 7.374600000000000000e+04 7.374800000000000000e+04 7.375000000000000000e+04 7.375200000000000000e+04 1.427700000000000000e+04 1.427800000000000000e+04 1.427900000000000000e+04 1.428000000000000000e+04 1.428100000000000000e+04 1.428200000000000000e+04 1.428300000000000000e+04 1.428400000000000000e+04 1.428500000000000000e+04 1.428600000000000000e+04 1.428700000000000000e+04 1.428800000000000000e+04 1.428900000000000000e+04 1.429000000000000000e+04
1.387300000000000000e+04 1.387400000000000000e+04 1.387500000000000000e+04 1.387600000000000000e+04 1.387700000000000000e+04 1.387800000000000000e+04 1.387900000000000000e+04 1.388000000000000000e+04 1.388100000000000000e+04 1.388200000000000000e+04 1.358300000000000000e+04 1.388300000000000000e+04 1.388400000000000000e+04 1.388500000000000000e+04 1.388600000000000000e+04 1.388700000000000000e+04 1.388800000000000000e+04 1.388900000000000000e+04 1.389000000000000000e+04 1.389100000000000000e+04 1.389200000000000000e+04 1.389300000000000000e+04 7.299000000000000000e+04 7.299200000000000000e+04 7.299400000000000000e+04 7.299600000000000000e+04 7.299800000000000000e+04 1.360000000000000000e+04 7.300500000000000000e+04 1.390200000000000000e+04 1.390300000000000000e+04 1.390400000000000000e+04 1.390500000000000000e+04 1.390600000000000000e+04 1.390700000000000000e+04 1.390800000000000000e+04 1.390900000000000000e+04 1.391000000000000000e+04 1.391100000000000000e+04 1.391200000000000000e+04 1.391300000000000000e+04 1.391400000000000000e+04 1.391500000000000000e+04 7.303500000000000000e+04 1.361700000000000000e+04 1.361800000000000000e+04 1.391800000000000000e+04 1.391900000000000000e+04 1.392000000000000000e+04 1.392100000000000000e+04 1.392200000000000000e+04 1.392300000000000000e+04 1.392400000000000000e+04 1.392500000000000000e+04 1.392600000000000000e+04 1.392700000000000000e+04 1.392800000000000000e+04 7.306000000000000000e+04 7.306500000000000000e+04 7.306700000000000000e+04 7.306900000000000000e+04 7.307100000000000000e+04 7.307300000000000000e+04 7.307500000000000000e+04 7.307700000000000000e+04 7.307900000000000000e+04 1.393900000000000000e+04 1.394000000000000000e+04 1.394100000000000000e+04 1.394200000000000000e+04 1.394300000000000000e+04 1.364400000000000000e+04 1.394400000000000000e+04 1.394500000000000000e+04 1.394600000000000000e+04 1.394700000000000000e+04 1.394800000000000000e+04 7.310000000000000000e+04 7.310200000000000000e+04 7.310400000000000000e+04 7.310600000000000000e+04 7.310800000000000000e+04 7.311000000000000000e+04 7.311200000000000000e+04 7.311400000000000000e+04 7.311600000000000000e+04 7.312100000000000000e+04 7.312300000000000000e+04 7.312500000000000000e+04 7.312700000000000000e+04 7.312900000000000000e+04 7.313100000000000000e+04 7.313300000000000000e+04 7.313500000000000000e+04 1.366700000000000000e+04 7.313600000000000000e+04 7.313800000000000000e+04 7.314000000000000000e+04 7.314200000000000000e+04 7.314400000000000000e+04 7.314600000000000000e+04 7.314800000000000000e+04 7.315000000000000000e+04 7.315200000000000000e+04 7.315400000000000000e+04 1.367800000000000000e+04 1.367900000000000000e+04 1.368000000000000000e+04 1.368100000000000000e+04 1.368200000000000000e+04 1.368300000000000000e+04 1.368400000000000000e+04 1.368500000000000000e+04 1.368600000000000000e+04 1.368700000000000000e+04 1.368800000000000000e+04 1.368900000000000000e+04 1.369000000000000000e+04 1.369100000000000000e+04
1.327400000000000000e+04 1.327500000000000000e+04 1.327600000000000000e+04 1.327700000000000000e+04 1.327800000000000000e+04 1.327900000000000000e+04 1.328000000000000000e+04 1.328100000000000000e+04 1.328200000000000000e+04 1.328300000000000000e+04 1.298400000000000000e+04 1.328400000000000000e+04 1.328500000000000000e+04 1.328600000000000000e+04 1.328700000000000000e+04 1.328800000000000000e+04 1.328900000000000000e+04 1.329000000000000000e+04 7.238400000000000000e+04 7.238600000000000000e+04 7.238800000000000000e+04 7.239000000000000000e+04 7.239200000000000000e+04 7.239400000000000000e+04 7.239600000000000000e+04 7.239800000000000000e+04 7.240000000000000000e+04 1.300100000000000000e+04 7.240700000000000000e+04 7.240900000000000000e+04 7.241100000000000000e+04 1.330500000000000000e+04 1.330600000000000000e+04 1.330700000000000000e+04 1.330800000000000000e+04 1.330900000000000000e+04 1.331000000000000000e+04 1.331100000000000000e+04 1.331200000000000000e+04 1.331300000000000000e+04 1.331400000000000000e+04 1.331500000000000000e+04 1.331600000000000000e+04 1.331700000000000000e+04 7.243900000000000000e+04 1.301900000000000000e+04 1.331900000000000000e+04 1.332000000000000000e+04 1.332100000000000000e+04 1.332200000000000000e+04 1.332300000000000000e+04 1.332400000000000000e+04 1.332500000000000000e+04 1.332600000000000000e+04 1.332700000000000000e+04 1.332800000000000000e+04 7.246000000000000000e+04 7.246200000000000000e+04 7.246700000000000000e+04 7.246900000000000000e+04 7.247100000000000000e+04 7.247300000000000000e+04 7.247500000000000000e+04 7.247700000000000000e+04 7.247900000000000000e+04 7.248100000000000000e+04 7.248300000000000000e+04 7.248500000000000000e+04 7.248700000000000000e+04 1.334300000000000000e+04 1.334400000000000000e+04 1.304500000000000000e+04 1.334500000000000000e+04 7.249400000000000000e+04 7.249600000000000000e+04 7.249800000000000000e+04 7.250000000000000000e+04 7.250200000000000000e+04 7.250400000000000000e+04 7.250600000000000000e+04 7.250800000000000000e+04 7.251000000000000000e+04 7.251200000000000000e+04 7.251400000000000000e+04 7.251600000000000000e+04 7.251800000000000000e+04 7.252300000000000000e+04 7.252500000000000000e+04 7.252700000000000000e+04 7.252900000000000000e+04 7.253100000000000000e+04 7.253300000000000000e+04 7.253500000000000000e+04 7.253700000000000000e+04 1.306800000000000000e+04 7.253800000000000000e+04 7.254000000000000000e+04 7.254200000000000000e+04 7.254400000000000000e+04 7.254600000000000000e+04 7.254800000000000000e+04 7.255000000000000000e+04 7.255200000000000000e+04 7.255400000000000000e+04 1.307800000000000000e+04 1.307900000000000000e+04 1.308000000000000000e+04 1.308100000000000000e+04 1.308200000000000000e+04 1.308300000000000000e+04 1.308400000000000000e+04 1.308500000000000000e+04 1.308600000000000000e+04 1.308700000000000000e+04 1.308800000000000000e+04 1.308900000000000000e+04 1.309000000000000000e+04 1.309100000000000000e+04 1.309200000000000000e+04
1.267500000000000000e+04 1.267600000000000000e+04 1.267700000000000000e+04 1.267800000000000000e+04 1.267900000000000000e+04 1.268000000000000000e+04 1.268100000000000000e+04 1.268200000000000000e+04 1.268300000000000000e+04 1.268400000000000000e+04 1.238500000000000000e+04 1.268500000000000000e+04 1.268600000000000000e+04 1.268700000000000000e+04 7.177800000000000000e+04 7.178000000000000000e+04 7.178200000000000000e+04 7.178400000000000000e+04 7.178600000000000000e+04 7.178800000000000000e+04 7.179000000000000000e+04 7.179200000000000000e+04 7.179400000000000000e+04 7.179600000000000000e+04 7.179800000000000000e+04 7.180000000000000000e+04 1.240100000000000000e+04 1.240200000000000000e+04 1.240300000000000000e+04 7.181100000000000000e+04 7.181300000000000000e+04 7.181500000000000000e+04 7.181700000000000000e+04 1.270800000000000000e+04 1.270900000000000000e+04 1.271000000000000000e+04 1.271100000000000000e+04 1.271200000000000000e+04 1.271300000000000000e+04 1.271400000000000000e+04 1.271500000000000000e+04 1.271600000000000000e+04 1.271700000000000000e+04 1.271800000000000000e+04 7.184100000000000000e+04 1.242000000000000000e+04 1.272000000000000000e+04 1.272100000000000000e+04 1.272200000000000000e+04 1.272300000000000000e+04 1.272400000000000000e+04 7.185200000000000000e+04 7.185400000000000000e+04 7.185600000000000000e+04 7.185800000000000000e+04 7.186000000000000000e+04 7.186200000000000000e+04 7.186400000000000000e+04 7.186900000000000000e+04 7.187100000000000000e+04 7.187300000000000000e+04 7.187500000000000000e+04 7.187700000000000000e+04 7.187900000000000000e+04 7.188100000000000000e+04 7.188300000000000000e+04 7.188500000000000000e+04 7.188700000000000000e+04 7.188900000000000000e+04 7.189100000000000000e+04 1.274500000000000000e+04 1.244600000000000000e+04 1.274600000000000000e+04 1.274700000000000000e+04 1.274800000000000000e+04 1.274900000000000000e+04 1.275000000000000000e+04 1.275100000000000000e+04 1.275200000000000000e+04 1.275300000000000000e+04 1.275400000000000000e+04 1.275500000000000000e+04 1.275600000000000000e+04 1.275700000000000000e+04 7.191800000000000000e+04 1.246000000000000000e+04 7.192500000000000000e+04 7.192700000000000000e+04 7.192900000000000000e+04 7.193100000000000000e+04 7.193300000000000000e+04 7.193500000000000000e+04 7.193700000000000000e+04 7.193900000000000000e+04 1.246900000000000000e+04 7.194000000000000000e+04 7.194200000000000000e+04 7.194400000000000000e+04 7.194600000000000000e+04 7.194800000000000000e+04 7.195000000000000000e+04 7.195200000000000000e+04 7.195400000000000000e+04 7.195600000000000000e+04 1.247900000000000000e+04 1.248000000000000000e+04 1.248100000000000000e+04 1.248200000000000000e+04 1.248300000000000000e+04 1.248400000000000000e+04 1.248500000000000000e+04 1.248600000000000000e+04 1.248700000000000000e+04 1.248800000000000000e+04 1.248900000000000000e+04 1.249000000000000000e+04 1.249100000000000000e+04 1.249200000000000000e+04 1.249300000000000000e+04
7.115500000000000000e+04 7.115700000000000000e+04 7.115900000000000000e+04 7.116100000000000000e+04 7.116300000000000000e+04 7.116500000000000000e+04 1.208200000000000000e+04 1.208300000000000000e+04 1.208400000000000000e+04 1.208500000000000000e+04 1.178600000000000000e+04 1.208600000000000000e+04 7.117600000000000000e+04 7.117800000000000000e+04 7.118000000000000000e+04 7.118200000000000000e+04 7.118400000000000000e+04 7.118600000000000000e+04 7.118800000000000000e+04 7.119000000000000000e+04 7.119200000000000000e+04 7.119400000000000000e+04 7.119600000000000000e+04 7.119800000000000000e+04 7.120000000000000000e+04 7.120200000000000000e+04 1.180200000000000000e+04 1.180300000000000000e+04 1.180400000000000000e+04 7.121300000000000000e+04 7.121500000000000000e+04 7.121700000000000000e+04 7.121900000000000000e+04 7.122100000000000000e+04 7.122300000000000000e+04 7.122500000000000000e+04 7.122700000000000000e+04 7.122900000000000000e+04 7.123100000000000000e+04 7.123300000000000000e+04 7.123500000000000000e+04 7.123700000000000000e+04 7.123900000000000000e+04 1.211900000000000000e+04 1.212000000000000000e+04 1.182100000000000000e+04 1.212100000000000000e+04 7.124600000000000000e+04 7.124800000000000000e+04 7.125000000000000000e+04 7.125200000000000000e+04 1.212600000000000000e+04 1.212700000000000000e+04 1.212800000000000000e+04 1.212900000000000000e+04 1.213000000000000000e+04 1.213100000000000000e+04 7.126600000000000000e+04 7.127100000000000000e+04 1.213500000000000000e+04 1.213600000000000000e+04 1.213700000000000000e+04 1.213800000000000000e+04 1.213900000000000000e+04 1.214000000000000000e+04 1.214100000000000000e+04 1.214200000000000000e+04 1.214300000000000000e+04 1.214400000000000000e+04 1.214500000000000000e+04 1.214600000000000000e+04 1.184700000000000000e+04 1.214700000000000000e+04 7.129800000000000000e+04 1.214900000000000000e+04 1.215000000000000000e+04 1.215100000000000000e+04 1.215200000000000000e+04 1.215300000000000000e+04 1.215400000000000000e+04 1.215500000000000000e+04 1.215600000000000000e+04 1.215700000000000000e+04 7.131800000000000000e+04 7.132000000000000000e+04 7.132500000000000000e+04 7.132700000000000000e+04 7.132900000000000000e+04 7.133100000000000000e+04 7.133300000000000000e+04 7.133500000000000000e+04 7.133700000000000000e+04 7.133900000000000000e+04 7.134100000000000000e+04 1.187000000000000000e+04 7.134200000000000000e+04 7.134400000000000000e+04 7.134600000000000000e+04 7.134800000000000000e+04 7.135000000000000000e+04 7.135200000000000000e+04 7.135400000000000000e+04 7.135600000000000000e+04 7.135800000000000000e+04 1.188000000000000000e+04 1.188100000000000000e+04 1.188200000000000000e+04 1.188300000000000000e+04 1.188400000000000000e+04 1.188500000000000000e+04 1.188600000000000000e+04 1.188700000000000000e+04 1.188800000000000000e+04 1.188900000000000000e+04 1.189000000000000000e+04 1.189100000000000000e+04 1.189200000000000000e+04 1.189300000000000000e+04 1.189400000000000000e+04
7.055700000000000000e+04 7.055900000000000000e+04 7.056100000000000000e+04 7.056300000000000000e+04 7.056500000000000000e+04 7.056700000000000000e+04 7.056900000000000000e+04 7.057100000000000000e+04 7.057300000000000000e+04 1.148600000000000000e+04 1.118700000000000000e+04 1.148700000000000000e+04 1.148800000000000000e+04 1.148900000000000000e+04 1.149000000000000000e+04 1.149100000000000000e+04 1.149200000000000000e+04 1.149300000000000000e+04 1.149400000000000000e+04 1.149500000000000000e+04 1.149600000000000000e+04 1.149700000000000000e+04 1.149800000000000000e+04 7.060000000000000000e+04 7.060200000000000000e+04 1.120200000000000000e+04 1.120300000000000000e+04 1.120400000000000000e+04 1.120500000000000000e+04 1.120600000000000000e+04 7.061700000000000000e+04 7.061900000000000000e+04 7.062100000000000000e+04 7.062300000000000000e+04 7.062500000000000000e+04 7.062700000000000000e+04 7.062900000000000000e+04 7.063100000000000000e+04 7.063300000000000000e+04 7.063500000000000000e+04 7.063700000000000000e+04 7.063900000000000000e+04 7.064100000000000000e+04 7.064300000000000000e+04 1.152100000000000000e+04 1.122200000000000000e+04 1.152200000000000000e+04 1.152300000000000000e+04 1.152400000000000000e+04 1.152500000000000000e+04 1.152600000000000000e+04 1.152700000000000000e+04 1.152800000000000000e+04 1.152900000000000000e+04 1.153000000000000000e+04 1.153100000000000000e+04 7.066600000000000000e+04 7.066800000000000000e+04 7.067300000000000000e+04 7.067500000000000000e+04 1.153700000000000000e+04 1.153800000000000000e+04 1.153900000000000000e+04 1.154000000000000000e+04 1.154100000000000000e+04 1.154200000000000000e+04 1.154300000000000000e+04 1.154400000000000000e+04 1.154500000000000000e+04 1.154600000000000000e+04 1.154700000000000000e+04 1.124800000000000000e+04 1.154800000000000000e+04 1.154900000000000000e+04 1.155000000000000000e+04 1.155100000000000000e+04 1.155200000000000000e+04 1.155300000000000000e+04 1.155400000000000000e+04 1.155500000000000000e+04 1.155600000000000000e+04 7.071600000000000000e+04 7.071800000000000000e+04 7.072000000000000000e+04 7.072200000000000000e+04 7.072700000000000000e+04 7.072900000000000000e+04 7.073100000000000000e+04 7.073300000000000000e+04 7.073500000000000000e+04 7.073700000000000000e+04 7.073900000000000000e+04 7.074100000000000000e+04 7.074300000000000000e+04 1.127100000000000000e+04 7.074400000000000000e+04 7.074600000000000000e+04 7.074800000000000000e+04 7.075000000000000000e+04 7.075200000000000000e+04 7.075400000000000000e+04 7.075600000000000000e+04 7.075800000000000000e+04 1.128000000000000000e+04 1.128100000000000000e+04 1.128200000000000000e+04 1.128300000000000000e+04 1.128400000000000000e+04 1.128500000000000000e+04 1.128600000000000000e+04 1.128700000000000000e+04 1.128800000000000000e+04 1.128900000000000000e+04 1.129000000000000000e+04 1.129100000000000000e+04 1.129200000000000000e+04 1.129300000000000000e+04 1.129400000000000000e+04 1.129500000000000000e+04
1.087800000000000000e+04 1.087900000000000000e+04 1.088000000000000000e+04 1.088100000000000000e+04 1.088200000000000000e+04 1.088300000000000000e+04 1.088400000000000000e+04 1.088500000000000000e+04 1.088600000000000000e+04 1.088700000000000000e+04 1.058800000000000000e+04 1.088800000000000000e+04 1.088900000000000000e+04 1.089000000000000000e+04 1.089100000000000000e+04 1.089200000000000000e+04 1.089300000000000000e+04 1.089400000000000000e+04 1.089500000000000000e+04 1.089600000000000000e+04 1.089700000000000000e+04 1.089800000000000000e+04 7.000000000000000000e+04 7.000200000000000000e+04 7.000400000000000000e+04 1.060300000000000000e+04 1.060400000000000000e+04 1.060500000000000000e+04 1.060600000000000000e+04 1.060700000000000000e+04 7.001900000000000000e+04 7.002100000000000000e+04 7.002300000000000000e+04 7.002500000000000000e+04 7.002700000000000000e+04 7.002900000000000000e+04 7.003100000000000000e+04 7.003300000000000000e+04 7.003500000000000000e+04 7.003700000000000000e+04 7.003900000000000000e+04 7.004100000000000000e+04 7.004300000000000000e+04 7.004500000000000000e+04 1.062200000000000000e+04 7.004600000000000000e+04 1.092300000000000000e+04 1.092400000000000000e+04 1.092500000000000000e+04 1.092600000000000000e+04 1.092700000000000000e+04 1.092800000000000000e+04 1.092900000000000000e+04 1.093000000000000000e+04 1.093100000000000000e+04 7.006600000000000000e+04 7.006800000000000000e+04 7.007000000000000000e+04 7.007500000000000000e+04 7.007700000000000000e+04 7.007900000000000000e+04 1.093900000000000000e+04 1.094000000000000000e+04 1.094100000000000000e+04 1.094200000000000000e+04 1.094300000000000000e+04 1.094400000000000000e+04 1.094500000000000000e+04 1.094600000000000000e+04 1.094700000000000000e+04 1.094800000000000000e+04 1.064900000000000000e+04 1.094900000000000000e+04 7.010200000000000000e+04 7.010400000000000000e+04 7.010600000000000000e+04 7.010800000000000000e+04 7.011000000000000000e+04 7.011200000000000000e+04 7.011400000000000000e+04 7.011600000000000000e+04 7.011800000000000000e+04 7.012000000000000000e+04 7.012200000000000000e+04 1.066200000000000000e+04 7.012900000000000000e+04 7.013100000000000000e+04 7.013300000000000000e+04 7.013500000000000000e+04 7.013700000000000000e+04 7.013900000000000000e+04 7.014100000000000000e+04 7.014300000000000000e+04 7.014500000000000000e+04 1.067200000000000000e+04 7.014600000000000000e+04 7.014800000000000000e+04 7.015000000000000000e+04 7.015200000000000000e+04 7.015400000000000000e+04 7.015600000000000000e+04 7.015800000000000000e+04 7.016000000000000000e+04 1.068100000000000000e+04 1.068200000000000000e+04 1.068300000000000000e+04 1.068400000000000000e+04 1.068500000000000000e+04 1.068600000000000000e+04 1.068700000000000000e+04 1.068800000000000000e+04 1.068900000000000000e+04 1.069000000000000000e+04 1.069100000000000000e+04 1.069200000000000000e+04 1.069300000000000000e+04 1.069400000000000000e+04 1.069500000000000000e+04 1.069600000000000000e+04
1.027900000000000000e+04 1.028000000000000000e+04 1.028100000000000000e+04 1.028200000000000000e+04 1.028300000000000000e+04 1.028400000000000000e+04 1.028500000000000000e+04 1.028600000000000000e+04 1.028700000000000000e+04 1.028800000000000000e+04 9.989000000000000000e+03 1.028900000000000000e+04 1.029000000000000000e+04 1.029100000000000000e+04 1.029200000000000000e+04 1.029300000000000000e+04 1.029400000000000000e+04 1.029500000000000000e+04 1.029600000000000000e+04 1.029700000000000000e+04 1.029800000000000000e+04 6.940000000000000000e+04 6.940200000000000000e+04 6.940400000000000000e+04 1.000300000000000000e+04 1.000400000000000000e+04 1.000500000000000000e+04 1.000600000000000000e+04 1.000700000000000000e+04 1.000800000000000000e+04 6.942100000000000000e+04 6.942300000000000000e+04 6.942500000000000000e+04 6.942700000000000000e+04 6.942900000000000000e+04 6.943100000000000000e+04 6.943300000000000000e+04 6.943500000000000000e+04 6.943700000000000000e+04 6.943900000000000000e+04 6.944100000000000000e+04 6.944300000000000000e+04 6.944500000000000000e+04 1.032200000000000000e+04 1.002300000000000000e+04 6.944800000000000000e+04 1.032400000000000000e+04 1.032500000000000000e+04 1.032600000000000000e+04 1.032700000000000000e+04 1.032800000000000000e+04 1.032900000000000000e+04 1.033000000000000000e+04 1.033100000000000000e+04 1.033200000000000000e+04 1.033300000000000000e+04 6.947000000000000000e+04 1.003600000000000000e+04 1.003700000000000000e+04 6.947900000000000000e+04 6.948100000000000000e+04 6.948300000000000000e+04 6.948500000000000000e+04 1.034200000000000000e+04 1.034300000000000000e+04 1.034400000000000000e+04 1.034500000000000000e+04 1.034600000000000000e+04 1.034700000000000000e+04 1.034800000000000000e+04 1.034900000000000000e+04 1.005000000000000000e+04 1.035000000000000000e+04 1.035100000000000000e+04 1.035200000000000000e+04 1.035300000000000000e+04 1.035400000000000000e+04 1.035500000000000000e+04 1.035600000000000000e+04 1.035700000000000000e+04 1.035800000000000000e+04 6.952000000000000000e+04 6.952200000000000000e+04 6.952400000000000000e+04 1.006300000000000000e+04 6.953100000000000000e+04 6.953300000000000000e+04 6.953500000000000000e+04 6.953700000000000000e+04 6.953900000000000000e+04 6.954100000000000000e+04 6.954300000000000000e+04 6.954500000000000000e+04 6.954700000000000000e+04 1.007300000000000000e+04 6.954800000000000000e+04 6.955000000000000000e+04 6.955200000000000000e+04 6.955400000000000000e+04 6.955600000000000000e+04 6.955800000000000000e+04 6.956000000000000000e+04 6.956200000000000000e+04 1.008200000000000000e+04 1.008300000000000000e+04 1.008400000000000000e+04 1.008500000000000000e+04 1.008600000000000000e+04 1.008700000000000000e+04 1.008800000000000000e+04 1.008900000000000000e+04 1.009000000000000000e+04 1.009100000000000000e+04 1.009200000000000000e+04 1.009300000000000000e+04 1.009400000000000000e+04 1.009500000000000000e+04 1.009600000000000000e+04 1.009700000000000000e+04
