ncols 119
nrows 32
xllcorner 420
yllcorner 560
cellsize 10.0
1.500000000000000000e+02 1.000000000000000000e+02 5.000000000000000000e+01 3.500000000000000000e+02 4.500000000000000000e+02 5.500000000000000000e+02 6.000000000000000000e+02 6.000000000000000000e+02 6.000000000000000000e+02 6.000000000000000000e+02 6.000000000000000000e+02 6.000000000000000000e+02 6.000000000000000000e+02 6.000000000000000000e+02 6.000000000000000000e+02 6.000000000000000000e+02 6.000000000000000000e+02 6.000000000000000000e+02 6.000000000000000000e+02 6.000000000000000000e+02 6.000000000000000000e+02 6.000000000000000000e+02 6.000000000000000000e+02 6.000000000000000000e+02 6.000000000000000000e+02 6.000000000000000000e+02 6.000000000000000000e+02 6.000000000000000000e+02 6.000000000000000000e+02 6.000000000000000000e+02 6.000000000000000000e+02 6.000000000000000000e+02 6.500000000000000000e+02 6.000000000000000000e+02 6.000000000000000000e+02 6.000000000000000000e+02 3.800000000000000000e+03 5.000000000000000000e+02 4.500000000000000000e+02 4.000000000000000000e+02 3.500000000000000000e+02 3.000000000000000000e+02 2.500000000000000000e+02 2.000000000000000000e+02 1.500000000000000000e+02 1.000000000000000000e+02 5.000000000000000000e+01 5.500000000000000000e+02 5.000000000000000000e+01 1.000000000000000000e+02 1.500000000000000000e+02 2.000000000000000000e+02 2.500000000000000000e+02 3.000000000000000000e+02 3.500000000000000000e+02 4.000000000000000000e+02 4.500000000000000000e+02 5.000000000000000000e+02 6.000000000000000000e+02 6.000000000000000000e+02 6.000000000000000000e+02 6.000000000000000000e+02 6.000000000000000000e+02 6.000000000000000000e+02 6.000000000000000000e+02 6.000000000000000000e+02 6.000000000000000000e+02 3.900000000000000000e+03 6.000000000000000000e+02 3.900000000000000000e+03 6.000000000000000000e+02 6.000000000000000000e+02 6.000000000000000000e+02 6.000000000000000000e+02 6.000000000000000000e+02 6.000000000000000000e+02 6.000000000000000000e+02 6.000000000000000000e+02 5.000000000000000000e+02 4.000000000000000000e+02 3.500000000000000000e+02 2.500000000000000000e+02 2.000000000000000000e+02 1.500000000000000000e+02 5.000000000000000000e+01 1.000000000000000000e+02 3.000000000000000000e+02 4.500000000000000000e+02 5.500000000000000000e+02 6.000000000000000000e+02 6.000000000000000000e+02 6.000000000000000000e+02 6.000000000000000000e+02 6.000000000000000000e+02 6.000000000000000000e+02 6.000000000000000000e+02 6.000000000000000000e+02 6.000000000000000000e+02 6.000000000000000000e+02 6.000000000000000000e+02 6.000000000000000000e+02 6.000000000000000000e+02 6.000000000000000000e+02 6.000000000000000000e+02 6.000000000000000000e+02 6.000000000000000000e+02 6.000000000000000000e+02 6.000000000000000000e+02 6.000000000000000000e+02 5.500000000000000000e+02 4.500000000000000000e+02 3.000000000000000000e+02 5.000000000000000000e+01 1.000000000000000000e+02 1.500000000000000000e+02 2.000000000000000000e+02 2.500000000000000000e+02 3.500000000000000000e+02 4.000000000000000000e+02
1.500000000000000000e+02 5.000000000000000000e+01 1.000000000000000000e+02 4.000000000000000000e+02 5.000000000000000000e+02 6.000000000000000000e+02 6.500000000000000000e+02 6.500000000000000000e+02 6.500000000000000000e+02 6.500000000000000000e+02 6.500000000000000000e+02 6.500000000000000000e+02 6.500000000000000000e+02 6.500000000000000000e+02 6.500000000000000000e+02 6.500000000000000000e+02 6.500000000000000000e+02 6.500000000000000000e+02 6.500000000000000000e+02 6.500000000000000000e+02 6.500000000000000000e+02 6.500000000000000000e+02 6.500000000000000000e+02 6.500000000000000000e+02 6.500000000000000000e+02 6.500000000000000000e+02 6.500000000000000000e+02 6.500000000000000000e+02 6.500000000000000000e+02 6.500000000000000000e+02 6.500000000000000000e+02 6.500000000000000000e+02 7.000000000000000000e+02 6.500000000000000000e+02 6.500000000000000000e+02 6.500000000000000000e+02 4.350000000000000000e+03 5.000000000000000000e+02 4.500000000000000000e+02 4.000000000000000000e+02 3.500000000000000000e+02 3.000000000000000000e+02 2.500000000000000000e+02 2.000000000000000000e+02 1.500000000000000000e+02 1.000000000000000000e+02 5.000000000000000000e+01 6.000000000000000000e+02 5.000000000000000000e+01 1.000000000000000000e+02 1.500000000000000000e+02 2.000000000000000000e+02 2.500000000000000000e+02 3.000000000000000000e+02 3.500000000000000000e+02 4.000000000000000000e+02 4.500000000000000000e+02 5.000000000000000000e+02 5.500000000000000000e+02 6.500000000000000000e+02 6.500000000000000000e+02 6.500000000000000000e+02 6.500000000000000000e+02 6.500000000000000000e+02 6.500000000000000000e+02 6.500000000000000000e+02 6.500000000000000000e+02 4.550000000000000000e+03 4.550000000000000000e+03 6.500000000000000000e+02 6.500000000000000000e+02 6.500000000000000000e+02 6.500000000000000000e+02 6.500000000000000000e+02 6.500000000000000000e+02 6.500000000000000000e+02 6.500000000000000000e+02 5.500000000000000000e+02 4.500000000000000000e+02 4.000000000000000000e+02 3.000000000000000000e+02 2.500000000000000000e+02 2.000000000000000000e+02 1.000000000000000000e+02 5.000000000000000000e+01 1.500000000000000000e+02 3.500000000000000000e+02 5.000000000000000000e+02 6.000000000000000000e+02 6.500000000000000000e+02 6.500000000000000000e+02 6.500000000000000000e+02 6.500000000000000000e+02 6.500000000000000000e+02 6.500000000000000000e+02 6.500000000000000000e+02 6.500000000000000000e+02 6.500000000000000000e+02 6.500000000000000000e+02 6.500000000000000000e+02 6.500000000000000000e+02 6.500000000000000000e+02 6.500000000000000000e+02 6.500000000000000000e+02 6.500000000000000000e+02 6.500000000000000000e+02 6.500000000000000000e+02 6.500000000000000000e+02 6.500000000000000000e+02 1.050000000000000000e+03 5.000000000000000000e+01 3.500000000000000000e+02 5.000000000000000000e+01 1.000000000000000000e+02 1.500000000000000000e+02 2.000000000000000000e+02 2.500000000000000000e+02 3.000000000000000000e+02 4.000000000000000000e+02
1.000000000000000000e+02 5.000000000000000000e+01 1.500000000000000000e+02 4.500000000000000000e+02 5.500000000000000000e+02 6.500000000000000000e+02 7.000000000000000000e+02 7.000000000000000000e+02 7.000000000000000000e+02 7.000000000000000000e+02 7.000000000000000000e+02 7.000000000000000000e+02 7.000000000000000000e+02 7.000000000000000000e+02 7.000000000000000000e+02 7.000000000000000000e+02 7.000000000000000000e+02 7.000000000000000000e+02 7.000000000000000000e+02 7.000000000000000000e+02 7.000000000000000000e+02 7.000000000000000000e+02 7.000000000000000000e+02 7.000000000000000000e+02 7.000000000000000000e+02 7.000000000000000000e+02 7.000000000000000000e+02 7.000000000000000000e+02 7.000000000000000000e+02 7.000000000000000000e+02 7.000000000000000000e+02 7.000000000000000000e+02 7.500000000000000000e+02 7.000000000000000000e+02 7.000000000000000000e+02 7.000000000000000000e+02 4.900000000000000000e+03 5.000000000000000000e+02 4.500000000000000000e+02 4.000000000000000000e+02 3.500000000000000000e+02 3.000000000000000000e+02 2.500000000000000000e+02 2.000000000000000000e+02 1.500000000000000000e+02 1.000000000000000000e+02 6.500000000000000000e+02 5.000000000000000000e+01 5.000000000000000000e+01 1.000000000000000000e+02 1.500000000000000000e+02 2.000000000000000000e+02 2.500000000000000000e+02 3.000000000000000000e+02 3.500000000000000000e+02 4.000000000000000000e+02 4.500000000000000000e+02 5.000000000000000000e+02 5.500000000000000000e+02 6.000000000000000000e+02 7.000000000000000000e+02 7.000000000000000000e+02 7.000000000000000000e+02 7.000000000000000000e+02 7.000000000000000000e+02 7.000000000000000000e+02 7.000000000000000000e+02 5.250000000000000000e+03 5.250000000000000000e+03 7.000000000000000000e+02 7.000000000000000000e+02 7.000000000000000000e+02 7.000000000000000000e+02 7.000000000000000000e+02 7.000000000000000000e+02 7.000000000000000000e+02 6.000000000000000000e+02 5.000000000000000000e+02 4.500000000000000000e+02 3.500000000000000000e+02 3.000000000000000000e+02 2.500000000000000000e+02 1.500000000000000000e+02 1.000000000000000000e+02 5.000000000000000000e+01 2.000000000000000000e+02 4.000000000000000000e+02 5.500000000000000000e+02 6.500000000000000000e+02 7.000000000000000000e+02 7.000000000000000000e+02 7.000000000000000000e+02 7.000000000000000000e+02 7.000000000000000000e+02 7.000000000000000000e+02 7.000000000000000000e+02 7.000000000000000000e+02 7.000000000000000000e+02 7.000000000000000000e+02 7.000000000000000000e+02 7.000000000000000000e+02 7.000000000000000000e+02 7.000000000000000000e+02 7.000000000000000000e+02 7.000000000000000000e+02 7.000000000000000000e+02 7.000000000000000000e+02 7.000000000000000000e+02 7.000000000000000000e+02 1.150000000000000000e+03 5.000000000000000000e+01 4.000000000000000000e+02 5.000000000000000000e+01 1.000000000000000000e+02 1.500000000000000000e+02 2.000000000000000000e+02 2.500000000000000000e+02 3.000000000000000000e+02 3.500000000000000000e+02
1.000000000000000000e+02 5.000000000000000000e+01 2.000000000000000000e+02 5.000000000000000000e+02 6.000000000000000000e+02 7.000000000000000000e+02 7.500000000000000000e+02 7.500000000000000000e+02 7.500000000000000000e+02 7.500000000000000000e+02 7.500000000000000000e+02 7.500000000000000000e+02 7.500000000000000000e+02 7.500000000000000000e+02 7.500000000000000000e+02 7.500000000000000000e+02 7.500000000000000000e+02 7.500000000000000000e+02 7.500000000000000000e+02 7.500000000000000000e+02 7.500000000000000000e+02 7.500000000000000000e+02 7.500000000000000000e+02 7.500000000000000000e+02 7.500000000000000000e+02 7.500000000000000000e+02 7.500000000000000000e+02 7.500000000000000000e+02 7.500000000000000000e+02 7.500000000000000000e+02 7.500000000000000000e+02 7.500000000000000000e+02 8.000000000000000000e+02 7.500000000000000000e+02 7.500000000000000000e+02 5.650000000000000000e+03 5.500000000000000000e+02 5.000000000000000000e+02 4.500000000000000000e+02 4.000000000000000000e+02 3.500000000000000000e+02 3.000000000000000000e+02 2.500000000000000000e+02 2.000000000000000000e+02 1.500000000000000000e+02 7.000000000000000000e+02 5.000000000000000000e+01 1.000000000000000000e+02 5.000000000000000000e+01 1.000000000000000000e+02 1.500000000000000000e+02 2.000000000000000000e+02 2.500000000000000000e+02 3.000000000000000000e+02 3.500000000000000000e+02 4.000000000000000000e+02 4.500000000000000000e+02 5.000000000000000000e+02 5.500000000000000000e+02 6.000000000000000000e+02 6.500000000000000000e+02 7.500000000000000000e+02 7.500000000000000000e+02 7.500000000000000000e+02 7.500000000000000000e+02 7.500000000000000000e+02 7.500000000000000000e+02 1.125000000000000000e+04 7.500000000000000000e+02 7.500000000000000000e+02 7.500000000000000000e+02 7.500000000000000000e+02 7.500000000000000000e+02 7.500000000000000000e+02 7.500000000000000000e+02 6.500000000000000000e+02 5.500000000000000000e+02 5.000000000000000000e+02 4.000000000000000000e+02 3.500000000000000000e+02 3.000000000000000000e+02 2.000000000000000000e+02 1.500000000000000000e+02 1.000000000000000000e+02 5.000000000000000000e+01 2.500000000000000000e+02 4.500000000000000000e+02 6.000000000000000000e+02 7.000000000000000000e+02 7.500000000000000000e+02 7.500000000000000000e+02 7.500000000000000000e+02 7.500000000000000000e+02 7.500000000000000000e+02 7.500000000000000000e+02 7.500000000000000000e+02 7.500000000000000000e+02 5.000000000000000000e+01 1.450000000000000000e+03 7.500000000000000000e+02 7.500000000000000000e+02 7.500000000000000000e+02 7.500000000000000000e+02 7.500000000000000000e+02 7.500000000000000000e+02 7.500000000000000000e+02 7.500000000000000000e+02 7.500000000000000000e+02 7.500000000000000000e+02 1.250000000000000000e+03 5.000000000000000000e+01 4.500000000000000000e+02 5.000000000000000000e+01 1.000000000000000000e+02 1.500000000000000000e+02 2.000000000000000000e+02 2.500000000000000000e+02 3.000000000000000000e+02 3.500000000000000000e+02
1.000000000000000000e+02 5.000000000000000000e+01 2.500000000000000000e+02 5.500000000000000000e+02 6.500000000000000000e+02 7.500000000000000000e+02 8.000000000000000000e+02 8.000000000000000000e+02 8.000000000000000000e+02 8.000000000000000000e+02 8.000000000000000000e+02 8.000000000000000000e+02 8.000000000000000000e+02 8.000000000000000000e+02 8.000000000000000000e+02 8.000000000000000000e+02 8.000000000000000000e+02 8.000000000000000000e+02 8.000000000000000000e+02 8.000000000000000000e+02 8.000000000000000000e+02 8.000000000000000000e+02 8.000000000000000000e+02 8.000000000000000000e+02 8.000000000000000000e+02 8.000000000000000000e+02 8.000000000000000000e+02 8.000000000000000000e+02 8.000000000000000000e+02 8.000000000000000000e+02 8.000000000000000000e+02 8.000000000000000000e+02 8.500000000000000000e+02 8.000000000000000000e+02 8.000000000000000000e+02 6.250000000000000000e+03 5.500000000000000000e+02 5.000000000000000000e+02 4.500000000000000000e+02 4.000000000000000000e+02 3.500000000000000000e+02 3.000000000000000000e+02 2.500000000000000000e+02 2.000000000000000000e+02 7.500000000000000000e+02 1.000000000000000000e+02 5.000000000000000000e+01 1.500000000000000000e+02 5.000000000000000000e+01 1.000000000000000000e+02 1.500000000000000000e+02 2.000000000000000000e+02 2.500000000000000000e+02 3.000000000000000000e+02 3.500000000000000000e+02 4.000000000000000000e+02 4.500000000000000000e+02 5.000000000000000000e+02 5.500000000000000000e+02 6.000000000000000000e+02 6.500000000000000000e+02 7.000000000000000000e+02 8.000000000000000000e+02 8.000000000000000000e+02 8.000000000000000000e+02 8.000000000000000000e+02 8.000000000000000000e+02 1.280000000000000000e+04 8.000000000000000000e+02 8.000000000000000000e+02 8.000000000000000000e+02 8.000000000000000000e+02 8.000000000000000000e+02 8.000000000000000000e+02 7.000000000000000000e+02 6.000000000000000000e+02 5.500000000000000000e+02 4.500000000000000000e+02 4.000000000000000000e+02 3.500000000000000000e+02 2.500000000000000000e+02 2.000000000000000000e+02 1.500000000000000000e+02 1.000000000000000000e+02 5.000000000000000000e+01 3.000000000000000000e+02 5.000000000000000000e+01 1.100000000000000000e+03 7.500000000000000000e+02 8.000000000000000000e+02 8.000000000000000000e+02 8.000000000000000000e+02 8.000000000000000000e+02 8.000000000000000000e+02 8.000000000000000000e+02 8.000000000000000000e+02 8.000000000000000000e+02 5.000000000000000000e+01 1.550000000000000000e+03 8.000000000000000000e+02 8.000000000000000000e+02 8.000000000000000000e+02 8.000000000000000000e+02 8.000000000000000000e+02 8.000000000000000000e+02 8.000000000000000000e+02 8.000000000000000000e+02 8.000000000000000000e+02 8.000000000000000000e+02 1.350000000000000000e+03 5.000000000000000000e+01 5.000000000000000000e+02 5.000000000000000000e+01 1.000000000000000000e+02 1.500000000000000000e+02 2.000000000000000000e+02 2.500000000000000000e+02 3.000000000000000000e+02 3.500000000000000000e+02
1.000000000000000000e+02 5.000000000000000000e+01 3.000000000000000000e+02 6.000000000000000000e+02 7.000000000000000000e+02 8.000000000000000000e+02 8.500000000000000000e+02 8.500000000000000000e+02 8.500000000000000000e+02 8.500000000000000000e+02 8.500000000000000000e+02 8.500000000000000000e+02 8.500000000000000000e+02 8.500000000000000000e+02 8.500000000000000000e+02 8.500000000000000000e+02 8.500000000000000000e+02 8.500000000000000000e+02 8.500000000000000000e+02 8.500000000000000000e+02 8.500000000000000000e+02 8.500000000000000000e+02 8.500000000000000000e+02 8.500000000000000000e+02 8.500000000000000000e+02 8.500000000000000000e+02 8.500000000000000000e+02 8.500000000000000000e+02 8.500000000000000000e+02 8.500000000000000000e+02 8.500000000000000000e+02 8.500000000000000000e+02 9.000000000000000000e+02 8.500000000000000000e+02 7.100000000000000000e+03 6.000000000000000000e+02 5.500000000000000000e+02 5.000000000000000000e+02 4.500000000000000000e+02 4.000000000000000000e+02 3.500000000000000000e+02 3.000000000000000000e+02 2.500000000000000000e+02 8.000000000000000000e+02 1.500000000000000000e+02 1.000000000000000000e+02 5.000000000000000000e+01 2.000000000000000000e+02 5.000000000000000000e+01 1.000000000000000000e+02 1.500000000000000000e+02 2.000000000000000000e+02 2.500000000000000000e+02 3.000000000000000000e+02 3.500000000000000000e+02 4.000000000000000000e+02 4.500000000000000000e+02 5.000000000000000000e+02 5.500000000000000000e+02 6.000000000000000000e+02 6.500000000000000000e+02 7.000000000000000000e+02 7.500000000000000000e+02 8.500000000000000000e+02 8.500000000000000000e+02 8.500000000000000000e+02 8.500000000000000000e+02 1.445000000000000000e+04 8.500000000000000000e+02 8.500000000000000000e+02 8.500000000000000000e+02 8.500000000000000000e+02 8.500000000000000000e+02 7.500000000000000000e+02 6.500000000000000000e+02 6.000000000000000000e+02 5.000000000000000000e+02 4.500000000000000000e+02 4.000000000000000000e+02 3.000000000000000000e+02 2.500000000000000000e+02 2.000000000000000000e+02 1.500000000000000000e+02 1.000000000000000000e+02 5.000000000000000000e+01 5.000000000000000000e+01 4.000000000000000000e+02 1.150000000000000000e+03 8.000000000000000000e+02 8.500000000000000000e+02 8.500000000000000000e+02 8.500000000000000000e+02 8.500000000000000000e+02 8.500000000000000000e+02 8.500000000000000000e+02 8.500000000000000000e+02 8.500000000000000000e+02 5.000000000000000000e+01 1.650000000000000000e+03 5.000000000000000000e+01 1.650000000000000000e+03 8.500000000000000000e+02 8.500000000000000000e+02 8.500000000000000000e+02 8.500000000000000000e+02 8.500000000000000000e+02 8.500000000000000000e+02 8.500000000000000000e+02 2.200000000000000000e+03 1.000000000000000000e+02 5.000000000000000000e+01 5.500000000000000000e+02 5.000000000000000000e+01 1.000000000000000000e+02 1.500000000000000000e+02 2.000000000000000000e+02 2.500000000000000000e+02 3.000000000000000000e+02 3.500000000000000000e+02
1.000000000000000000e+02 5.000000000000000000e+01 3.500000000000000000e+02 6.500000000000000000e+02 7.500000000000000000e+02 5.000000000000000000e+01 1.700000000000000000e+03 9.000000000000000000e+02 9.000000000000000000e+02 9.000000000000000000e+02 9.000000000000000000e+02 9.000000000000000000e+02 9.000000000000000000e+02 9.000000000000000000e+02 9.000000000000000000e+02 9.000000000000000000e+02 9.000000000000000000e+02 9.000000000000000000e+02 9.000000000000000000e+02 9.000000000000000000e+02 9.000000000000000000e+02 9.000000000000000000e+02 9.000000000000000000e+02 9.000000000000000000e+02 9.000000000000000000e+02 9.000000000000000000e+02 9.000000000000000000e+02 9.000000000000000000e+02 9.000000000000000000e+02 9.000000000000000000e+02 9.000000000000000000e+02 9.000000000000000000e+02 9.500000000000000000e+02 9.000000000000000000e+02 7.750000000000000000e+03 6.000000000000000000e+02 5.500000000000000000e+02 5.000000000000000000e+02 4.500000000000000000e+02 4.000000000000000000e+02 3.500000000000000000e+02 3.000000000000000000e+02 8.500000000000000000e+02 2.000000000000000000e+02 1.500000000000000000e+02 1.000000000000000000e+02 5.000000000000000000e+01 2.500000000000000000e+02 5.000000000000000000e+01 1.000000000000000000e+02 1.500000000000000000e+02 2.000000000000000000e+02 2.500000000000000000e+02 3.000000000000000000e+02 3.500000000000000000e+02 4.000000000000000000e+02 4.500000000000000000e+02 5.000000000000000000e+02 5.500000000000000000e+02 6.000000000000000000e+02 6.500000000000000000e+02 7.000000000000000000e+02 7.500000000000000000e+02 8.000000000000000000e+02 9.000000000000000000e+02 9.000000000000000000e+02 9.000000000000000000e+02 1.620000000000000000e+04 9.000000000000000000e+02 9.000000000000000000e+02 9.000000000000000000e+02 9.000000000000000000e+02 8.000000000000000000e+02 7.000000000000000000e+02 6.500000000000000000e+02 5.500000000000000000e+02 5.000000000000000000e+02 4.500000000000000000e+02 3.500000000000000000e+02 3.000000000000000000e+02 2.500000000000000000e+02 2.000000000000000000e+02 1.500000000000000000e+02 1.000000000000000000e+02 5.000000000000000000e+01 1.000000000000000000e+02 5.000000000000000000e+01 1.600000000000000000e+03 8.500000000000000000e+02 9.000000000000000000e+02 9.000000000000000000e+02 9.000000000000000000e+02 9.000000000000000000e+02 9.000000000000000000e+02 9.000000000000000000e+02 9.000000000000000000e+02 9.000000000000000000e+02 5.000000000000000000e+01 1.750000000000000000e+03 5.000000000000000000e+01 1.750000000000000000e+03 9.000000000000000000e+02 9.000000000000000000e+02 9.000000000000000000e+02 9.000000000000000000e+02 9.000000000000000000e+02 9.000000000000000000e+02 9.000000000000000000e+02 2.350000000000000000e+03 1.000000000000000000e+02 5.000000000000000000e+01 6.000000000000000000e+02 5.000000000000000000e+01 1.000000000000000000e+02 1.500000000000000000e+02 2.000000000000000000e+02 2.500000000000000000e+02 3.000000000000000000e+02 3.500000000000000000e+02
5.000000000000000000e+01 1.000000000000000000e+02 4.000000000000000000e+02 7.000000000000000000e+02 8.000000000000000000e+02 5.000000000000000000e+01 1.800000000000000000e+03 9.500000000000000000e+02 9.500000000000000000e+02 9.500000000000000000e+02 9.500000000000000000e+02 9.500000000000000000e+02 9.500000000000000000e+02 9.500000000000000000e+02 9.500000000000000000e+02 9.500000000000000000e+02 9.500000000000000000e+02 9.500000000000000000e+02 9.500000000000000000e+02 9.500000000000000000e+02 1.850000000000000000e+03 5.000000000000000000e+01 9.500000000000000000e+02 9.500000000000000000e+02 9.500000000000000000e+02 9.500000000000000000e+02 9.500000000000000000e+02 9.500000000000000000e+02 9.500000000000000000e+02 9.500000000000000000e+02 9.500000000000000000e+02 9.500000000000000000e+02 1.000000000000000000e+03 9.500000000000000000e+02 8.400000000000000000e+03 6.000000000000000000e+02 5.500000000000000000e+02 5.000000000000000000e+02 4.500000000000000000e+02 4.000000000000000000e+02 3.500000000000000000e+02 9.000000000000000000e+02 2.500000000000000000e+02 2.000000000000000000e+02 1.500000000000000000e+02 1.000000000000000000e+02 5.000000000000000000e+01 5.000000000000000000e+01 3.000000000000000000e+02 1.000000000000000000e+02 1.500000000000000000e+02 2.000000000000000000e+02 2.500000000000000000e+02 3.000000000000000000e+02 3.500000000000000000e+02 4.000000000000000000e+02 4.500000000000000000e+02 5.000000000000000000e+02 5.500000000000000000e+02 6.000000000000000000e+02 6.500000000000000000e+02 7.000000000000000000e+02 7.500000000000000000e+02 8.000000000000000000e+02 8.500000000000000000e+02 9.500000000000000000e+02 9.500000000000000000e+02 1.805000000000000000e+04 9.500000000000000000e+02 9.500000000000000000e+02 9.500000000000000000e+02 8.500000000000000000e+02 7.500000000000000000e+02 7.000000000000000000e+02 6.000000000000000000e+02 5.500000000000000000e+02 5.000000000000000000e+02 4.000000000000000000e+02 3.500000000000000000e+02 3.000000000000000000e+02 2.500000000000000000e+02 2.000000000000000000e+02 1.500000000000000000e+02 1.000000000000000000e+02 5.000000000000000000e+01 5.000000000000000000e+01 1.500000000000000000e+02 1.700000000000000000e+03 9.000000000000000000e+02 9.500000000000000000e+02 9.500000000000000000e+02 9.500000000000000000e+02 9.500000000000000000e+02 9.500000000000000000e+02 9.500000000000000000e+02 9.500000000000000000e+02 9.500000000000000000e+02 5.000000000000000000e+01 1.850000000000000000e+03 5.000000000000000000e+01 1.850000000000000000e+03 9.500000000000000000e+02 9.500000000000000000e+02 9.500000000000000000e+02 9.500000000000000000e+02 9.500000000000000000e+02 9.500000000000000000e+02 9.500000000000000000e+02 2.500000000000000000e+03 1.000000000000000000e+02 5.000000000000000000e+01 6.500000000000000000e+02 5.000000000000000000e+01 1.000000000000000000e+02 1.500000000000000000e+02 2.000000000000000000e+02 2.500000000000000000e+02 3.000000000000000000e+02 3.500000000000000000e+02
5.000000000000000000e+01 1.500000000000000000e+02 4.500000000000000000e+02 7.500000000000000000e+02 8.500000000000000000e+02 5.000000000000000000e+01 1.900000000000000000e+03 1.000000000000000000e+03 1.000000000000000000e+03 1.000000000000000000e+03 1.000000000000000000e+03 1.000000000000000000e+03 1.000000000000000000e+03 1.000000000000000000e+03 1.000000000000000000e+03 1.000000000000000000e+03 1.000000000000000000e+03 1.000000000000000000e+03 1.000000000000000000e+03 1.000000000000000000e+03 1.950000000000000000e+03 5.000000000000000000e+01 1.000000000000000000e+03 1.000000000000000000e+03 1.000000000000000000e+03 1.000000000000000000e+03 1.000000000000000000e+03 1.000000000000000000e+03 1.000000000000000000e+03 1.000000000000000000e+03 1.000000000000000000e+03 1.000000000000000000e+03 1.050000000000000000e+03 9.400000000000000000e+03 6.500000000000000000e+02 6.000000000000000000e+02 5.500000000000000000e+02 5.000000000000000000e+02 2.800000000000000000e+03 2.350000000000000000e+03 1.950000000000000000e+03 1.000000000000000000e+03 7.000000000000000000e+02 4.500000000000000000e+02 2.500000000000000000e+02 1.000000000000000000e+02 5.000000000000000000e+01 5.000000000000000000e+01 1.000000000000000000e+02 3.500000000000000000e+02 1.500000000000000000e+02 2.000000000000000000e+02 2.500000000000000000e+02 3.000000000000000000e+02 3.500000000000000000e+02 4.000000000000000000e+02 4.500000000000000000e+02 5.000000000000000000e+02 5.500000000000000000e+02 6.000000000000000000e+02 6.500000000000000000e+02 7.000000000000000000e+02 7.500000000000000000e+02 8.000000000000000000e+02 8.500000000000000000e+02 9.000000000000000000e+02 1.000000000000000000e+03 2.000000000000000000e+04 1.000000000000000000e+03 1.000000000000000000e+03 9.000000000000000000e+02 8.000000000000000000e+02 7.500000000000000000e+02 6.500000000000000000e+02 6.000000000000000000e+02 5.500000000000000000e+02 4.500000000000000000e+02 4.000000000000000000e+02 3.500000000000000000e+02 3.000000000000000000e+02 2.500000000000000000e+02 2.000000000000000000e+02 1.500000000000000000e+02 1.000000000000000000e+02 5.000000000000000000e+01 5.000000000000000000e+01 1.000000000000000000e+02 1.900000000000000000e+03 9.500000000000000000e+02 1.000000000000000000e+03 1.000000000000000000e+03 1.000000000000000000e+03 1.000000000000000000e+03 1.000000000000000000e+03 1.000000000000000000e+03 1.000000000000000000e+03 5.000000000000000000e+01 1.000000000000000000e+03 1.950000000000000000e+03 5.000000000000000000e+01 1.950000000000000000e+03 1.000000000000000000e+03 1.000000000000000000e+03 1.000000000000000000e+03 1.000000000000000000e+03 1.000000000000000000e+03 1.000000000000000000e+03 3.500000000000000000e+03 1.500000000000000000e+02 1.000000000000000000e+02 5.000000000000000000e+01 7.000000000000000000e+02 5.000000000000000000e+01 1.000000000000000000e+02 1.500000000000000000e+02 2.000000000000000000e+02 2.500000000000000000e+02 3.000000000000000000e+02 3.500000000000000000e+02
5.000000000000000000e+01 2.000000000000000000e+02 5.000000000000000000e+02 8.000000000000000000e+02 9.000000000000000000e+02 5.000000000000000000e+01 1.000000000000000000e+02 2.950000000000000000e+03 1.050000000000000000e+03 1.050000000000000000e+03 1.050000000000000000e+03 1.050000000000000000e+03 1.050000000000000000e+03 1.050000000000000000e+03 1.050000000000000000e+03 1.050000000000000000e+03 1.050000000000000000e+03 1.050000000000000000e+03 1.050000000000000000e+03 1.050000000000000000e+03 2.050000000000000000e+03 5.000000000000000000e+01 1.050000000000000000e+03 1.050000000000000000e+03 1.050000000000000000e+03 1.050000000000000000e+03 1.050000000000000000e+03 1.050000000000000000e+03 1.050000000000000000e+03 1.050000000000000000e+03 1.050000000000000000e+03 1.050000000000000000e+03 1.100000000000000000e+03 1.010000000000000000e+04 6.500000000000000000e+02 6.000000000000000000e+02 3.850000000000000000e+03 3.300000000000000000e+03 4.500000000000000000e+02 4.000000000000000000e+02 3.500000000000000000e+02 3.000000000000000000e+02 2.500000000000000000e+02 2.000000000000000000e+02 1.500000000000000000e+02 1.000000000000000000e+02 5.000000000000000000e+01 5.000000000000000000e+01 1.000000000000000000e+02 1.500000000000000000e+02 4.000000000000000000e+02 2.000000000000000000e+02 2.500000000000000000e+02 3.000000000000000000e+02 3.500000000000000000e+02 4.000000000000000000e+02 4.500000000000000000e+02 5.000000000000000000e+02 5.500000000000000000e+02 6.000000000000000000e+02 6.500000000000000000e+02 7.000000000000000000e+02 7.500000000000000000e+02 8.000000000000000000e+02 8.500000000000000000e+02 9.000000000000000000e+02 9.500000000000000000e+02 2.205000000000000000e+04 1.050000000000000000e+03 9.500000000000000000e+02 8.500000000000000000e+02 8.000000000000000000e+02 7.000000000000000000e+02 6.500000000000000000e+02 6.000000000000000000e+02 5.000000000000000000e+02 4.500000000000000000e+02 4.000000000000000000e+02 3.500000000000000000e+02 3.000000000000000000e+02 2.500000000000000000e+02 2.000000000000000000e+02 1.500000000000000000e+02 1.000000000000000000e+02 5.000000000000000000e+01 5.000000000000000000e+01 1.000000000000000000e+02 1.500000000000000000e+02 2.900000000000000000e+03 1.050000000000000000e+03 1.050000000000000000e+03 1.050000000000000000e+03 1.050000000000000000e+03 1.050000000000000000e+03 1.050000000000000000e+03 1.050000000000000000e+03 5.000000000000000000e+01 1.000000000000000000e+02 3.000000000000000000e+03 5.000000000000000000e+01 1.000000000000000000e+02 3.000000000000000000e+03 1.050000000000000000e+03 1.050000000000000000e+03 1.050000000000000000e+03 1.050000000000000000e+03 1.050000000000000000e+03 3.700000000000000000e+03 1.500000000000000000e+02 1.000000000000000000e+02 5.000000000000000000e+01 7.500000000000000000e+02 5.000000000000000000e+01 1.000000000000000000e+02 1.500000000000000000e+02 2.000000000000000000e+02 2.500000000000000000e+02 3.000000000000000000e+02 3.500000000000000000e+02
5.000000000000000000e+01 2.500000000000000000e+02 5.500000000000000000e+02 8.500000000000000000e+02 5.000000000000000000e+01 1.000000000000000000e+03 5.000000000000000000e+01 3.100000000000000000e+03 1.100000000000000000e+03 1.100000000000000000e+03 1.100000000000000000e+03 1.100000000000000000e+03 1.100000000000000000e+03 1.100000000000000000e+03 1.100000000000000000e+03 1.100000000000000000e+03 1.100000000000000000e+03 1.100000000000000000e+03 1.100000000000000000e+03 1.100000000000000000e+03 2.150000000000000000e+03 5.000000000000000000e+01 1.100000000000000000e+03 1.100000000000000000e+03 1.100000000000000000e+03 1.100000000000000000e+03 1.100000000000000000e+03 1.100000000000000000e+03 1.100000000000000000e+03 1.100000000000000000e+03 1.100000000000000000e+03 1.100000000000000000e+03 1.150000000000000000e+03 1.145000000000000000e+04 6.500000000000000000e+02 4.450000000000000000e+03 5.500000000000000000e+02 5.000000000000000000e+02 4.500000000000000000e+02 4.000000000000000000e+02 3.500000000000000000e+02 3.000000000000000000e+02 2.500000000000000000e+02 2.000000000000000000e+02 1.500000000000000000e+02 1.000000000000000000e+02 5.000000000000000000e+01 5.000000000000000000e+01 1.000000000000000000e+02 1.500000000000000000e+02 2.000000000000000000e+02 4.500000000000000000e+02 2.500000000000000000e+02 3.000000000000000000e+02 3.500000000000000000e+02 4.000000000000000000e+02 4.500000000000000000e+02 5.000000000000000000e+02 5.500000000000000000e+02 6.000000000000000000e+02 6.500000000000000000e+02 7.000000000000000000e+02 7.500000000000000000e+02 8.000000000000000000e+02 8.500000000000000000e+02 9.000000000000000000e+02 9.500000000000000000e+02 2.410000000000000000e+04 1.000000000000000000e+03 9.000000000000000000e+02 8.500000000000000000e+02 7.500000000000000000e+02 7.000000000000000000e+02 6.500000000000000000e+02 5.500000000000000000e+02 5.000000000000000000e+02 4.500000000000000000e+02 4.000000000000000000e+02 3.500000000000000000e+02 3.000000000000000000e+02 2.500000000000000000e+02 2.000000000000000000e+02 1.500000000000000000e+02 5.000000000000000000e+01 1.000000000000000000e+02 5.000000000000000000e+01 1.000000000000000000e+02 1.500000000000000000e+02 3.100000000000000000e+03 1.100000000000000000e+03 1.100000000000000000e+03 1.100000000000000000e+03 1.100000000000000000e+03 1.100000000000000000e+03 1.100000000000000000e+03 1.100000000000000000e+03 5.000000000000000000e+01 1.000000000000000000e+02 3.150000000000000000e+03 5.000000000000000000e+01 1.000000000000000000e+02 3.150000000000000000e+03 1.100000000000000000e+03 1.100000000000000000e+03 1.100000000000000000e+03 1.100000000000000000e+03 4.800000000000000000e+03 2.000000000000000000e+02 1.500000000000000000e+02 1.000000000000000000e+02 5.000000000000000000e+01 8.000000000000000000e+02 5.000000000000000000e+01 1.000000000000000000e+02 1.500000000000000000e+02 2.000000000000000000e+02 2.500000000000000000e+02 3.000000000000000000e+02 3.500000000000000000e+02
1.000000000000000000e+02 3.000000000000000000e+02 6.000000000000000000e+02 9.000000000000000000e+02 5.000000000000000000e+01 1.000000000000000000e+02 1.050000000000000000e+03 3.200000000000000000e+03 1.150000000000000000e+03 1.150000000000000000e+03 1.150000000000000000e+03 1.150000000000000000e+03 1.150000000000000000e+03 1.150000000000000000e+03 1.150000000000000000e+03 1.150000000000000000e+03 1.150000000000000000e+03 1.150000000000000000e+03 1.150000000000000000e+03 1.150000000000000000e+03 2.250000000000000000e+03 1.150000000000000000e+03 5.000000000000000000e+01 1.150000000000000000e+03 1.150000000000000000e+03 1.150000000000000000e+03 1.150000000000000000e+03 1.150000000000000000e+03 1.150000000000000000e+03 1.150000000000000000e+03 1.150000000000000000e+03 1.150000000000000000e+03 1.265000000000000000e+04 5.000000000000000000e+01 5.100000000000000000e+03 6.000000000000000000e+02 5.500000000000000000e+02 5.000000000000000000e+02 4.500000000000000000e+02 4.000000000000000000e+02 3.500000000000000000e+02 3.000000000000000000e+02 2.500000000000000000e+02 2.000000000000000000e+02 1.500000000000000000e+02 1.000000000000000000e+02 5.000000000000000000e+01 5.000000000000000000e+01 1.000000000000000000e+02 1.500000000000000000e+02 2.000000000000000000e+02 2.500000000000000000e+02 5.000000000000000000e+02 3.000000000000000000e+02 3.500000000000000000e+02 4.000000000000000000e+02 4.500000000000000000e+02 5.000000000000000000e+02 5.500000000000000000e+02 6.000000000000000000e+02 6.500000000000000000e+02 7.000000000000000000e+02 7.500000000000000000e+02 8.000000000000000000e+02 8.500000000000000000e+02 9.000000000000000000e+02 9.500000000000000000e+02 2.610000000000000000e+04 9.500000000000000000e+02 9.000000000000000000e+02 8.000000000000000000e+02 7.500000000000000000e+02 7.000000000000000000e+02 6.000000000000000000e+02 5.500000000000000000e+02 5.000000000000000000e+02 4.500000000000000000e+02 4.000000000000000000e+02 3.500000000000000000e+02 3.000000000000000000e+02 2.500000000000000000e+02 2.000000000000000000e+02 1.000000000000000000e+02 5.000000000000000000e+01 1.500000000000000000e+02 5.000000000000000000e+01 1.000000000000000000e+02 1.500000000000000000e+02 3.300000000000000000e+03 1.150000000000000000e+03 1.150000000000000000e+03 1.150000000000000000e+03 1.150000000000000000e+03 1.150000000000000000e+03 1.150000000000000000e+03 1.150000000000000000e+03 5.000000000000000000e+01 1.000000000000000000e+02 3.300000000000000000e+03 5.000000000000000000e+01 1.000000000000000000e+02 3.300000000000000000e+03 1.150000000000000000e+03 1.150000000000000000e+03 1.150000000000000000e+03 1.150000000000000000e+03 5.050000000000000000e+03 2.000000000000000000e+02 1.500000000000000000e+02 1.000000000000000000e+02 5.000000000000000000e+01 8.500000000000000000e+02 5.000000000000000000e+01 1.000000000000000000e+02 1.500000000000000000e+02 2.000000000000000000e+02 2.500000000000000000e+02 3.000000000000000000e+02 3.500000000000000000e+02
1.500000000000000000e+02 3.500000000000000000e+02 6.500000000000000000e+02 9.500000000000000000e+02 5.000000000000000000e+01 1.000000000000000000e+02 1.500000000000000000e+02 4.300000000000000000e+03 1.200000000000000000e+03 1.200000000000000000e+03 1.200000000000000000e+03 1.200000000000000000e+03 1.200000000000000000e+03 1.200000000000000000e+03 1.200000000000000000e+03 1.200000000000000000e+03 1.200000000000000000e+03 1.200000000000000000e+03 1.200000000000000000e+03 1.200000000000000000e+03 3.450000000000000000e+03 1.000000000000000000e+02 5.000000000000000000e+01 1.200000000000000000e+03 1.200000000000000000e+03 1.200000000000000000e+03 1.200000000000000000e+03 1.200000000000000000e+03 1.200000000000000000e+03 1.200000000000000000e+03 1.200000000000000000e+03 1.200000000000000000e+03 1.850000000000000000e+04 5.750000000000000000e+03 6.000000000000000000e+02 5.500000000000000000e+02 5.000000000000000000e+02 4.500000000000000000e+02 4.000000000000000000e+02 3.500000000000000000e+02 3.000000000000000000e+02 2.500000000000000000e+02 2.000000000000000000e+02 1.500000000000000000e+02 1.000000000000000000e+02 5.000000000000000000e+01 5.000000000000000000e+01 1.000000000000000000e+02 1.000000000000000000e+02 1.500000000000000000e+02 2.000000000000000000e+02 2.500000000000000000e+02 3.000000000000000000e+02 5.500000000000000000e+02 3.500000000000000000e+02 4.000000000000000000e+02 4.500000000000000000e+02 5.000000000000000000e+02 5.500000000000000000e+02 6.000000000000000000e+02 6.500000000000000000e+02 7.000000000000000000e+02 7.500000000000000000e+02 8.000000000000000000e+02 8.500000000000000000e+02 9.000000000000000000e+02 9.500000000000000000e+02 2.805000000000000000e+04 9.500000000000000000e+02 8.500000000000000000e+02 8.000000000000000000e+02 7.500000000000000000e+02 6.500000000000000000e+02 6.000000000000000000e+02 5.500000000000000000e+02 5.000000000000000000e+02 4.500000000000000000e+02 4.000000000000000000e+02 3.500000000000000000e+02 3.000000000000000000e+02 2.500000000000000000e+02 1.500000000000000000e+02 1.000000000000000000e+02 5.000000000000000000e+01 2.000000000000000000e+02 5.000000000000000000e+01 1.000000000000000000e+02 1.500000000000000000e+02 3.500000000000000000e+03 1.200000000000000000e+03 1.200000000000000000e+03 1.200000000000000000e+03 1.200000000000000000e+03 1.200000000000000000e+03 1.200000000000000000e+03 1.200000000000000000e+03 5.000000000000000000e+01 1.000000000000000000e+02 3.450000000000000000e+03 5.000000000000000000e+01 1.000000000000000000e+02 3.450000000000000000e+03 1.200000000000000000e+03 1.200000000000000000e+03 1.200000000000000000e+03 6.250000000000000000e+03 2.500000000000000000e+02 2.000000000000000000e+02 1.500000000000000000e+02 1.000000000000000000e+02 5.000000000000000000e+01 9.000000000000000000e+02 5.000000000000000000e+01 1.000000000000000000e+02 1.500000000000000000e+02 2.000000000000000000e+02 2.500000000000000000e+02 3.000000000000000000e+02 3.500000000000000000e+02
2.000000000000000000e+02 4.000000000000000000e+02 7.000000000000000000e+02 1.000000000000000000e+03 5.000000000000000000e+01 1.000000000000000000e+02 1.500000000000000000e+02 4.500000000000000000e+03 1.250000000000000000e+03 1.250000000000000000e+03 1.250000000000000000e+03 1.250000000000000000e+03 1.250000000000000000e+03 1.250000000000000000e+03 1.250000000000000000e+03 1.250000000000000000e+03 1.250000000000000000e+03 1.250000000000000000e+03 1.250000000000000000e+03 1.250000000000000000e+03 3.600000000000000000e+03 1.000000000000000000e+02 5.000000000000000000e+01 1.250000000000000000e+03 1.250000000000000000e+03 1.250000000000000000e+03 1.250000000000000000e+03 1.250000000000000000e+03 1.250000000000000000e+03 1.250000000000000000e+03 1.250000000000000000e+03 2.045000000000000000e+04 7.000000000000000000e+02 6.500000000000000000e+02 6.000000000000000000e+02 5.500000000000000000e+02 5.000000000000000000e+02 4.500000000000000000e+02 4.000000000000000000e+02 3.500000000000000000e+02 3.000000000000000000e+02 2.500000000000000000e+02 2.000000000000000000e+02 1.500000000000000000e+02 1.000000000000000000e+02 5.000000000000000000e+01 5.000000000000000000e+01 1.000000000000000000e+02 1.500000000000000000e+02 1.500000000000000000e+02 2.000000000000000000e+02 2.500000000000000000e+02 3.000000000000000000e+02 3.500000000000000000e+02 6.000000000000000000e+02 4.000000000000000000e+02 4.500000000000000000e+02 5.000000000000000000e+02 5.500000000000000000e+02 6.000000000000000000e+02 6.500000000000000000e+02 7.000000000000000000e+02 7.500000000000000000e+02 8.000000000000000000e+02 8.500000000000000000e+02 9.000000000000000000e+02 9.500000000000000000e+02 3.000000000000000000e+04 9.000000000000000000e+02 8.500000000000000000e+02 8.000000000000000000e+02 7.000000000000000000e+02 6.500000000000000000e+02 6.000000000000000000e+02 5.500000000000000000e+02 5.000000000000000000e+02 4.500000000000000000e+02 4.000000000000000000e+02 3.500000000000000000e+02 3.000000000000000000e+02 2.000000000000000000e+02 1.500000000000000000e+02 1.000000000000000000e+02 5.000000000000000000e+01 5.000000000000000000e+01 2.500000000000000000e+02 1.000000000000000000e+02 1.500000000000000000e+02 3.700000000000000000e+03 1.250000000000000000e+03 1.250000000000000000e+03 1.250000000000000000e+03 1.250000000000000000e+03 1.250000000000000000e+03 1.250000000000000000e+03 1.250000000000000000e+03 5.000000000000000000e+01 1.000000000000000000e+02 3.600000000000000000e+03 5.000000000000000000e+01 1.000000000000000000e+02 3.600000000000000000e+03 1.250000000000000000e+03 1.250000000000000000e+03 1.250000000000000000e+03 6.550000000000000000e+03 2.500000000000000000e+02 2.000000000000000000e+02 1.500000000000000000e+02 1.000000000000000000e+02 5.000000000000000000e+01 5.000000000000000000e+01 9.500000000000000000e+02 1.000000000000000000e+02 1.500000000000000000e+02 2.000000000000000000e+02 2.500000000000000000e+02 3.000000000000000000e+02 3.500000000000000000e+02
2.500000000000000000e+02 4.500000000000000000e+02 7.500000000000000000e+02 1.050000000000000000e+03 5.000000000000000000e+01 1.000000000000000000e+02 1.500000000000000000e+02 4.700000000000000000e+03 1.300000000000000000e+03 1.300000000000000000e+03 1.300000000000000000e+03 1.300000000000000000e+03 1.300000000000000000e+03 1.300000000000000000e+03 1.300000000000000000e+03 1.300000000000000000e+03 1.300000000000000000e+03 1.300000000000000000e+03 1.300000000000000000e+03 1.300000000000000000e+03 3.750000000000000000e+03 1.000000000000000000e+02 5.000000000000000000e+01 1.300000000000000000e+03 1.300000000000000000e+03 1.300000000000000000e+03 1.300000000000000000e+03 1.300000000000000000e+03 1.300000000000000000e+03 1.300000000000000000e+03 2.250000000000000000e+04 7.500000000000000000e+02 7.000000000000000000e+02 6.500000000000000000e+02 6.000000000000000000e+02 5.500000000000000000e+02 5.000000000000000000e+02 4.500000000000000000e+02 4.000000000000000000e+02 3.500000000000000000e+02 3.000000000000000000e+02 2.500000000000000000e+02 2.000000000000000000e+02 1.500000000000000000e+02 1.000000000000000000e+02 5.000000000000000000e+01 5.000000000000000000e+01 1.000000000000000000e+02 1.500000000000000000e+02 2.000000000000000000e+02 2.000000000000000000e+02 2.500000000000000000e+02 3.000000000000000000e+02 3.500000000000000000e+02 4.000000000000000000e+02 6.500000000000000000e+02 4.500000000000000000e+02 5.000000000000000000e+02 5.500000000000000000e+02 6.000000000000000000e+02 6.500000000000000000e+02 7.000000000000000000e+02 7.500000000000000000e+02 8.000000000000000000e+02 8.500000000000000000e+02 9.000000000000000000e+02 9.500000000000000000e+02 3.190000000000000000e+04 9.000000000000000000e+02 8.500000000000000000e+02 7.500000000000000000e+02 7.000000000000000000e+02 6.500000000000000000e+02 6.000000000000000000e+02 5.500000000000000000e+02 5.000000000000000000e+02 4.500000000000000000e+02 4.000000000000000000e+02 3.500000000000000000e+02 2.500000000000000000e+02 2.000000000000000000e+02 1.500000000000000000e+02 1.000000000000000000e+02 5.000000000000000000e+01 1.000000000000000000e+02 5.000000000000000000e+01 3.000000000000000000e+02 1.500000000000000000e+02 3.900000000000000000e+03 1.300000000000000000e+03 1.300000000000000000e+03 1.300000000000000000e+03 1.300000000000000000e+03 1.300000000000000000e+03 1.300000000000000000e+03 1.300000000000000000e+03 5.000000000000000000e+01 1.000000000000000000e+02 3.750000000000000000e+03 5.000000000000000000e+01 1.000000000000000000e+02 1.500000000000000000e+02 4.900000000000000000e+03 1.300000000000000000e+03 7.850000000000000000e+03 3.000000000000000000e+02 2.500000000000000000e+02 2.000000000000000000e+02 1.500000000000000000e+02 1.000000000000000000e+02 5.000000000000000000e+01 5.000000000000000000e+01 1.000000000000000000e+02 1.000000000000000000e+03 1.500000000000000000e+02 2.000000000000000000e+02 2.500000000000000000e+02 3.000000000000000000e+02 3.500000000000000000e+02
3.000000000000000000e+02 5.000000000000000000e+02 8.000000000000000000e+02 1.100000000000000000e+03 5.000000000000000000e+01 1.000000000000000000e+02 1.500000000000000000e+02 4.900000000000000000e+03 1.350000000000000000e+03 1.350000000000000000e+03 1.350000000000000000e+03 1.350000000000000000e+03 1.350000000000000000e+03 1.350000000000000000e+03 1.350000000000000000e+03 1.350000000000000000e+03 1.350000000000000000e+03 1.350000000000000000e+03 1.350000000000000000e+03 1.350000000000000000e+03 3.900000000000000000e+03 1.000000000000000000e+02 5.000000000000000000e+01 1.350000000000000000e+03 1.350000000000000000e+03 1.350000000000000000e+03 1.350000000000000000e+03 1.350000000000000000e+03 1.350000000000000000e+03 2.460000000000000000e+04 7.500000000000000000e+02 7.000000000000000000e+02 6.500000000000000000e+02 6.000000000000000000e+02 5.500000000000000000e+02 5.000000000000000000e+02 4.500000000000000000e+02 4.000000000000000000e+02 3.500000000000000000e+02 3.000000000000000000e+02 2.500000000000000000e+02 2.000000000000000000e+02 1.500000000000000000e+02 1.000000000000000000e+02 5.000000000000000000e+01 5.000000000000000000e+01 5.000000000000000000e+01 1.000000000000000000e+02 1.500000000000000000e+02 2.000000000000000000e+02 2.500000000000000000e+02 2.500000000000000000e+02 3.000000000000000000e+02 3.500000000000000000e+02 4.000000000000000000e+02 4.500000000000000000e+02 7.000000000000000000e+02 5.000000000000000000e+02 5.500000000000000000e+02 6.000000000000000000e+02 6.500000000000000000e+02 7.000000000000000000e+02 7.500000000000000000e+02 8.000000000000000000e+02 8.500000000000000000e+02 9.000000000000000000e+02 9.500000000000000000e+02 3.380000000000000000e+04 9.000000000000000000e+02 8.000000000000000000e+02 7.500000000000000000e+02 7.000000000000000000e+02 6.500000000000000000e+02 6.000000000000000000e+02 5.500000000000000000e+02 5.000000000000000000e+02 4.500000000000000000e+02 4.000000000000000000e+02 3.000000000000000000e+02 2.500000000000000000e+02 2.000000000000000000e+02 1.500000000000000000e+02 1.000000000000000000e+02 5.000000000000000000e+01 5.000000000000000000e+01 1.500000000000000000e+02 1.000000000000000000e+02 3.500000000000000000e+02 4.100000000000000000e+03 1.350000000000000000e+03 1.350000000000000000e+03 1.350000000000000000e+03 1.350000000000000000e+03 1.350000000000000000e+03 1.350000000000000000e+03 1.350000000000000000e+03 5.000000000000000000e+01 1.000000000000000000e+02 3.900000000000000000e+03 5.000000000000000000e+01 1.000000000000000000e+02 1.500000000000000000e+02 5.100000000000000000e+03 1.350000000000000000e+03 8.500000000000000000e+03 3.000000000000000000e+02 2.500000000000000000e+02 2.000000000000000000e+02 1.500000000000000000e+02 1.000000000000000000e+02 5.000000000000000000e+01 5.000000000000000000e+01 1.000000000000000000e+02 1.500000000000000000e+02 1.050000000000000000e+03 2.000000000000000000e+02 2.500000000000000000e+02 3.000000000000000000e+02 3.500000000000000000e+02
3.500000000000000000e+02 5.500000000000000000e+02 8.500000000000000000e+02 1.150000000000000000e+03 1.000000000000000000e+02 5.000000000000000000e+01 1.500000000000000000e+02 5.100000000000000000e+03 1.400000000000000000e+03 1.400000000000000000e+03 1.400000000000000000e+03 1.400000000000000000e+03 1.400000000000000000e+03 1.400000000000000000e+03 1.400000000000000000e+03 1.400000000000000000e+03 1.400000000000000000e+03 1.400000000000000000e+03 1.400000000000000000e+03 1.400000000000000000e+03 4.050000000000000000e+03 1.000000000000000000e+02 5.000000000000000000e+01 1.400000000000000000e+03 1.400000000000000000e+03 1.400000000000000000e+03 1.400000000000000000e+03 1.400000000000000000e+03 2.680000000000000000e+04 8.000000000000000000e+02 7.500000000000000000e+02 7.000000000000000000e+02 6.500000000000000000e+02 6.000000000000000000e+02 5.500000000000000000e+02 5.000000000000000000e+02 4.500000000000000000e+02 4.000000000000000000e+02 3.500000000000000000e+02 3.000000000000000000e+02 2.500000000000000000e+02 2.000000000000000000e+02 1.500000000000000000e+02 1.000000000000000000e+02 5.000000000000000000e+01 5.000000000000000000e+01 1.000000000000000000e+02 1.000000000000000000e+02 1.500000000000000000e+02 2.000000000000000000e+02 2.500000000000000000e+02 3.000000000000000000e+02 3.000000000000000000e+02 3.500000000000000000e+02 4.000000000000000000e+02 4.500000000000000000e+02 5.000000000000000000e+02 7.500000000000000000e+02 5.500000000000000000e+02 6.000000000000000000e+02 6.500000000000000000e+02 7.000000000000000000e+02 7.500000000000000000e+02 8.000000000000000000e+02 8.500000000000000000e+02 9.000000000000000000e+02 9.500000000000000000e+02 3.570000000000000000e+04 8.500000000000000000e+02 8.000000000000000000e+02 7.500000000000000000e+02 7.000000000000000000e+02 6.500000000000000000e+02 6.000000000000000000e+02 5.500000000000000000e+02 5.000000000000000000e+02 4.500000000000000000e+02 3.500000000000000000e+02 3.000000000000000000e+02 2.500000000000000000e+02 2.000000000000000000e+02 1.500000000000000000e+02 1.000000000000000000e+02 5.000000000000000000e+01 5.000000000000000000e+01 1.000000000000000000e+02 2.000000000000000000e+02 1.500000000000000000e+02 4.500000000000000000e+03 1.400000000000000000e+03 1.400000000000000000e+03 1.400000000000000000e+03 1.400000000000000000e+03 1.400000000000000000e+03 1.400000000000000000e+03 1.400000000000000000e+03 5.000000000000000000e+01 1.000000000000000000e+02 4.050000000000000000e+03 5.000000000000000000e+01 1.000000000000000000e+02 1.500000000000000000e+02 5.300000000000000000e+03 9.900000000000000000e+03 5.000000000000000000e+01 3.000000000000000000e+02 2.500000000000000000e+02 2.000000000000000000e+02 1.500000000000000000e+02 1.000000000000000000e+02 5.000000000000000000e+01 5.000000000000000000e+01 1.000000000000000000e+02 1.500000000000000000e+02 2.000000000000000000e+02 1.100000000000000000e+03 2.500000000000000000e+02 3.000000000000000000e+02 3.500000000000000000e+02
4.000000000000000000e+02 6.000000000000000000e+02 9.000000000000000000e+02 1.200000000000000000e+03 1.500000000000000000e+02 5.000000000000000000e+01 1.000000000000000000e+02 5.300000000000000000e+03 1.450000000000000000e+03 1.450000000000000000e+03 1.450000000000000000e+03 1.450000000000000000e+03 1.450000000000000000e+03 1.450000000000000000e+03 1.450000000000000000e+03 1.450000000000000000e+03 2.850000000000000000e+03 5.000000000000000000e+01 1.450000000000000000e+03 1.450000000000000000e+03 4.200000000000000000e+03 1.000000000000000000e+02 5.000000000000000000e+01 1.450000000000000000e+03 1.450000000000000000e+03 1.450000000000000000e+03 1.450000000000000000e+03 2.825000000000000000e+04 8.500000000000000000e+02 8.000000000000000000e+02 7.500000000000000000e+02 7.000000000000000000e+02 6.500000000000000000e+02 6.000000000000000000e+02 5.500000000000000000e+02 5.000000000000000000e+02 4.500000000000000000e+02 4.000000000000000000e+02 3.500000000000000000e+02 3.000000000000000000e+02 2.500000000000000000e+02 2.000000000000000000e+02 1.500000000000000000e+02 1.000000000000000000e+02 5.000000000000000000e+01 5.000000000000000000e+01 1.000000000000000000e+02 1.500000000000000000e+02 1.500000000000000000e+02 2.000000000000000000e+02 2.500000000000000000e+02 3.000000000000000000e+02 3.500000000000000000e+02 3.500000000000000000e+02 4.000000000000000000e+02 4.500000000000000000e+02 5.000000000000000000e+02 5.500000000000000000e+02 8.000000000000000000e+02 6.000000000000000000e+02 6.500000000000000000e+02 7.000000000000000000e+02 7.500000000000000000e+02 8.000000000000000000e+02 8.500000000000000000e+02 9.000000000000000000e+02 9.500000000000000000e+02 3.755000000000000000e+04 8.500000000000000000e+02 8.000000000000000000e+02 7.500000000000000000e+02 7.000000000000000000e+02 6.500000000000000000e+02 6.000000000000000000e+02 5.500000000000000000e+02 5.000000000000000000e+02 4.000000000000000000e+02 3.500000000000000000e+02 3.000000000000000000e+02 2.500000000000000000e+02 2.000000000000000000e+02 1.500000000000000000e+02 1.000000000000000000e+02 5.000000000000000000e+01 5.000000000000000000e+01 1.000000000000000000e+02 1.500000000000000000e+02 2.500000000000000000e+02 4.700000000000000000e+03 1.450000000000000000e+03 1.450000000000000000e+03 1.450000000000000000e+03 1.450000000000000000e+03 1.450000000000000000e+03 1.450000000000000000e+03 1.450000000000000000e+03 5.000000000000000000e+01 1.000000000000000000e+02 4.200000000000000000e+03 5.000000000000000000e+01 1.000000000000000000e+02 1.500000000000000000e+02 5.500000000000000000e+03 1.035000000000000000e+04 3.500000000000000000e+02 3.000000000000000000e+02 2.500000000000000000e+02 2.000000000000000000e+02 1.500000000000000000e+02 1.000000000000000000e+02 5.000000000000000000e+01 5.000000000000000000e+01 1.000000000000000000e+02 1.500000000000000000e+02 2.000000000000000000e+02 2.500000000000000000e+02 1.150000000000000000e+03 3.000000000000000000e+02 3.500000000000000000e+02
4.500000000000000000e+02 6.500000000000000000e+02 9.500000000000000000e+02 1.250000000000000000e+03 2.000000000000000000e+02 5.000000000000000000e+01 1.000000000000000000e+02 5.450000000000000000e+03 1.500000000000000000e+03 1.500000000000000000e+03 1.500000000000000000e+03 1.500000000000000000e+03 1.500000000000000000e+03 1.500000000000000000e+03 1.500000000000000000e+03 1.500000000000000000e+03 2.950000000000000000e+03 5.000000000000000000e+01 1.500000000000000000e+03 1.500000000000000000e+03 4.350000000000000000e+03 5.000000000000000000e+01 1.550000000000000000e+03 5.000000000000000000e+01 1.500000000000000000e+03 1.500000000000000000e+03 1.500000000000000000e+03 2.995000000000000000e+04 8.000000000000000000e+02 7.500000000000000000e+02 7.000000000000000000e+02 6.500000000000000000e+02 6.000000000000000000e+02 5.500000000000000000e+02 5.000000000000000000e+02 4.500000000000000000e+02 4.000000000000000000e+02 3.500000000000000000e+02 3.000000000000000000e+02 2.500000000000000000e+02 2.000000000000000000e+02 1.500000000000000000e+02 1.000000000000000000e+02 5.000000000000000000e+01 5.000000000000000000e+01 5.000000000000000000e+01 1.000000000000000000e+02 1.500000000000000000e+02 2.000000000000000000e+02 2.000000000000000000e+02 2.500000000000000000e+02 3.000000000000000000e+02 3.500000000000000000e+02 4.000000000000000000e+02 4.000000000000000000e+02 4.500000000000000000e+02 5.000000000000000000e+02 5.500000000000000000e+02 6.000000000000000000e+02 8.500000000000000000e+02 6.500000000000000000e+02 7.000000000000000000e+02 7.500000000000000000e+02 8.000000000000000000e+02 8.500000000000000000e+02 9.000000000000000000e+02 9.500000000000000000e+02 3.940000000000000000e+04 8.500000000000000000e+02 8.000000000000000000e+02 7.500000000000000000e+02 7.000000000000000000e+02 6.500000000000000000e+02 6.000000000000000000e+02 5.500000000000000000e+02 4.500000000000000000e+02 4.000000000000000000e+02 3.500000000000000000e+02 3.000000000000000000e+02 2.500000000000000000e+02 2.000000000000000000e+02 1.500000000000000000e+02 1.000000000000000000e+02 5.000000000000000000e+01 5.000000000000000000e+01 1.000000000000000000e+02 1.500000000000000000e+02 2.000000000000000000e+02 5.000000000000000000e+03 1.500000000000000000e+03 1.500000000000000000e+03 1.500000000000000000e+03 1.500000000000000000e+03 1.500000000000000000e+03 1.500000000000000000e+03 1.500000000000000000e+03 5.000000000000000000e+01 1.000000000000000000e+02 1.500000000000000000e+02 4.450000000000000000e+03 5.000000000000000000e+01 1.500000000000000000e+02 1.605000000000000000e+04 5.000000000000000000e+01 3.500000000000000000e+02 3.000000000000000000e+02 2.500000000000000000e+02 2.000000000000000000e+02 1.500000000000000000e+02 1.000000000000000000e+02 5.000000000000000000e+01 5.000000000000000000e+01 1.000000000000000000e+02 1.500000000000000000e+02 3.500000000000000000e+02 6.000000000000000000e+02 9.000000000000000000e+02 2.100000000000000000e+03 2.450000000000000000e+03
5.000000000000000000e+02 7.000000000000000000e+02 1.000000000000000000e+03 1.300000000000000000e+03 2.500000000000000000e+02 5.000000000000000000e+01 1.000000000000000000e+02 5.600000000000000000e+03 1.550000000000000000e+03 1.550000000000000000e+03 1.550000000000000000e+03 1.550000000000000000e+03 1.550000000000000000e+03 1.550000000000000000e+03 1.550000000000000000e+03 1.550000000000000000e+03 3.050000000000000000e+03 5.000000000000000000e+01 1.550000000000000000e+03 1.550000000000000000e+03 4.450000000000000000e+03 1.600000000000000000e+03 1.000000000000000000e+02 5.000000000000000000e+01 1.550000000000000000e+03 1.550000000000000000e+03 3.235000000000000000e+04 8.500000000000000000e+02 8.000000000000000000e+02 7.500000000000000000e+02 7.000000000000000000e+02 6.500000000000000000e+02 6.000000000000000000e+02 5.500000000000000000e+02 5.000000000000000000e+02 4.500000000000000000e+02 4.000000000000000000e+02 3.500000000000000000e+02 3.000000000000000000e+02 2.500000000000000000e+02 2.000000000000000000e+02 1.500000000000000000e+02 1.000000000000000000e+02 5.000000000000000000e+01 5.000000000000000000e+01 1.000000000000000000e+02 1.000000000000000000e+02 1.500000000000000000e+02 2.000000000000000000e+02 2.500000000000000000e+02 2.500000000000000000e+02 3.000000000000000000e+02 3.500000000000000000e+02 4.000000000000000000e+02 4.500000000000000000e+02 4.500000000000000000e+02 5.000000000000000000e+02 5.500000000000000000e+02 6.000000000000000000e+02 6.500000000000000000e+02 9.000000000000000000e+02 7.000000000000000000e+02 7.500000000000000000e+02 8.000000000000000000e+02 8.500000000000000000e+02 9.000000000000000000e+02 9.500000000000000000e+02 4.125000000000000000e+04 8.500000000000000000e+02 8.000000000000000000e+02 7.500000000000000000e+02 7.000000000000000000e+02 6.500000000000000000e+02 6.000000000000000000e+02 5.000000000000000000e+02 4.500000000000000000e+02 4.000000000000000000e+02 3.500000000000000000e+02 3.000000000000000000e+02 2.500000000000000000e+02 2.000000000000000000e+02 1.500000000000000000e+02 1.000000000000000000e+02 5.000000000000000000e+01 5.000000000000000000e+01 1.000000000000000000e+02 1.500000000000000000e+02 2.000000000000000000e+02 5.250000000000000000e+03 1.550000000000000000e+03 1.550000000000000000e+03 1.550000000000000000e+03 1.550000000000000000e+03 1.550000000000000000e+03 1.550000000000000000e+03 1.550000000000000000e+03 5.000000000000000000e+01 1.000000000000000000e+02 1.500000000000000000e+02 5.000000000000000000e+01 4.600000000000000000e+03 5.000000000000000000e+01 1.630000000000000000e+04 4.000000000000000000e+02 3.500000000000000000e+02 3.000000000000000000e+02 2.500000000000000000e+02 2.000000000000000000e+02 1.500000000000000000e+02 1.000000000000000000e+02 5.000000000000000000e+01 5.000000000000000000e+01 1.000000000000000000e+02 1.500000000000000000e+02 5.000000000000000000e+01 1.000000000000000000e+02 1.500000000000000000e+02 2.000000000000000000e+02 2.500000000000000000e+02
5.500000000000000000e+02 7.500000000000000000e+02 1.050000000000000000e+03 1.350000000000000000e+03 3.000000000000000000e+02 5.000000000000000000e+01 1.000000000000000000e+02 5.750000000000000000e+03 1.600000000000000000e+03 1.600000000000000000e+03 1.600000000000000000e+03 1.600000000000000000e+03 1.600000000000000000e+03 1.600000000000000000e+03 1.600000000000000000e+03 1.600000000000000000e+03 3.150000000000000000e+03 5.000000000000000000e+01 1.600000000000000000e+03 1.600000000000000000e+03 6.100000000000000000e+03 1.500000000000000000e+02 5.000000000000000000e+01 1.650000000000000000e+03 5.000000000000000000e+01 3.955000000000000000e+04 5.600000000000000000e+03 5.050000000000000000e+03 4.500000000000000000e+03 4.000000000000000000e+03 3.500000000000000000e+03 3.050000000000000000e+03 2.650000000000000000e+03 2.250000000000000000e+03 1.900000000000000000e+03 4.500000000000000000e+02 4.000000000000000000e+02 3.500000000000000000e+02 3.000000000000000000e+02 2.500000000000000000e+02 2.000000000000000000e+02 1.500000000000000000e+02 1.000000000000000000e+02 5.000000000000000000e+01 5.000000000000000000e+01 1.000000000000000000e+02 1.500000000000000000e+02 1.500000000000000000e+02 2.000000000000000000e+02 2.500000000000000000e+02 3.000000000000000000e+02 3.000000000000000000e+02 3.500000000000000000e+02 4.000000000000000000e+02 4.500000000000000000e+02 5.000000000000000000e+02 5.000000000000000000e+02 5.500000000000000000e+02 6.000000000000000000e+02 6.500000000000000000e+02 7.000000000000000000e+02 9.500000000000000000e+02 7.500000000000000000e+02 8.000000000000000000e+02 8.500000000000000000e+02 9.000000000000000000e+02 9.500000000000000000e+02 4.310000000000000000e+04 8.500000000000000000e+02 8.000000000000000000e+02 7.500000000000000000e+02 7.000000000000000000e+02 6.500000000000000000e+02 5.500000000000000000e+02 5.000000000000000000e+02 4.500000000000000000e+02 4.000000000000000000e+02 3.500000000000000000e+02 3.000000000000000000e+02 2.500000000000000000e+02 2.000000000000000000e+02 1.500000000000000000e+02 1.000000000000000000e+02 5.000000000000000000e+01 5.000000000000000000e+01 1.000000000000000000e+02 1.500000000000000000e+02 2.000000000000000000e+02 5.500000000000000000e+03 1.600000000000000000e+03 1.600000000000000000e+03 1.600000000000000000e+03 1.600000000000000000e+03 1.600000000000000000e+03 1.600000000000000000e+03 1.600000000000000000e+03 5.000000000000000000e+01 1.000000000000000000e+02 1.500000000000000000e+02 2.000000000000000000e+02 5.000000000000000000e+01 4.700000000000000000e+03 1.680000000000000000e+04 4.000000000000000000e+02 3.500000000000000000e+02 3.000000000000000000e+02 2.500000000000000000e+02 2.000000000000000000e+02 1.500000000000000000e+02 1.000000000000000000e+02 5.000000000000000000e+01 5.000000000000000000e+01 1.000000000000000000e+02 1.500000000000000000e+02 2.000000000000000000e+02 5.000000000000000000e+01 5.000000000000000000e+01 5.000000000000000000e+01 1.000000000000000000e+02
6.000000000000000000e+02 8.000000000000000000e+02 1.100000000000000000e+03 1.400000000000000000e+03 3.500000000000000000e+02 5.000000000000000000e+01 1.000000000000000000e+02 5.900000000000000000e+03 1.650000000000000000e+03 1.650000000000000000e+03 1.650000000000000000e+03 1.650000000000000000e+03 1.650000000000000000e+03 1.650000000000000000e+03 1.650000000000000000e+03 1.650000000000000000e+03 3.250000000000000000e+03 5.000000000000000000e+01 1.650000000000000000e+03 1.650000000000000000e+03 6.300000000000000000e+03 5.000000000000000000e+01 1.750000000000000000e+03 5.000000000000000000e+01 4.080000000000000000e+04 1.150000000000000000e+03 5.500000000000000000e+02 5.000000000000000000e+02 5.000000000000000000e+02 4.500000000000000000e+02 4.500000000000000000e+02 4.000000000000000000e+02 3.500000000000000000e+02 3.500000000000000000e+02 3.000000000000000000e+02 1.400000000000000000e+03 1.100000000000000000e+03 8.500000000000000000e+02 2.500000000000000000e+02 2.000000000000000000e+02 1.500000000000000000e+02 1.000000000000000000e+02 5.000000000000000000e+01 5.000000000000000000e+01 5.000000000000000000e+01 1.000000000000000000e+02 1.500000000000000000e+02 2.000000000000000000e+02 2.000000000000000000e+02 2.500000000000000000e+02 3.000000000000000000e+02 3.500000000000000000e+02 3.500000000000000000e+02 4.000000000000000000e+02 4.500000000000000000e+02 5.000000000000000000e+02 5.500000000000000000e+02 5.500000000000000000e+02 6.000000000000000000e+02 6.500000000000000000e+02 7.000000000000000000e+02 7.500000000000000000e+02 1.000000000000000000e+03 8.000000000000000000e+02 8.500000000000000000e+02 9.000000000000000000e+02 9.500000000000000000e+02 4.495000000000000000e+04 8.500000000000000000e+02 8.000000000000000000e+02 7.500000000000000000e+02 7.000000000000000000e+02 6.000000000000000000e+02 5.500000000000000000e+02 5.000000000000000000e+02 4.500000000000000000e+02 4.000000000000000000e+02 3.500000000000000000e+02 3.000000000000000000e+02 2.500000000000000000e+02 2.000000000000000000e+02 1.500000000000000000e+02 1.000000000000000000e+02 5.000000000000000000e+01 5.000000000000000000e+01 1.000000000000000000e+02 1.500000000000000000e+02 2.000000000000000000e+02 5.750000000000000000e+03 1.650000000000000000e+03 1.650000000000000000e+03 1.650000000000000000e+03 1.650000000000000000e+03 1.650000000000000000e+03 1.650000000000000000e+03 1.650000000000000000e+03 5.000000000000000000e+01 1.000000000000000000e+02 1.500000000000000000e+02 2.000000000000000000e+02 2.500000000000000000e+02 5.000000000000000000e+01 2.195000000000000000e+04 4.000000000000000000e+02 3.500000000000000000e+02 3.000000000000000000e+02 2.500000000000000000e+02 2.000000000000000000e+02 1.500000000000000000e+02 1.000000000000000000e+02 5.000000000000000000e+01 5.000000000000000000e+01 1.000000000000000000e+02 1.500000000000000000e+02 2.000000000000000000e+02 2.500000000000000000e+02 1.000000000000000000e+02 1.000000000000000000e+02 5.000000000000000000e+01
1.050000000000000000e+03 8.500000000000000000e+02 1.150000000000000000e+03 1.450000000000000000e+03 4.000000000000000000e+02 5.000000000000000000e+01 1.000000000000000000e+02 6.050000000000000000e+03 1.700000000000000000e+03 1.700000000000000000e+03 1.700000000000000000e+03 1.700000000000000000e+03 1.700000000000000000e+03 1.700000000000000000e+03 1.700000000000000000e+03 1.700000000000000000e+03 3.300000000000000000e+03 1.000000000000000000e+02 3.350000000000000000e+03 5.000000000000000000e+01 5.240000000000000000e+04 4.545000000000000000e+04 4.305000000000000000e+04 4.245000000000000000e+04 1.100000000000000000e+03 5.500000000000000000e+02 5.500000000000000000e+02 5.000000000000000000e+02 4.500000000000000000e+02 4.500000000000000000e+02 4.000000000000000000e+02 4.000000000000000000e+02 3.500000000000000000e+02 3.000000000000000000e+02 3.000000000000000000e+02 2.500000000000000000e+02 2.500000000000000000e+02 2.000000000000000000e+02 5.500000000000000000e+02 4.000000000000000000e+02 2.500000000000000000e+02 1.500000000000000000e+02 5.000000000000000000e+01 5.000000000000000000e+01 1.000000000000000000e+02 1.000000000000000000e+02 1.500000000000000000e+02 2.000000000000000000e+02 2.500000000000000000e+02 2.500000000000000000e+02 3.000000000000000000e+02 3.500000000000000000e+02 4.000000000000000000e+02 4.000000000000000000e+02 4.500000000000000000e+02 5.000000000000000000e+02 5.500000000000000000e+02 6.000000000000000000e+02 6.000000000000000000e+02 6.500000000000000000e+02 7.000000000000000000e+02 7.500000000000000000e+02 8.000000000000000000e+02 1.050000000000000000e+03 8.500000000000000000e+02 9.000000000000000000e+02 9.500000000000000000e+02 4.680000000000000000e+04 8.500000000000000000e+02 8.000000000000000000e+02 7.500000000000000000e+02 6.500000000000000000e+02 6.000000000000000000e+02 5.500000000000000000e+02 5.000000000000000000e+02 4.500000000000000000e+02 4.000000000000000000e+02 3.500000000000000000e+02 3.000000000000000000e+02 2.500000000000000000e+02 2.000000000000000000e+02 1.500000000000000000e+02 1.000000000000000000e+02 5.000000000000000000e+01 5.000000000000000000e+01 1.000000000000000000e+02 1.500000000000000000e+02 2.000000000000000000e+02 6.000000000000000000e+03 1.700000000000000000e+03 1.700000000000000000e+03 1.700000000000000000e+03 1.700000000000000000e+03 1.700000000000000000e+03 1.700000000000000000e+03 1.700000000000000000e+03 5.000000000000000000e+01 1.000000000000000000e+02 1.500000000000000000e+02 2.000000000000000000e+02 2.500000000000000000e+02 3.000000000000000000e+02 2.245000000000000000e+04 4.000000000000000000e+02 3.500000000000000000e+02 3.000000000000000000e+02 2.500000000000000000e+02 2.000000000000000000e+02 1.500000000000000000e+02 1.000000000000000000e+02 5.000000000000000000e+01 5.000000000000000000e+01 1.000000000000000000e+02 1.500000000000000000e+02 2.000000000000000000e+02 2.500000000000000000e+02 3.000000000000000000e+02 1.500000000000000000e+02 1.500000000000000000e+02
1.150000000000000000e+03 9.000000000000000000e+02 1.200000000000000000e+03 1.500000000000000000e+03 4.500000000000000000e+02 5.000000000000000000e+01 1.000000000000000000e+02 6.200000000000000000e+03 1.750000000000000000e+03 1.750000000000000000e+03 1.750000000000000000e+03 1.750000000000000000e+03 1.750000000000000000e+03 1.750000000000000000e+03 1.750000000000000000e+03 1.750000000000000000e+03 3.350000000000000000e+03 5.830000000000000000e+04 5.425000000000000000e+04 5.350000000000000000e+04 5.500000000000000000e+02 5.500000000000000000e+02 6.000000000000000000e+02 5.000000000000000000e+02 5.000000000000000000e+02 5.000000000000000000e+02 5.000000000000000000e+02 5.000000000000000000e+02 4.500000000000000000e+02 4.000000000000000000e+02 4.000000000000000000e+02 3.500000000000000000e+02 3.500000000000000000e+02 3.000000000000000000e+02 2.500000000000000000e+02 2.500000000000000000e+02 2.000000000000000000e+02 2.000000000000000000e+02 1.500000000000000000e+02 1.000000000000000000e+02 1.000000000000000000e+02 5.000000000000000000e+01 5.000000000000000000e+01 5.000000000000000000e+01 1.000000000000000000e+02 1.500000000000000000e+02 1.500000000000000000e+02 2.000000000000000000e+02 2.500000000000000000e+02 3.000000000000000000e+02 3.000000000000000000e+02 3.500000000000000000e+02 4.000000000000000000e+02 4.500000000000000000e+02 4.500000000000000000e+02 5.000000000000000000e+02 5.500000000000000000e+02 6.000000000000000000e+02 6.500000000000000000e+02 6.500000000000000000e+02 7.000000000000000000e+02 7.500000000000000000e+02 8.000000000000000000e+02 8.500000000000000000e+02 1.100000000000000000e+03 9.000000000000000000e+02 9.500000000000000000e+02 4.865000000000000000e+04 8.500000000000000000e+02 8.000000000000000000e+02 7.000000000000000000e+02 6.500000000000000000e+02 6.000000000000000000e+02 5.500000000000000000e+02 5.000000000000000000e+02 4.500000000000000000e+02 4.000000000000000000e+02 3.500000000000000000e+02 3.000000000000000000e+02 2.500000000000000000e+02 2.000000000000000000e+02 1.500000000000000000e+02 1.000000000000000000e+02 5.000000000000000000e+01 5.000000000000000000e+01 1.000000000000000000e+02 1.500000000000000000e+02 2.000000000000000000e+02 6.250000000000000000e+03 1.750000000000000000e+03 3.450000000000000000e+03 5.000000000000000000e+01 1.750000000000000000e+03 1.750000000000000000e+03 1.750000000000000000e+03 1.750000000000000000e+03 5.000000000000000000e+01 1.000000000000000000e+02 1.500000000000000000e+02 2.000000000000000000e+02 2.500000000000000000e+02 3.000000000000000000e+02 2.320000000000000000e+04 4.000000000000000000e+02 3.500000000000000000e+02 3.000000000000000000e+02 2.500000000000000000e+02 2.000000000000000000e+02 1.500000000000000000e+02 1.000000000000000000e+02 5.000000000000000000e+01 5.000000000000000000e+01 1.000000000000000000e+02 1.500000000000000000e+02 2.000000000000000000e+02 2.500000000000000000e+02 3.000000000000000000e+02 3.500000000000000000e+02 2.000000000000000000e+02
1.250000000000000000e+03 9.500000000000000000e+02 1.250000000000000000e+03 1.550000000000000000e+03 5.000000000000000000e+02 1.000000000000000000e+02 5.000000000000000000e+01 6.350000000000000000e+03 1.800000000000000000e+03 1.800000000000000000e+03 1.800000000000000000e+03 1.800000000000000000e+03 1.800000000000000000e+03 1.800000000000000000e+03 1.800000000000000000e+03 6.520000000000000000e+04 5.950000000000000000e+04 5.500000000000000000e+02 5.500000000000000000e+02 6.500000000000000000e+02 5.000000000000000000e+02 5.000000000000000000e+02 5.000000000000000000e+02 5.500000000000000000e+02 4.500000000000000000e+02 4.500000000000000000e+02 4.500000000000000000e+02 4.500000000000000000e+02 4.500000000000000000e+02 4.000000000000000000e+02 3.500000000000000000e+02 3.500000000000000000e+02 3.000000000000000000e+02 3.000000000000000000e+02 2.500000000000000000e+02 2.000000000000000000e+02 2.000000000000000000e+02 1.500000000000000000e+02 1.500000000000000000e+02 1.000000000000000000e+02 5.000000000000000000e+01 5.000000000000000000e+01 5.000000000000000000e+01 5.000000000000000000e+01 1.000000000000000000e+02 1.500000000000000000e+02 2.000000000000000000e+02 2.000000000000000000e+02 2.500000000000000000e+02 3.000000000000000000e+02 3.500000000000000000e+02 3.500000000000000000e+02 4.000000000000000000e+02 4.500000000000000000e+02 5.000000000000000000e+02 5.000000000000000000e+02 5.500000000000000000e+02 6.000000000000000000e+02 6.500000000000000000e+02 7.000000000000000000e+02 7.000000000000000000e+02 7.500000000000000000e+02 8.000000000000000000e+02 8.500000000000000000e+02 9.000000000000000000e+02 1.150000000000000000e+03 9.500000000000000000e+02 5.050000000000000000e+04 8.500000000000000000e+02 7.500000000000000000e+02 7.000000000000000000e+02 6.500000000000000000e+02 6.000000000000000000e+02 5.500000000000000000e+02 5.000000000000000000e+02 4.500000000000000000e+02 4.000000000000000000e+02 3.500000000000000000e+02 3.000000000000000000e+02 2.500000000000000000e+02 2.000000000000000000e+02 1.500000000000000000e+02 1.000000000000000000e+02 5.000000000000000000e+01 5.000000000000000000e+01 1.000000000000000000e+02 1.500000000000000000e+02 2.000000000000000000e+02 2.500000000000000000e+02 1.150000000000000000e+04 1.000000000000000000e+02 5.000000000000000000e+01 1.800000000000000000e+03 1.800000000000000000e+03 1.800000000000000000e+03 1.800000000000000000e+03 5.000000000000000000e+01 1.000000000000000000e+02 1.500000000000000000e+02 2.000000000000000000e+02 2.500000000000000000e+02 3.000000000000000000e+02 2.395000000000000000e+04 4.000000000000000000e+02 3.500000000000000000e+02 3.000000000000000000e+02 2.500000000000000000e+02 2.000000000000000000e+02 1.500000000000000000e+02 1.000000000000000000e+02 5.000000000000000000e+01 5.000000000000000000e+01 1.000000000000000000e+02 2.500000000000000000e+02 4.500000000000000000e+02 7.000000000000000000e+02 1.000000000000000000e+03 1.350000000000000000e+03 1.750000000000000000e+03
1.350000000000000000e+03 1.000000000000000000e+03 1.300000000000000000e+03 1.600000000000000000e+03 5.500000000000000000e+02 1.500000000000000000e+02 5.000000000000000000e+01 6.450000000000000000e+03 1.850000000000000000e+03 1.850000000000000000e+03 1.850000000000000000e+03 1.850000000000000000e+03 1.850000000000000000e+03 7.045000000000000000e+04 6.630000000000000000e+04 5.500000000000000000e+02 5.500000000000000000e+02 6.000000000000000000e+02 5.000000000000000000e+02 5.000000000000000000e+02 6.000000000000000000e+02 4.500000000000000000e+02 4.500000000000000000e+02 4.500000000000000000e+02 5.000000000000000000e+02 4.000000000000000000e+02 4.000000000000000000e+02 4.000000000000000000e+02 4.000000000000000000e+02 4.000000000000000000e+02 3.500000000000000000e+02 3.000000000000000000e+02 3.000000000000000000e+02 2.500000000000000000e+02 2.500000000000000000e+02 2.000000000000000000e+02 1.500000000000000000e+02 1.500000000000000000e+02 1.000000000000000000e+02 1.000000000000000000e+02 5.000000000000000000e+01 5.000000000000000000e+01 5.000000000000000000e+01 1.000000000000000000e+02 1.000000000000000000e+02 1.500000000000000000e+02 2.000000000000000000e+02 2.500000000000000000e+02 2.500000000000000000e+02 3.000000000000000000e+02 3.500000000000000000e+02 4.000000000000000000e+02 4.000000000000000000e+02 4.500000000000000000e+02 5.000000000000000000e+02 5.500000000000000000e+02 5.500000000000000000e+02 6.000000000000000000e+02 6.500000000000000000e+02 7.000000000000000000e+02 7.500000000000000000e+02 7.500000000000000000e+02 8.000000000000000000e+02 8.500000000000000000e+02 9.000000000000000000e+02 9.500000000000000000e+02 1.200000000000000000e+03 5.235000000000000000e+04 8.000000000000000000e+02 7.500000000000000000e+02 7.000000000000000000e+02 6.500000000000000000e+02 6.000000000000000000e+02 5.500000000000000000e+02 5.000000000000000000e+02 4.500000000000000000e+02 4.000000000000000000e+02 3.500000000000000000e+02 3.000000000000000000e+02 2.500000000000000000e+02 2.000000000000000000e+02 1.500000000000000000e+02 5.000000000000000000e+01 5.000000000000000000e+01 1.000000000000000000e+02 1.000000000000000000e+02 1.500000000000000000e+02 2.000000000000000000e+02 2.500000000000000000e+02 1.190000000000000000e+04 1.000000000000000000e+02 5.000000000000000000e+01 1.850000000000000000e+03 1.850000000000000000e+03 1.850000000000000000e+03 1.850000000000000000e+03 5.000000000000000000e+01 1.000000000000000000e+02 1.500000000000000000e+02 2.000000000000000000e+02 2.500000000000000000e+02 3.000000000000000000e+02 2.470000000000000000e+04 4.000000000000000000e+02 3.500000000000000000e+02 3.000000000000000000e+02 2.500000000000000000e+02 2.000000000000000000e+02 1.500000000000000000e+02 1.000000000000000000e+02 5.000000000000000000e+01 5.000000000000000000e+01 1.000000000000000000e+02 5.000000000000000000e+01 5.000000000000000000e+01 1.000000000000000000e+02 1.500000000000000000e+02 2.000000000000000000e+02 2.500000000000000000e+02
1.450000000000000000e+03 1.050000000000000000e+03 1.350000000000000000e+03 1.650000000000000000e+03 6.000000000000000000e+02 2.000000000000000000e+02 5.000000000000000000e+01 6.550000000000000000e+03 1.900000000000000000e+03 1.900000000000000000e+03 1.900000000000000000e+03 7.565000000000000000e+04 7.145000000000000000e+04 5.000000000000000000e+02 5.000000000000000000e+02 5.000000000000000000e+02 5.000000000000000000e+02 5.000000000000000000e+02 5.500000000000000000e+02 4.500000000000000000e+02 4.500000000000000000e+02 5.500000000000000000e+02 4.000000000000000000e+02 4.000000000000000000e+02 4.000000000000000000e+02 4.500000000000000000e+02 3.500000000000000000e+02 3.500000000000000000e+02 3.500000000000000000e+02 3.500000000000000000e+02 3.500000000000000000e+02 3.000000000000000000e+02 2.500000000000000000e+02 2.500000000000000000e+02 2.000000000000000000e+02 2.000000000000000000e+02 1.500000000000000000e+02 1.000000000000000000e+02 1.000000000000000000e+02 5.000000000000000000e+01 5.000000000000000000e+01 5.000000000000000000e+01 1.000000000000000000e+02 1.000000000000000000e+02 1.500000000000000000e+02 1.500000000000000000e+02 2.000000000000000000e+02 2.500000000000000000e+02 3.000000000000000000e+02 3.000000000000000000e+02 3.500000000000000000e+02 4.000000000000000000e+02 4.500000000000000000e+02 4.500000000000000000e+02 5.000000000000000000e+02 5.500000000000000000e+02 6.000000000000000000e+02 6.000000000000000000e+02 6.500000000000000000e+02 7.000000000000000000e+02 7.500000000000000000e+02 8.000000000000000000e+02 8.000000000000000000e+02 8.500000000000000000e+02 9.000000000000000000e+02 9.500000000000000000e+02 1.000000000000000000e+03 5.440000000000000000e+04 6.600000000000000000e+03 5.800000000000000000e+03 5.050000000000000000e+03 4.350000000000000000e+03 3.700000000000000000e+03 3.100000000000000000e+03 2.550000000000000000e+03 2.050000000000000000e+03 1.600000000000000000e+03 1.200000000000000000e+03 8.500000000000000000e+02 5.500000000000000000e+02 3.000000000000000000e+02 1.000000000000000000e+02 5.000000000000000000e+01 5.000000000000000000e+01 1.000000000000000000e+02 1.500000000000000000e+02 1.500000000000000000e+02 2.000000000000000000e+02 2.500000000000000000e+02 1.230000000000000000e+04 1.000000000000000000e+02 5.000000000000000000e+01 1.900000000000000000e+03 1.900000000000000000e+03 1.900000000000000000e+03 1.900000000000000000e+03 5.000000000000000000e+01 1.000000000000000000e+02 1.500000000000000000e+02 2.000000000000000000e+02 2.500000000000000000e+02 3.000000000000000000e+02 2.545000000000000000e+04 4.000000000000000000e+02 3.500000000000000000e+02 3.000000000000000000e+02 2.500000000000000000e+02 2.000000000000000000e+02 1.500000000000000000e+02 1.000000000000000000e+02 5.000000000000000000e+01 5.000000000000000000e+01 1.000000000000000000e+02 1.500000000000000000e+02 1.000000000000000000e+02 5.000000000000000000e+01 1.000000000000000000e+02 1.500000000000000000e+02 2.000000000000000000e+02
1.550000000000000000e+03 1.100000000000000000e+03 1.400000000000000000e+03 1.700000000000000000e+03 6.500000000000000000e+02 2.500000000000000000e+02 5.000000000000000000e+01 6.650000000000000000e+03 3.850000000000000000e+03 5.000000000000000000e+01 7.845000000000000000e+04 4.500000000000000000e+02 4.500000000000000000e+02 4.500000000000000000e+02 4.500000000000000000e+02 4.500000000000000000e+02 4.500000000000000000e+02 4.500000000000000000e+02 4.500000000000000000e+02 5.000000000000000000e+02 4.000000000000000000e+02 4.000000000000000000e+02 5.000000000000000000e+02 3.500000000000000000e+02 3.500000000000000000e+02 3.500000000000000000e+02 4.000000000000000000e+02 3.000000000000000000e+02 3.000000000000000000e+02 3.000000000000000000e+02 3.000000000000000000e+02 3.000000000000000000e+02 2.500000000000000000e+02 2.000000000000000000e+02 2.000000000000000000e+02 1.500000000000000000e+02 1.500000000000000000e+02 1.000000000000000000e+02 5.000000000000000000e+01 5.000000000000000000e+01 5.000000000000000000e+01 5.000000000000000000e+01 1.000000000000000000e+02 1.500000000000000000e+02 1.500000000000000000e+02 2.000000000000000000e+02 2.000000000000000000e+02 2.500000000000000000e+02 3.000000000000000000e+02 3.500000000000000000e+02 3.500000000000000000e+02 4.000000000000000000e+02 4.500000000000000000e+02 5.000000000000000000e+02 5.000000000000000000e+02 5.500000000000000000e+02 6.000000000000000000e+02 6.500000000000000000e+02 6.500000000000000000e+02 7.000000000000000000e+02 7.500000000000000000e+02 8.000000000000000000e+02 8.500000000000000000e+02 8.500000000000000000e+02 9.000000000000000000e+02 9.500000000000000000e+02 1.000000000000000000e+03 6.210000000000000000e+04 5.000000000000000000e+01 6.000000000000000000e+02 5.500000000000000000e+02 5.000000000000000000e+02 4.500000000000000000e+02 4.000000000000000000e+02 3.500000000000000000e+02 3.000000000000000000e+02 2.500000000000000000e+02 2.000000000000000000e+02 1.500000000000000000e+02 1.000000000000000000e+02 5.000000000000000000e+01 1.000000000000000000e+02 5.000000000000000000e+01 5.000000000000000000e+01 1.000000000000000000e+02 1.500000000000000000e+02 2.000000000000000000e+02 2.000000000000000000e+02 2.500000000000000000e+02 1.270000000000000000e+04 1.000000000000000000e+02 5.000000000000000000e+01 1.950000000000000000e+03 1.950000000000000000e+03 1.950000000000000000e+03 1.950000000000000000e+03 5.000000000000000000e+01 1.000000000000000000e+02 1.500000000000000000e+02 2.000000000000000000e+02 2.500000000000000000e+02 3.000000000000000000e+02 2.620000000000000000e+04 4.000000000000000000e+02 3.500000000000000000e+02 3.000000000000000000e+02 2.500000000000000000e+02 2.000000000000000000e+02 1.500000000000000000e+02 1.000000000000000000e+02 5.000000000000000000e+01 5.000000000000000000e+01 1.000000000000000000e+02 1.500000000000000000e+02 2.000000000000000000e+02 1.500000000000000000e+02 5.000000000000000000e+01 5.000000000000000000e+01 1.000000000000000000e+02
1.650000000000000000e+03 1.150000000000000000e+03 1.450000000000000000e+03 1.750000000000000000e+03 7.000000000000000000e+02 3.000000000000000000e+02 1.000000000000000000e+02 6.700000000000000000e+03 8.340000000000000000e+04 7.945000000000000000e+04 3.500000000000000000e+02 4.000000000000000000e+02 4.000000000000000000e+02 4.000000000000000000e+02 4.000000000000000000e+02 4.000000000000000000e+02 4.000000000000000000e+02 4.000000000000000000e+02 4.000000000000000000e+02 4.000000000000000000e+02 4.500000000000000000e+02 3.500000000000000000e+02 3.500000000000000000e+02 4.500000000000000000e+02 3.000000000000000000e+02 3.000000000000000000e+02 3.000000000000000000e+02 3.500000000000000000e+02 2.500000000000000000e+02 2.500000000000000000e+02 2.500000000000000000e+02 2.500000000000000000e+02 2.500000000000000000e+02 2.000000000000000000e+02 1.500000000000000000e+02 1.500000000000000000e+02 1.000000000000000000e+02 1.000000000000000000e+02 5.000000000000000000e+01 5.000000000000000000e+01 5.000000000000000000e+01 1.000000000000000000e+02 1.000000000000000000e+02 1.500000000000000000e+02 2.000000000000000000e+02 2.000000000000000000e+02 2.500000000000000000e+02 2.500000000000000000e+02 3.000000000000000000e+02 3.500000000000000000e+02 4.000000000000000000e+02 4.000000000000000000e+02 4.500000000000000000e+02 5.000000000000000000e+02 5.500000000000000000e+02 5.500000000000000000e+02 6.000000000000000000e+02 6.500000000000000000e+02 7.000000000000000000e+02 7.000000000000000000e+02 7.500000000000000000e+02 8.000000000000000000e+02 8.500000000000000000e+02 9.000000000000000000e+02 9.000000000000000000e+02 9.500000000000000000e+02 1.000000000000000000e+03 6.315000000000000000e+04 1.200000000000000000e+03 5.500000000000000000e+02 5.000000000000000000e+02 4.500000000000000000e+02 4.000000000000000000e+02 3.500000000000000000e+02 3.000000000000000000e+02 2.500000000000000000e+02 2.000000000000000000e+02 1.500000000000000000e+02 1.000000000000000000e+02 5.000000000000000000e+01 1.500000000000000000e+02 1.000000000000000000e+02 5.000000000000000000e+01 5.000000000000000000e+01 1.000000000000000000e+02 1.500000000000000000e+02 2.000000000000000000e+02 2.500000000000000000e+02 2.500000000000000000e+02 1.310000000000000000e+04 1.000000000000000000e+02 5.000000000000000000e+01 2.000000000000000000e+03 2.000000000000000000e+03 2.000000000000000000e+03 2.000000000000000000e+03 5.000000000000000000e+01 1.000000000000000000e+02 1.500000000000000000e+02 2.000000000000000000e+02 2.500000000000000000e+02 3.000000000000000000e+02 2.695000000000000000e+04 4.000000000000000000e+02 3.500000000000000000e+02 3.000000000000000000e+02 2.500000000000000000e+02 2.000000000000000000e+02 1.500000000000000000e+02 1.000000000000000000e+02 5.000000000000000000e+01 5.000000000000000000e+01 1.000000000000000000e+02 1.500000000000000000e+02 2.000000000000000000e+02 2.500000000000000000e+02 2.000000000000000000e+02 1.000000000000000000e+02 5.000000000000000000e+01
1.750000000000000000e+03 1.200000000000000000e+03 1.500000000000000000e+03 1.800000000000000000e+03 7.500000000000000000e+02 3.500000000000000000e+02 9.110000000000000000e+04 8.425000000000000000e+04 3.000000000000000000e+02 3.000000000000000000e+02 3.000000000000000000e+02 3.000000000000000000e+02 3.500000000000000000e+02 3.500000000000000000e+02 3.500000000000000000e+02 3.500000000000000000e+02 3.500000000000000000e+02 3.500000000000000000e+02 3.500000000000000000e+02 3.500000000000000000e+02 3.500000000000000000e+02 4.000000000000000000e+02 3.000000000000000000e+02 3.000000000000000000e+02 4.000000000000000000e+02 2.500000000000000000e+02 2.500000000000000000e+02 2.500000000000000000e+02 3.000000000000000000e+02 2.000000000000000000e+02 2.000000000000000000e+02 2.000000000000000000e+02 2.000000000000000000e+02 2.000000000000000000e+02 1.500000000000000000e+02 1.000000000000000000e+02 1.000000000000000000e+02 5.000000000000000000e+01 5.000000000000000000e+01 5.000000000000000000e+01 1.000000000000000000e+02 1.000000000000000000e+02 1.500000000000000000e+02 1.500000000000000000e+02 2.000000000000000000e+02 2.500000000000000000e+02 2.500000000000000000e+02 3.000000000000000000e+02 3.000000000000000000e+02 3.500000000000000000e+02 4.000000000000000000e+02 4.500000000000000000e+02 4.500000000000000000e+02 5.000000000000000000e+02 5.500000000000000000e+02 6.000000000000000000e+02 6.000000000000000000e+02 6.500000000000000000e+02 7.000000000000000000e+02 7.500000000000000000e+02 7.500000000000000000e+02 8.000000000000000000e+02 8.500000000000000000e+02 9.000000000000000000e+02 9.500000000000000000e+02 9.500000000000000000e+02 1.000000000000000000e+03 6.545000000000000000e+04 5.000000000000000000e+01 5.000000000000000000e+01 5.000000000000000000e+01 5.000000000000000000e+01 5.000000000000000000e+01 5.000000000000000000e+01 5.000000000000000000e+01 5.000000000000000000e+01 5.000000000000000000e+01 5.000000000000000000e+01 5.000000000000000000e+01 2.000000000000000000e+02 1.500000000000000000e+02 1.000000000000000000e+02 5.000000000000000000e+01 5.000000000000000000e+01 1.000000000000000000e+02 1.500000000000000000e+02 2.000000000000000000e+02 2.500000000000000000e+02 3.000000000000000000e+02 1.350000000000000000e+04 1.000000000000000000e+02 5.000000000000000000e+01 2.050000000000000000e+03 2.050000000000000000e+03 2.050000000000000000e+03 2.050000000000000000e+03 5.000000000000000000e+01 1.000000000000000000e+02 1.500000000000000000e+02 2.000000000000000000e+02 2.500000000000000000e+02 3.000000000000000000e+02 2.770000000000000000e+04 4.000000000000000000e+02 3.500000000000000000e+02 3.000000000000000000e+02 2.500000000000000000e+02 2.000000000000000000e+02 1.500000000000000000e+02 1.000000000000000000e+02 5.000000000000000000e+01 5.000000000000000000e+01 1.000000000000000000e+02 1.500000000000000000e+02 2.000000000000000000e+02 2.500000000000000000e+02 3.000000000000000000e+02 2.500000000000000000e+02 1.500000000000000000e+02
1.850000000000000000e+03 1.250000000000000000e+03 1.550000000000000000e+03 1.850000000000000000e+03 9.295000000000000000e+04 9.180000000000000000e+04 2.500000000000000000e+02 2.500000000000000000e+02 2.500000000000000000e+02 2.500000000000000000e+02 2.500000000000000000e+02 2.500000000000000000e+02 2.500000000000000000e+02 3.000000000000000000e+02 3.000000000000000000e+02 3.000000000000000000e+02 3.000000000000000000e+02 3.000000000000000000e+02 3.000000000000000000e+02 3.000000000000000000e+02 3.000000000000000000e+02 3.000000000000000000e+02 3.500000000000000000e+02 2.500000000000000000e+02 2.500000000000000000e+02 3.500000000000000000e+02 2.000000000000000000e+02 2.000000000000000000e+02 2.000000000000000000e+02 2.500000000000000000e+02 1.500000000000000000e+02 1.500000000000000000e+02 1.500000000000000000e+02 1.500000000000000000e+02 1.500000000000000000e+02 1.000000000000000000e+02 5.000000000000000000e+01 5.000000000000000000e+01 5.000000000000000000e+01 5.000000000000000000e+01 1.000000000000000000e+02 1.500000000000000000e+02 1.500000000000000000e+02 2.000000000000000000e+02 2.000000000000000000e+02 2.500000000000000000e+02 3.000000000000000000e+02 3.000000000000000000e+02 3.500000000000000000e+02 3.500000000000000000e+02 4.000000000000000000e+02 4.500000000000000000e+02 5.000000000000000000e+02 5.000000000000000000e+02 5.500000000000000000e+02 6.000000000000000000e+02 6.500000000000000000e+02 6.500000000000000000e+02 7.000000000000000000e+02 7.500000000000000000e+02 8.000000000000000000e+02 8.000000000000000000e+02 8.500000000000000000e+02 9.000000000000000000e+02 9.500000000000000000e+02 1.000000000000000000e+03 1.000000000000000000e+03 6.650000000000000000e+04 1.600000000000000000e+03 1.500000000000000000e+03 1.400000000000000000e+03 1.300000000000000000e+03 1.200000000000000000e+03 1.100000000000000000e+03 1.000000000000000000e+03 9.000000000000000000e+02 8.000000000000000000e+02 7.000000000000000000e+02 6.000000000000000000e+02 3.500000000000000000e+02 1.500000000000000000e+02 1.000000000000000000e+02 5.000000000000000000e+01 5.000000000000000000e+01 1.000000000000000000e+02 1.500000000000000000e+02 2.000000000000000000e+02 2.500000000000000000e+02 3.000000000000000000e+02 1.395000000000000000e+04 1.000000000000000000e+02 5.000000000000000000e+01 2.100000000000000000e+03 2.100000000000000000e+03 2.100000000000000000e+03 2.100000000000000000e+03 1.000000000000000000e+02 5.000000000000000000e+01 1.500000000000000000e+02 2.000000000000000000e+02 2.500000000000000000e+02 3.000000000000000000e+02 2.845000000000000000e+04 4.000000000000000000e+02 3.500000000000000000e+02 3.000000000000000000e+02 2.500000000000000000e+02 2.000000000000000000e+02 1.500000000000000000e+02 1.000000000000000000e+02 5.000000000000000000e+01 5.000000000000000000e+01 1.000000000000000000e+02 1.500000000000000000e+02 2.000000000000000000e+02 2.500000000000000000e+02 3.000000000000000000e+02 3.500000000000000000e+02 3.000000000000000000e+02
1.950000000000000000e+03 1.300000000000000000e+03 9.695000000000000000e+04 9.350000000000000000e+04 2.000000000000000000e+02 2.000000000000000000e+02 2.000000000000000000e+02 2.000000000000000000e+02 2.000000000000000000e+02 2.000000000000000000e+02 2.000000000000000000e+02 2.000000000000000000e+02 2.000000000000000000e+02 2.000000000000000000e+02 2.500000000000000000e+02 2.500000000000000000e+02 2.500000000000000000e+02 2.500000000000000000e+02 2.500000000000000000e+02 2.500000000000000000e+02 2.500000000000000000e+02 2.500000000000000000e+02 2.500000000000000000e+02 3.000000000000000000e+02 2.000000000000000000e+02 2.000000000000000000e+02 3.000000000000000000e+02 1.500000000000000000e+02 1.500000000000000000e+02 1.500000000000000000e+02 2.000000000000000000e+02 1.000000000000000000e+02 1.000000000000000000e+02 1.000000000000000000e+02 1.000000000000000000e+02 1.000000000000000000e+02 5.000000000000000000e+01 5.000000000000000000e+01 5.000000000000000000e+01 1.000000000000000000e+02 1.000000000000000000e+02 1.500000000000000000e+02 2.000000000000000000e+02 2.000000000000000000e+02 2.500000000000000000e+02 2.500000000000000000e+02 3.000000000000000000e+02 3.500000000000000000e+02 3.500000000000000000e+02 4.000000000000000000e+02 4.000000000000000000e+02 4.500000000000000000e+02 5.000000000000000000e+02 5.500000000000000000e+02 5.500000000000000000e+02 6.000000000000000000e+02 6.500000000000000000e+02 7.000000000000000000e+02 7.000000000000000000e+02 7.500000000000000000e+02 8.000000000000000000e+02 8.500000000000000000e+02 8.500000000000000000e+02 9.000000000000000000e+02 9.500000000000000000e+02 1.000000000000000000e+03 1.050000000000000000e+03 6.920000000000000000e+04 5.000000000000000000e+01 5.500000000000000000e+02 5.000000000000000000e+02 4.500000000000000000e+02 4.000000000000000000e+02 3.500000000000000000e+02 3.000000000000000000e+02 2.500000000000000000e+02 2.000000000000000000e+02 1.500000000000000000e+02 1.000000000000000000e+02 5.000000000000000000e+01 1.500000000000000000e+02 5.000000000000000000e+01 5.000000000000000000e+01 1.000000000000000000e+02 1.000000000000000000e+02 1.500000000000000000e+02 2.000000000000000000e+02 2.500000000000000000e+02 3.000000000000000000e+02 1.440000000000000000e+04 1.000000000000000000e+02 5.000000000000000000e+01 2.150000000000000000e+03 2.150000000000000000e+03 2.150000000000000000e+03 2.150000000000000000e+03 1.500000000000000000e+02 5.000000000000000000e+01 1.000000000000000000e+02 2.000000000000000000e+02 2.500000000000000000e+02 3.000000000000000000e+02 2.920000000000000000e+04 4.000000000000000000e+02 3.500000000000000000e+02 3.000000000000000000e+02 2.500000000000000000e+02 2.000000000000000000e+02 1.500000000000000000e+02 1.000000000000000000e+02 5.000000000000000000e+01 5.000000000000000000e+01 1.000000000000000000e+02 1.500000000000000000e+02 2.000000000000000000e+02 2.500000000000000000e+02 3.000000000000000000e+02 3.500000000000000000e+02 4.000000000000000000e+02
